ply
format ascii 1.0
element vertex 863
property float x
property float y
property float z
property float nx
property float ny
property float nz
property uchar diffuse_red
property uchar diffuse_green
property uchar diffuse_blue
property uchar class
property uchar detection
end_header
-0.0093 0.0097 -0.2323 -0.423 0.867 0.264 98 84 58 0 0
-0.0095 0.0104 -0.2336 -0.492 0.731 0.473 134 120 90 0 0
-0.0097 0.0111 -0.2349 -0.492 0.731 0.473 86 71 45 0 0
-0.0096 0.0113 -0.2364 -0.546 0.787 0.286 69 52 34 0 0
-0.0082 0.0131 -0.2778 -0.246 0.715 0.654 62 54 46 0 0
-0.0085 0.0142 -0.2791 -0.284 0.597 0.751 26 20 16 0 0
-0.0047 0.0046 -0.2922 -0.820 0.548 0.166 14 11 10 0 0
-0.0037 0.0028 -0.3020 -0.979 0.148 0.138 12 8 7 0 0
-0.0039 0.0038 -0.3049 -0.971 0.093 0.219 6 6 6 0 0
-0.0031 0.0022 -0.3085 -0.710 0.499 -0.498 5 5 5 0 0
-0.0012 -0.0031 -0.3131 -0.220 0.931 -0.291 29 26 24 0 0
-0.0003 -0.0054 -0.3153 -0.154 0.923 -0.353 34 30 29 0 0
0.0029 -0.0139 -0.3241 -0.539 0.842 -0.025 139 137 139 0 0
0.0028 -0.0134 -0.3255 -0.660 0.749 0.065 175 175 179 0 0
-0.0262 0.0818 -0.3742 0.390 0.610 0.690 58 48 37 0 0
-0.0220 0.0792 -0.4446 -0.168 0.980 0.105 64 51 32 0 0
-0.0218 0.0789 -0.4464 -0.280 0.941 0.188 63 50 31 0 0
-0.0219 0.0794 -0.4479 -0.211 0.954 0.212 61 48 30 0 0
-0.0219 0.0798 -0.4494 -0.235 0.923 0.305 59 46 29 0 0
-0.0221 0.0805 -0.4507 -0.103 0.928 0.359 56 44 28 0 0
-0.0286 0.1113 -0.5259 0.136 0.986 0.093 83 70 44 0 0
-0.0285 0.1112 -0.5277 0.190 0.953 0.234 85 71 44 0 0
-0.0037 0.0541 -0.6511 -0.655 0.586 -0.476 210 211 215 0 0
-0.0204 0.1253 -0.7917 -0.189 0.724 0.663 71 59 38 0 0
-0.0273 0.1536 -0.8420 -0.168 0.831 0.531 115 98 65 0 0
-0.0280 0.1565 -0.8458 0.271 0.740 0.615 107 94 64 0 0
-0.0285 0.1587 -0.8503 0.098 0.972 0.214 135 120 80 0 0
-0.0290 0.1627 -0.8686 0.286 0.818 0.500 147 146 142 0 0
0.0078 -0.0494 -0.1513 0.185 0.575 0.797 177 177 175 0 0
-0.0051 -0.0061 -0.1801 -0.417 0.871 0.259 167 151 115 0 0
-0.0071 0.0012 -0.1876 -0.519 0.780 0.349 155 136 89 0 0
-0.0072 0.0017 -0.1889 -0.519 0.780 0.349 146 127 88 0 0
-0.0074 0.0026 -0.1902 -0.594 0.698 0.399 136 119 84 0 0
-0.0071 0.0038 -0.2058 -0.584 0.636 0.504 226 214 175 0 0
-0.0085 0.0111 -0.2262 -0.535 0.701 0.471 61 46 27 0 0
-0.0086 0.0122 -0.2318 -0.581 0.755 0.304 66 52 27 0 0
-0.0088 0.0132 -0.2345 -0.581 0.755 0.304 105 91 60 0 0
-0.0057 0.0076 -0.2595 -0.204 0.865 0.458 39 30 20 0 0
-0.0055 0.0071 -0.2611 -0.422 0.899 -0.118 34 26 18 0 0
-0.0066 0.0127 -0.2764 -0.366 0.670 0.645 142 133 123 0 0
-0.0069 0.0138 -0.2777 -0.366 0.670 0.645 86 78 68 0 0
0.0041 -0.0126 -0.3238 -0.532 0.751 0.390 165 164 167 0 0
-0.0240 0.0801 -0.3749 0.308 0.618 0.723 61 53 38 0 0
-0.0245 0.0816 -0.3759 0.165 0.738 0.654 63 53 41 0 0
-0.0248 0.0828 -0.3771 0.223 0.788 0.574 65 55 43 0 0
-0.0251 0.0841 -0.3797 -0.492 0.793 0.360 53 41 25 0 0
-0.0253 0.0846 -0.3811 -0.448 0.867 0.217 57 44 27 0 0
-0.0254 0.0852 -0.3825 -0.492 0.793 0.360 63 50 32 0 0
-0.0207 0.0796 -0.4396 0.064 0.995 0.070 67 52 33 0 0
-0.0205 0.0793 -0.4414 -0.078 0.991 0.111 67 52 33 0 0
-0.0205 0.0793 -0.4431 -0.168 0.980 0.105 66 52 33 0 0
-0.0203 0.0791 -0.4448 -0.321 0.936 0.144 63 51 32 0 0
-0.0203 0.0794 -0.4464 -0.280 0.941 0.188 63 50 33 0 0
-0.0204 0.0797 -0.4479 -0.211 0.954 0.212 62 50 34 0 0
-0.0205 0.0803 -0.4493 -0.366 0.859 0.358 56 47 32 0 0
-0.0208 0.0813 -0.4505 -0.181 0.908 0.379 52 42 28 0 0
-0.0207 0.0813 -0.4522 -0.007 0.928 0.372 54 45 33 0 0
-0.0206 0.0831 -0.4665 0.300 0.953 -0.038 190 192 197 0 0
-0.0279 0.1093 -0.4945 0.232 0.954 0.188 78 64 44 0 0
-0.0244 0.1090 -0.5628 0.510 0.845 -0.160 80 69 53 0 0
-0.0236 0.1072 -0.5675 0.526 0.819 -0.231 91 84 78 0 0
-0.0233 0.1067 -0.5696 0.441 0.848 -0.294 154 154 153 0 0
-0.0040 0.0575 -0.6314 -0.737 0.633 0.238 212 213 217 0 0
-0.0040 0.0577 -0.6332 -0.763 0.575 0.294 206 207 211 0 0
-0.0027 0.0563 -0.6499 -0.721 0.537 -0.439 211 211 214 0 0
-0.0041 0.0633 -0.6673 -0.159 0.924 0.347 8 8 8 0 0
-0.0043 0.0638 -0.6689 -0.159 0.924 0.347 6 6 6 0 0
-0.0029 0.0659 -0.7103 0.345 0.729 0.592 3 2 1 0 0
-0.0042 0.0698 -0.7116 0.071 0.519 0.852 18 17 16 0 0
-0.0159 0.1155 -0.7811 -0.127 0.895 0.427 59 48 34 0 0
-0.0255 0.1519 -0.8308 0.051 0.937 0.347 111 96 66 0 0
-0.0259 0.1538 -0.8356 -0.026 0.952 0.305 117 102 69 0 0
0.0050 -0.0357 -0.1541 -0.360 0.090 0.929 179 176 170 0 0
-0.0034 -0.0080 -0.1691 0.001 0.681 0.732 186 168 129 0 0
-0.0043 -0.0048 -0.1729 0.071 0.808 0.584 182 169 123 0 0
-0.0046 -0.0039 -0.1742 0.071 0.808 0.584 176 158 114 0 0
-0.0056 0.0026 -0.1974 -0.209 0.902 0.377 109 95 66 0 0
-0.0059 0.0040 -0.2000 -0.413 0.795 0.446 74 58 33 0 0
-0.0060 0.0051 -0.2041 -0.513 0.634 0.579 116 102 75 0 0
-0.0065 0.0071 -0.2081 -0.605 0.602 0.521 143 128 94 0 0
-0.0044 0.0084 -0.2594 -0.558 0.827 0.069 47 37 23 0 0
-0.0044 0.0086 -0.2608 -0.558 0.827 0.069 44 35 22 0 0
-0.0041 0.0083 -0.2654 -0.939 0.125 0.321 51 42 32 0 0
-0.0040 0.0084 -0.2669 -0.906 0.094 0.413 43 36 26 0 0
-0.0062 0.0170 -0.2800 -0.472 0.642 0.604 47 38 31 0 0
-0.0025 0.0074 -0.2916 -0.897 0.442 -0.007 17 12 11 0 0
-0.0012 0.0059 -0.3076 -0.669 0.570 -0.477 6 6 6 0 0
-0.0230 0.0819 -0.3760 -0.032 0.492 0.870 79 72 53 0 0
-0.0237 0.0841 -0.3767 -0.443 0.748 0.495 86 80 64 0 0
-0.0217 0.0796 -0.3878 0.067 0.994 0.088 76 64 43 0 0
-0.0217 0.0798 -0.3893 0.088 0.989 -0.120 69 57 35 0 0
-0.0216 0.0799 -0.3909 0.088 0.993 0.076 70 58 36 0 0
-0.0191 0.0795 -0.4398 0.064 0.995 0.070 66 53 35 0 0
-0.0190 0.0794 -0.4415 -0.078 0.991 0.111 66 54 36 0 0
-0.0189 0.0796 -0.4431 -0.168 0.980 0.105 68 57 41 0 0
-0.0188 0.0796 -0.4448 -0.321 0.936 0.144 68 57 42 0 0
-0.0188 0.0798 -0.4463 -0.280 0.941 0.188 67 59 44 0 0
-0.0189 0.0803 -0.4478 -0.285 0.925 0.251 65 57 45 0 0
-0.0191 0.0811 -0.4491 -0.181 0.908 0.379 60 52 44 0 0
-0.0192 0.0816 -0.4505 -0.181 0.908 0.379 63 56 49 0 0
-0.0189 0.0825 -0.4635 0.672 0.740 0.035 197 198 202 0 0
-0.0269 0.1120 -0.5000 -0.355 0.931 0.084 75 59 38 0 0
-0.0266 0.1118 -0.5036 -0.151 0.988 0.039 70 54 31 0 0
-0.0252 0.1079 -0.5073 0.417 0.906 0.077 76 61 36 0 0
-0.0215 0.1055 -0.5651 0.437 0.882 -0.175 106 99 91 0 0
-0.0212 0.1051 -0.5671 0.409 0.898 -0.161 151 147 148 0 0
-0.0026 0.0581 -0.6273 0.007 1.000 -0.005 207 209 212 0 0
-0.0028 0.0591 -0.6306 -0.250 0.943 0.221 205 206 210 0 0
-0.0026 0.0587 -0.6328 -0.651 0.705 0.283 212 213 217 0 0
-0.0023 0.0587 -0.6387 -0.001 0.988 -0.154 212 212 216 0 0
-0.0035 0.0668 -0.6672 -0.112 0.478 0.871 7 6 6 0 0
-0.0037 0.0674 -0.6688 -0.265 0.692 0.671 6 4 5 0 0
-0.0018 0.0630 -0.6778 -0.748 0.615 -0.250 5 3 4 0 0
-0.0009 0.0634 -0.6979 -0.651 0.679 -0.340 2 2 2 0 0
-0.0026 0.0684 -0.6964 -0.804 -0.043 0.593 3 3 3 0 0
-0.0014 0.0663 -0.7061 -0.767 0.223 0.602 2 2 2 0 0
-0.0210 0.1265 -0.7148 -0.081 0.163 0.983 71 62 52 0 0
-0.0149 0.1182 -0.7813 -0.138 0.736 0.663 51 39 26 0 0
-0.0177 0.1287 -0.7959 -0.025 0.855 0.518 72 57 34 0 0
-0.0198 0.1362 -0.8043 -0.094 0.924 0.371 69 52 27 0 0
-0.0200 0.1371 -0.8058 -0.042 0.907 0.418 77 61 37 0 0
-0.0008 -0.0121 -0.1640 0.010 0.767 0.641 139 121 83 0 0
-0.0019 -0.0080 -0.1691 0.001 0.681 0.732 168 148 116 0 0
-0.0045 0.0049 -0.2028 -0.351 0.920 0.174 109 95 70 0 0
-0.0054 0.0085 -0.2079 -0.368 0.584 0.724 185 170 133 0 0
-0.0056 0.0091 -0.2092 -0.556 0.659 0.506 134 119 88 0 0
-0.0048 0.0080 -0.2167 -0.556 0.772 0.309 122 104 71 0 0
-0.0063 0.0148 -0.2328 -0.334 0.621 0.709 72 59 39 0 0
-0.0069 0.0171 -0.2368 -0.467 0.867 0.175 77 61 42 0 0
0.0058 -0.0073 -0.3257 -0.441 0.773 -0.456 176 177 181 0 0
0.0047 -0.0039 -0.3263 -0.934 0.344 -0.094 176 177 181 0 0
-0.0175 0.0693 -0.3712 -0.029 0.524 0.851 150 151 149 0 0
-0.0180 0.0709 -0.3722 -0.029 0.524 0.851 119 114 108 0 0
-0.0185 0.0727 -0.3731 0.187 0.582 0.791 113 104 94 0 0
-0.0174 0.0797 -0.4415 -0.168 0.980 0.105 68 61 50 0 0
-0.0174 0.0798 -0.4431 -0.168 0.980 0.105 76 69 60 0 0
-0.0174 0.0801 -0.4447 -0.321 0.936 0.144 82 75 68 0 0
-0.0174 0.0802 -0.4463 -0.280 0.941 0.188 90 84 80 0 0
-0.0175 0.0807 -0.4477 -0.285 0.925 0.251 105 100 97 0 0
-0.0169 0.0807 -0.4595 0.658 0.753 0.000 198 198 202 0 0
-0.0182 0.0885 -0.4847 0.663 0.372 0.650 166 167 165 0 0
-0.0214 0.1032 -0.5186 0.237 0.841 0.486 84 69 44 0 0
-0.0216 0.1040 -0.5200 0.237 0.841 0.486 86 71 46 0 0
-0.0012 0.0581 -0.6217 0.007 1.000 -0.005 211 215 216 0 0
-0.0011 0.0581 -0.6237 0.007 1.000 -0.005 210 212 215 0 0
-0.0010 0.0581 -0.6256 0.007 1.000 -0.005 206 207 210 0 0
-0.0009 0.0581 -0.6276 0.007 1.000 -0.005 210 210 214 0 0
-0.0013 0.0595 -0.6287 0.143 0.987 0.070 210 208 212 0 0
-0.0010 0.0590 -0.6310 0.022 0.975 0.220 200 197 199 0 0
-0.0010 0.0594 -0.6326 0.052 0.968 0.246 182 180 182 0 0
0.0001 0.0577 -0.6435 0.294 0.934 -0.205 77 75 73 0 0
-0.0030 0.0702 -0.6652 -0.349 0.893 0.285 7 5 6 0 0
-0.0029 0.0703 -0.6671 -0.383 0.801 0.460 6 4 5 0 0
-0.0032 0.0712 -0.6685 -0.621 0.777 0.100 6 4 5 0 0
-0.0012 0.0706 -0.7033 -0.766 0.599 0.235 2 2 2 0 0
-0.0005 0.0689 -0.7066 -0.448 0.641 0.624 3 3 3 0 0
-0.0010 0.0707 -0.7074 -0.352 0.927 -0.132 3 3 3 0 0
-0.0007 0.0704 -0.7117 0.171 0.375 0.911 4 4 4 0 0
-0.0248 0.1429 -0.7144 0.017 0.852 0.523 109 94 71 0 0
-0.0122 0.1147 -0.7781 0.203 0.962 -0.183 69 57 44 0 0
-0.0143 0.1219 -0.7828 -0.170 0.939 0.299 46 33 23 0 0
-0.0143 0.1221 -0.7847 -0.090 0.990 0.106 40 26 17 0 0
-0.0144 0.1229 -0.7883 -0.000 0.941 0.338 67 54 38 0 0
-0.0176 0.1347 -0.8039 -0.010 0.844 0.537 86 72 47 0 0
-0.0181 0.1364 -0.8046 -0.207 0.811 0.547 75 60 34 0 0
-0.0183 0.1372 -0.8060 -0.042 0.907 0.418 92 78 50 0 0
-0.0197 0.1448 -0.8273 -0.209 0.843 0.496 115 101 66 0 0
-0.0221 0.1532 -0.8369 0.184 0.969 0.164 102 88 61 0 0
-0.0224 0.1549 -0.8419 -0.116 0.963 0.241 103 88 55 0 0
-0.0224 0.1555 -0.8457 -0.089 0.924 0.373 127 112 79 0 0
-0.0225 0.1562 -0.8473 -0.184 0.935 0.304 141 125 90 0 0
0.0091 -0.0390 -0.1502 -0.819 0.160 0.550 177 177 177 0 0
0.0016 -0.0152 -0.1588 -0.073 0.901 0.428 152 132 96 0 0
-0.0006 -0.0073 -0.1690 0.020 0.869 0.494 169 150 117 0 0
-0.0007 -0.0066 -0.1703 0.020 0.869 0.494 138 119 85 0 0
-0.0032 0.0028 -0.1846 -0.570 0.798 0.196 171 154 105 0 0
-0.0041 0.0097 -0.2106 -0.314 0.944 0.102 122 107 79 0 0
-0.0046 0.0116 -0.2146 -0.528 0.661 0.533 100 82 53 0 0
-0.0042 0.0108 -0.2162 -0.293 0.766 0.573 106 87 56 0 0
-0.0045 0.0119 -0.2174 -0.144 0.940 0.310 102 86 55 0 0
-0.0046 0.0123 -0.2188 -0.144 0.940 0.310 97 80 52 0 0
-0.0047 0.0129 -0.2201 -0.092 0.940 0.327 82 67 43 0 0
-0.0050 0.0157 -0.2327 -0.305 0.761 0.572 85 70 48 0 0
-0.0052 0.0165 -0.2340 -0.358 0.746 0.561 113 98 72 0 0
-0.0028 0.0137 -0.2643 -0.871 0.403 0.280 88 79 64 0 0
-0.0040 0.0201 -0.2809 -0.596 0.736 0.321 37 31 24 0 0
-0.0013 0.0134 -0.2903 0.112 0.933 -0.342 50 45 42 0 0
-0.0166 0.0716 -0.3721 -0.110 0.647 0.755 131 129 125 0 0
-0.0171 0.0730 -0.3731 -0.026 0.723 0.690 111 104 96 0 0
-0.0176 0.0746 -0.3741 0.274 0.847 0.456 95 85 73 0 0
-0.0159 0.0800 -0.4416 -0.093 0.984 0.150 140 137 136 0 0
-0.0159 0.0802 -0.4431 -0.093 0.984 0.150 153 152 151 0 0
-0.0159 0.0804 -0.4447 -0.093 0.984 0.150 166 165 166 0 0
-0.0159 0.0812 -0.4494 0.146 0.987 0.066 191 192 196 0 0
-0.0159 0.0813 -0.4509 0.191 0.979 0.073 195 197 200 0 0
-0.0148 0.0789 -0.4554 0.652 0.758 0.009 196 198 202 0 0
-0.0147 0.0788 -0.4571 0.652 0.758 0.009 198 199 202 0 0
-0.0168 0.0894 -0.4861 0.716 0.431 0.549 197 197 199 0 0
-0.0173 0.0912 -0.4870 0.747 0.410 0.524 181 179 180 0 0
-0.0180 0.0996 -0.5295 -0.824 0.467 0.321 86 72 50 0 0
-0.0182 0.1003 -0.5309 -0.824 0.467 0.321 82 67 46 0 0
-0.0188 0.1022 -0.5316 -0.266 0.909 0.322 76 62 40 0 0
-0.0186 0.1026 -0.5385 -0.174 0.944 0.279 71 59 40 0 0
-0.0186 0.1031 -0.5400 -0.174 0.944 0.279 70 59 40 0 0
-0.0187 0.1035 -0.5415 -0.174 0.944 0.279 71 59 43 0 0
-0.0188 0.1040 -0.5431 -0.186 0.950 0.253 68 56 43 0 0
0.0003 0.0584 -0.6179 0.761 0.620 0.193 198 199 198 0 0
0.0003 0.0588 -0.6196 0.732 0.667 0.142 177 178 177 0 0
0.0006 0.0581 -0.6220 0.007 1.000 -0.005 151 152 150 0 0
0.0007 0.0581 -0.6239 0.007 1.000 -0.005 138 138 137 0 0
-0.0005 0.0631 -0.6325 -0.970 0.236 0.056 49 43 40 0 0
-0.0008 0.0668 -0.6518 -0.911 0.399 0.106 12 11 10 0 0
-0.0008 0.0671 -0.6536 -0.924 0.380 0.044 11 10 8 0 0
-0.0007 0.0675 -0.6573 -0.893 0.448 -0.049 8 7 5 0 0
-0.0019 0.0710 -0.6570 -0.518 0.839 0.169 8 7 5 0 0
-0.0021 0.0717 -0.6585 -0.627 0.748 0.218 9 8 6 0 0
-0.0021 0.0722 -0.6602 -0.305 0.938 0.167 9 8 6 0 0
-0.0017 0.0719 -0.6663 -0.586 0.795 0.156 7 5 6 0 0
-0.0018 0.0722 -0.6681 -0.621 0.777 0.100 7 5 6 0 0
0.0001 0.0720 -0.7026 -0.623 0.781 -0.040 2 2 2 0 0
-0.0008 0.0747 -0.7028 -0.804 0.572 -0.161 3 3 3 0 0
0.0000 0.0728 -0.7062 -0.690 0.719 -0.087 3 3 3 0 0
-0.0000 0.0732 -0.7080 -0.865 0.481 0.143 2 2 2 0 0
-0.0001 0.0736 -0.7098 -0.938 0.346 0.025 2 2 2 0 0
0.0005 0.0723 -0.7127 0.077 0.480 0.874 3 2 3 0 0
-0.0244 0.1480 -0.7227 0.177 0.850 0.497 98 86 65 0 0
-0.0246 0.1488 -0.7241 0.208 0.911 0.355 114 99 78 0 0
-0.0103 0.1145 -0.7786 0.112 0.992 0.064 63 51 39 0 0
-0.0126 0.1230 -0.7886 -0.000 0.941 0.338 35 21 10 0 0
-0.0157 0.1346 -0.8043 -0.198 0.637 0.745 95 82 57 0 0
-0.0168 0.1384 -0.8074 -0.212 0.793 0.571 100 87 63 0 0
-0.0202 0.1529 -0.8376 0.121 0.978 0.170 105 90 59 0 0
-0.0199 0.1574 -0.8709 0.277 0.955 0.106 142 142 140 0 0
0.0127 -0.0445 -0.1537 0.073 0.243 0.967 177 176 177 0 0
0.0087 -0.0326 -0.1538 -0.096 0.279 0.955 171 168 161 0 0
0.0010 -0.0072 -0.1690 -0.329 0.866 0.376 194 178 142 0 0
-0.0011 -0.0000 -0.1765 -0.530 0.754 0.389 235 225 187 0 0
-0.0012 0.0006 -0.1778 -0.530 0.754 0.389 247 235 186 0 0
-0.0013 0.0011 -0.1792 -0.530 0.754 0.389 215 197 147 0 0
-0.0035 0.0127 -0.2130 -0.620 0.751 0.229 84 70 43 0 0
-0.0035 0.0139 -0.2200 -0.105 0.976 0.191 103 88 58 0 0
-0.0031 0.0220 -0.2805 -0.451 0.653 0.609 55 47 37 0 0
0.0002 0.0156 -0.3021 -0.460 0.505 0.730 8 7 9 0 0
-0.0002 0.0170 -0.3033 -0.542 0.462 0.702 9 10 11 0 0
-0.0155 0.0731 -0.3732 -0.142 0.766 0.627 129 126 121 0 0
-0.0158 0.0742 -0.3744 0.274 0.847 0.456 96 88 80 0 0
-0.0147 0.0790 -0.4272 0.235 0.972 0.020 156 152 152 0 0
-0.0146 0.0790 -0.4289 0.194 0.978 0.078 161 160 161 0 0
-0.0146 0.0791 -0.4305 0.194 0.978 0.078 163 163 164 0 0
-0.0145 0.0792 -0.4321 0.194 0.978 0.078 165 165 167 0 0
-0.0145 0.0794 -0.4337 0.229 0.971 0.070 172 172 175 0 0
-0.0145 0.0795 -0.4353 0.229 0.971 0.070 178 178 180 0 0
-0.0143 0.0798 -0.4401 0.229 0.971 0.070 188 189 192 0 0
-0.0142 0.0797 -0.4418 0.316 0.934 0.169 191 192 195 0 0
-0.0142 0.0801 -0.4433 0.258 0.955 0.149 193 194 198 0 0
-0.0143 0.0804 -0.4448 0.260 0.957 0.126 194 195 200 0 0
-0.0143 0.0807 -0.4464 0.146 0.984 0.098 195 196 200 0 0
-0.0143 0.0808 -0.4480 0.146 0.987 0.066 195 196 200 0 0
-0.0142 0.0809 -0.4496 0.146 0.987 0.066 195 197 201 0 0
-0.0142 0.0810 -0.4512 0.191 0.979 0.073 196 198 201 0 0
-0.0154 0.0904 -0.4892 0.735 0.434 0.520 198 198 203 0 0
-0.0159 0.0922 -0.4901 0.753 0.428 0.500 190 189 192 0 0
-0.0165 0.0942 -0.4908 0.725 0.476 0.498 169 167 167 0 0
-0.0176 0.1020 -0.5214 0.551 0.832 0.064 90 76 57 0 0
-0.0168 0.1000 -0.5242 -0.742 0.658 0.131 90 76 58 0 0
-0.0171 0.1017 -0.5286 -0.266 0.909 0.322 80 66 53 0 0
-0.0172 0.1022 -0.5301 -0.266 0.909 0.322 73 60 47 0 0
-0.0173 0.1027 -0.5316 -0.266 0.909 0.322 74 62 49 0 0
-0.0172 0.1026 -0.5334 -0.051 0.982 0.181 75 66 55 0 0
-0.0174 0.1047 -0.5428 0.535 0.845 0.014 121 115 113 0 0
0.0027 0.0545 -0.6050 0.617 0.773 -0.146 108 107 109 0 0
0.0031 0.0538 -0.6074 0.617 0.773 -0.146 101 101 101 0 0
0.0024 0.0564 -0.6116 -0.585 0.800 0.132 63 60 58 0 0
0.0002 0.0631 -0.6114 -0.971 0.213 0.104 46 44 41 0 0
-0.0008 0.0755 -0.6742 -0.710 0.697 -0.101 7 5 5 0 0
0.0004 0.0762 -0.7020 -0.782 0.614 -0.106 3 3 3 0 0
0.0009 0.0756 -0.7065 -0.951 0.281 0.126 2 2 2 0 0
0.0009 0.0760 -0.7083 -0.938 0.346 0.025 2 2 2 0 0
0.0009 0.0761 -0.7103 -0.938 0.311 0.155 3 2 3 0 0
-0.0082 0.1136 -0.7776 0.052 0.963 0.263 37 25 14 0 0
-0.0083 0.1141 -0.7794 0.052 0.963 0.263 53 41 29 0 0
-0.0083 0.1143 -0.7813 0.090 0.951 0.296 45 33 21 0 0
-0.0164 0.1438 -0.8159 -0.138 0.903 0.408 83 68 42 0 0
-0.0166 0.1444 -0.8175 -0.138 0.903 0.408 65 50 24 0 0
0.0024 -0.0062 -0.1732 -0.257 0.891 0.374 189 172 130 0 0
0.0008 -0.0005 -0.1794 -0.062 0.971 0.230 170 148 109 0 0
0.0002 0.0015 -0.1806 -0.264 0.871 0.414 136 113 84 0 0
0.0033 -0.0052 -0.1973 -0.501 0.608 0.617 70 54 29 0 0
-0.0015 0.0112 -0.2104 -0.093 0.861 0.500 105 89 65 0 0
-0.0021 0.0134 -0.2129 -0.342 0.807 0.482 121 105 74 0 0
-0.0029 0.0172 -0.2238 -0.085 0.973 0.213 164 148 108 0 0
-0.0021 0.0182 -0.2455 -0.910 0.413 -0.037 46 37 23 0 0
-0.0020 0.0233 -0.2802 -0.573 0.498 0.651 64 55 43 0 0
0.0008 0.0174 -0.2955 -0.547 0.561 0.622 36 32 29 0 0
0.0006 0.0189 -0.3013 -0.667 0.480 0.570 15 14 14 0 0
0.0003 0.0199 -0.3026 -0.705 0.383 0.597 14 14 13 0 0
0.0069 0.0039 -0.3243 -0.982 0.063 0.181 176 177 181 0 0
0.0061 0.0065 -0.3252 -0.918 0.360 -0.166 177 178 182 0 0
0.0065 0.0055 -0.3270 -0.909 0.338 -0.246 177 178 182 0 0
-0.0144 0.0746 -0.3743 -0.361 0.897 0.255 145 143 141 0 0
-0.0129 0.0772 -0.4199 0.483 0.875 -0.021 183 184 184 0 0
-0.0126 0.0766 -0.4218 0.589 0.808 -0.010 184 185 186 0 0
-0.0129 0.0788 -0.4307 0.229 0.971 0.070 189 190 194 0 0
-0.0128 0.0789 -0.4324 0.194 0.978 0.078 190 191 195 0 0
-0.0128 0.0790 -0.4340 0.229 0.971 0.070 190 191 195 0 0
-0.0127 0.0791 -0.4356 0.229 0.971 0.070 191 192 196 0 0
-0.0127 0.0792 -0.4372 0.229 0.971 0.070 192 193 197 0 0
-0.0126 0.0793 -0.4388 0.229 0.971 0.070 192 193 197 0 0
-0.0122 0.0786 -0.4408 0.399 0.910 0.113 192 193 197 0 0
-0.0124 0.0791 -0.4422 0.316 0.934 0.169 193 194 198 0 0
-0.0125 0.0797 -0.4436 0.262 0.954 0.142 194 195 199 0 0
-0.0125 0.0799 -0.4452 0.260 0.957 0.126 195 196 200 0 0
-0.0126 0.0805 -0.4466 0.146 0.984 0.098 195 196 200 0 0
-0.0125 0.0806 -0.4482 0.146 0.987 0.066 196 197 201 0 0
-0.0125 0.0807 -0.4499 0.146 0.987 0.066 197 198 202 0 0
-0.0124 0.0808 -0.4515 0.146 0.987 0.066 197 198 202 0 0
-0.0161 0.0995 -0.5020 0.771 0.586 0.249 114 110 107 0 0
-0.0155 0.0997 -0.5141 0.584 0.806 0.097 79 71 61 0 0
-0.0155 0.0999 -0.5157 0.584 0.806 0.097 75 69 57 0 0
-0.0156 0.1003 -0.5172 0.281 0.953 0.116 85 78 68 0 0
-0.0156 0.1005 -0.5189 0.257 0.964 0.071 86 79 70 0 0
-0.0156 0.1007 -0.5205 0.186 0.976 0.116 93 86 77 0 0
-0.0155 0.1009 -0.5222 0.186 0.976 0.116 96 91 81 0 0
-0.0155 0.1011 -0.5238 0.186 0.976 0.116 97 91 82 0 0
-0.0154 0.1012 -0.5255 0.100 0.974 0.204 103 97 88 0 0
-0.0155 0.1019 -0.5287 0.113 0.959 0.259 118 114 109 0 0
-0.0155 0.1021 -0.5303 0.030 0.963 0.266 131 127 123 0 0
-0.0156 0.1025 -0.5318 0.004 0.981 0.196 145 141 139 0 0
-0.0157 0.1032 -0.5333 0.232 0.972 0.043 154 152 152 0 0
-0.0157 0.1032 -0.5350 0.232 0.972 0.043 169 166 166 0 0
-0.0157 0.1035 -0.5366 0.191 0.980 -0.055 187 185 185 0 0
-0.0155 0.1034 -0.5385 0.180 0.982 -0.057 200 199 200 0 0
-0.0153 0.1031 -0.5404 0.296 0.954 -0.049 207 207 209 0 0
0.0024 0.0591 -0.5949 0.524 0.839 -0.145 71 67 71 0 0
0.0027 0.0585 -0.5972 0.194 0.965 -0.176 54 52 51 0 0
0.0032 0.0586 -0.6067 -0.920 0.392 -0.004 36 32 28 0 0
0.0032 0.0589 -0.6084 -0.825 0.564 -0.006 41 36 31 0 0
0.0034 0.0586 -0.6105 -0.607 0.779 0.157 38 33 28 0 0
0.0009 0.0658 -0.6100 -0.949 0.291 0.124 31 26 22 0 0
0.0010 0.0658 -0.6120 -0.883 0.464 0.066 31 26 22 0 0
0.0015 0.0668 -0.6268 -0.894 0.437 0.100 41 35 29 0 0
0.0014 0.0675 -0.6303 -0.914 0.402 0.051 35 29 23 0 0
-0.0004 0.0797 -0.6736 -0.532 0.695 0.485 4 2 2 0 0
-0.0006 0.0804 -0.6751 -0.420 0.714 0.559 6 4 5 0 0
-0.0010 0.0816 -0.6762 -0.571 0.762 0.307 7 5 6 0 0
-0.0006 0.0822 -0.6859 -0.915 0.403 -0.005 4 3 3 0 0
-0.0006 0.0824 -0.6878 -0.905 0.413 -0.098 3 3 3 0 0
-0.0004 0.0822 -0.6899 -0.926 0.342 -0.158 3 3 3 0 0
-0.0001 0.0816 -0.6924 -0.941 0.337 -0.030 3 3 3 0 0
-0.0000 0.0825 -0.6998 -0.935 0.353 0.043 3 3 3 0 0
0.0008 0.0807 -0.7032 -0.789 0.577 -0.211 3 3 3 0 0
0.0013 0.0800 -0.7078 -0.817 0.519 -0.253 4 3 3 0 0
0.0019 0.0785 -0.7109 -0.472 0.713 0.519 4 2 3 0 0
-0.0204 0.1460 -0.7210 0.215 0.693 0.689 85 72 49 0 0
-0.0074 0.1161 -0.7759 -0.493 0.791 -0.363 59 47 33 0 0
-0.0063 0.1135 -0.7802 -0.060 0.959 0.276 57 45 32 0 0
-0.0087 0.1217 -0.7862 -0.086 0.844 0.529 70 57 39 0 0
0.0023 -0.0003 -0.1794 -0.197 0.930 0.310 120 99 69 0 0
0.0024 0.0000 -0.1836 -0.041 0.947 0.319 128 109 75 0 0
0.0023 0.0005 -0.1850 -0.041 0.947 0.319 118 99 66 0 0
0.0025 0.0017 -0.1962 -0.407 0.911 0.057 87 70 43 0 0
0.0028 0.0011 -0.1978 -0.365 0.813 0.455 83 67 38 0 0
-0.0000 0.0113 -0.2104 -0.147 0.817 0.557 105 89 61 0 0
-0.0006 0.0139 -0.2157 -0.445 0.707 0.549 143 126 89 0 0
-0.0013 0.0175 -0.2252 -0.166 0.980 0.106 149 130 91 0 0
-0.0013 0.0177 -0.2266 -0.166 0.980 0.106 145 123 89 0 0
-0.0012 0.0177 -0.2281 -0.261 0.962 0.077 135 112 80 0 0
-0.0013 0.0181 -0.2295 -0.459 0.871 0.176 135 114 80 0 0
0.0021 0.0182 -0.2938 -0.595 0.769 0.234 57 54 50 0 0
0.0066 0.0089 -0.3198 -0.834 0.316 -0.451 177 178 182 0 0
0.0074 0.0073 -0.3250 -0.852 0.369 -0.372 177 178 182 0 0
-0.0117 0.0749 -0.3966 0.683 0.726 0.080 179 180 182 0 0
-0.0113 0.0764 -0.4138 0.456 0.889 0.035 182 187 190 0 0
-0.0113 0.0766 -0.4154 0.428 0.904 0.006 182 187 189 0 0
-0.0112 0.0765 -0.4171 0.428 0.904 0.006 183 188 191 0 0
-0.0111 0.0765 -0.4187 0.428 0.904 0.006 185 188 191 0 0
-0.0108 0.0760 -0.4205 0.462 0.886 -0.040 185 188 193 0 0
-0.0102 0.0748 -0.4243 0.589 0.808 -0.010 186 188 194 0 0
-0.0112 0.0783 -0.4278 0.198 0.979 0.039 188 191 194 0 0
-0.0111 0.0783 -0.4294 0.194 0.978 0.078 189 190 194 0 0
-0.0109 0.0787 -0.4359 0.229 0.971 0.070 191 192 196 0 0
-0.0109 0.0788 -0.4375 0.229 0.971 0.070 191 192 196 0 0
-0.0108 0.0789 -0.4391 0.229 0.971 0.070 192 193 197 0 0
-0.0102 0.0775 -0.4414 0.390 0.908 0.156 193 194 198 0 0
-0.0102 0.0778 -0.4429 0.390 0.908 0.156 194 195 199 0 0
-0.0109 0.0803 -0.4469 0.146 0.984 0.098 195 196 200 0 0
-0.0126 0.0940 -0.5016 0.756 0.609 0.241 200 203 206 0 0
-0.0126 0.0953 -0.5096 0.777 0.612 0.148 184 185 187 0 0
-0.0127 0.0957 -0.5111 0.763 0.634 0.124 179 179 182 0 0
-0.0128 0.0961 -0.5126 0.763 0.634 0.124 181 180 183 0 0
-0.0139 0.0998 -0.5159 0.779 0.623 0.073 183 184 185 0 0
-0.0138 0.1000 -0.5176 0.807 0.586 0.070 184 186 187 0 0
-0.0138 0.1001 -0.5193 0.779 0.623 0.073 185 186 189 0 0
-0.0138 0.1003 -0.5209 0.779 0.623 0.073 191 192 195 0 0
-0.0137 0.1004 -0.5226 0.779 0.623 0.073 191 192 194 0 0
-0.0136 0.1005 -0.5261 0.786 0.616 0.051 195 197 200 0 0
-0.0141 0.1022 -0.5269 0.114 0.990 0.085 197 200 204 0 0
-0.0138 0.1021 -0.5305 0.030 0.963 0.266 201 204 208 0 0
0.0036 0.0596 -0.5872 0.553 0.823 -0.132 64 63 63 0 0
0.0041 0.0600 -0.6003 -0.849 0.512 -0.131 30 29 25 0 0
0.0042 0.0601 -0.6022 -0.906 0.410 -0.104 27 26 22 0 0
0.0041 0.0608 -0.6056 -0.920 0.392 -0.004 29 26 20 0 0
0.0042 0.0610 -0.6074 -0.920 0.392 -0.004 35 31 24 0 0
0.0042 0.0611 -0.6093 -0.887 0.461 0.033 39 34 29 0 0
0.0023 0.0666 -0.6079 -0.779 0.614 0.124 32 27 23 0 0
0.0023 0.0668 -0.6097 -0.840 0.531 0.109 30 25 21 0 0
0.0023 0.0671 -0.6114 -0.840 0.531 0.109 31 26 22 0 0
0.0016 0.0746 -0.6455 -0.888 0.439 0.137 26 23 18 0 0
0.0015 0.0750 -0.6472 -0.888 0.439 0.137 25 22 17 0 0
0.0014 0.0755 -0.6489 -0.874 0.435 0.217 17 15 13 0 0
0.0012 0.0802 -0.6735 -0.945 0.307 0.110 11 10 8 0 0
0.0011 0.0806 -0.6752 -0.931 0.358 0.075 12 10 9 0 0
0.0024 0.0827 -0.7123 -0.258 0.307 0.916 6 4 5 0 0
-0.0027 0.0982 -0.7152 0.328 0.274 0.904 42 39 35 0 0
-0.0049 0.1140 -0.7758 -0.191 0.917 -0.351 61 49 33 0 0
-0.0045 0.1133 -0.7785 0.284 0.950 0.126 69 57 43 0 0
-0.0074 0.1239 -0.7910 -0.110 0.943 0.314 70 56 34 0 0
-0.0120 0.1440 -0.8339 -0.352 0.740 0.574 157 139 99 0 0
0.0097 -0.0208 -0.1595 0.218 0.640 0.737 142 125 92 0 0
0.0054 -0.0060 -0.1732 0.012 0.947 0.320 177 159 116 0 0
0.0037 0.0001 -0.1794 -0.238 0.907 0.346 116 99 70 0 0
0.0035 0.0012 -0.1821 -0.290 0.879 0.377 126 109 74 0 0
0.0033 0.0020 -0.1834 -0.427 0.796 0.429 136 120 84 0 0
0.0034 0.0040 -0.1988 -0.194 0.978 0.075 89 75 47 0 0
-0.0001 0.0181 -0.2237 -0.105 0.985 0.140 178 162 116 0 0
0.0000 0.0181 -0.2251 -0.116 0.974 0.196 157 139 97 0 0
0.0000 0.0184 -0.2265 -0.116 0.974 0.196 158 140 99 0 0
0.0001 0.0184 -0.2280 -0.118 0.951 0.287 152 133 94 0 0
0.0001 0.0187 -0.2294 -0.384 0.875 0.295 148 130 92 0 0
0.0001 0.0188 -0.2308 -0.523 0.706 0.477 147 129 89 0 0
-0.0003 0.0203 -0.2334 -0.568 0.617 0.545 118 99 66 0 0
-0.0009 0.0225 -0.2359 -0.535 0.642 0.549 127 110 74 0 0
-0.0011 0.0233 -0.2372 -0.432 0.723 0.539 127 112 76 0 0
0.0001 0.0208 -0.2436 -0.482 0.754 0.447 64 50 30 0 0
-0.0001 0.0219 -0.2478 -0.748 0.633 -0.200 72 60 41 0 0
0.0037 0.0186 -0.2969 -0.844 0.402 0.356 28 26 22 0 0
0.0077 0.0109 -0.3225 -0.975 0.200 -0.098 177 178 182 0 0
0.0079 0.0107 -0.3241 -0.921 0.308 -0.239 177 178 182 0 0
-0.0101 0.0763 -0.4059 0.368 0.927 0.070 184 185 188 0 0
-0.0101 0.0764 -0.4075 0.368 0.927 0.070 183 186 189 0 0
-0.0098 0.0760 -0.4093 0.507 0.855 0.109 184 186 189 0 0
-0.0098 0.0762 -0.4108 0.507 0.855 0.109 185 187 189 0 0
-0.0100 0.0931 -0.5144 0.763 0.634 0.124 201 204 208 0 0
-0.0107 0.0957 -0.5183 0.807 0.586 0.070 202 205 209 0 0
0.0035 0.0680 -0.6073 -0.869 0.469 0.157 32 27 23 0 0
0.0035 0.0684 -0.6089 -0.869 0.469 0.157 28 23 19 0 0
0.0034 0.0689 -0.6105 -0.880 0.461 0.112 26 21 17 0 0
0.0032 0.0697 -0.6120 -0.923 0.352 0.156 26 21 17 0 0
0.0031 0.0702 -0.6136 -0.923 0.352 0.156 26 21 17 0 0
0.0026 0.0765 -0.6445 -0.681 0.722 0.123 43 40 35 0 0
0.0025 0.0772 -0.6460 -0.606 0.717 0.346 35 32 27 0 0
0.0027 0.0770 -0.6481 -0.612 0.740 0.279 23 19 16 0 0
0.0016 0.0866 -0.6894 -0.845 0.534 0.012 9 9 9 0 0
0.0033 0.0854 -0.7126 -0.363 0.388 0.847 7 5 5 0 0
-0.0010 0.0983 -0.7155 0.275 0.335 0.901 42 38 34 0 0
-0.0055 0.1196 -0.7674 -0.318 0.793 -0.520 74 63 46 0 0
-0.0044 0.1173 -0.7714 -0.319 0.798 -0.511 76 65 47 0 0
-0.0026 0.1129 -0.7771 -0.369 0.865 -0.341 63 52 34 0 0
-0.0122 0.1502 -0.8351 -0.043 0.850 0.526 116 100 67 0 0
0.0051 0.0005 -0.1794 -0.238 0.907 0.346 130 111 77 0 0
0.0050 0.0010 -0.1807 -0.260 0.905 0.336 132 117 79 0 0
0.0049 0.0016 -0.1820 -0.290 0.879 0.377 126 111 77 0 0
0.0047 0.0023 -0.1833 -0.234 0.849 0.474 135 118 84 0 0
0.0051 0.0021 -0.1891 -0.307 0.919 0.247 122 107 73 0 0
0.0047 0.0041 -0.1945 -0.243 0.881 0.405 93 79 52 0 0
0.0043 0.0215 -0.2962 -0.554 0.806 0.207 30 25 22 0 0
0.0035 0.0248 -0.3030 -0.713 0.550 0.435 75 71 66 0 0
0.0081 0.0142 -0.3200 -0.938 0.225 -0.264 162 163 168 0 0
0.0083 0.0139 -0.3217 -0.975 0.200 -0.098 176 178 182 0 0
0.0083 0.0140 -0.3232 -0.958 0.218 -0.188 177 178 182 0 0
0.0085 0.0137 -0.3249 -0.974 0.180 -0.134 177 178 182 0 0
0.0092 0.0120 -0.3270 -0.978 0.132 -0.163 177 178 182 0 0
0.0035 0.0889 -0.7063 -0.877 0.355 0.322 6 4 5 0 0
0.0046 0.0865 -0.7121 -0.548 0.448 0.707 7 5 6 0 0
0.0043 0.0878 -0.7132 -0.548 0.448 0.707 7 6 7 0 0
0.0009 0.0981 -0.7159 0.122 0.282 0.952 58 54 51 0 0
-0.0105 0.1503 -0.8354 -0.172 0.888 0.427 121 107 75 0 0
0.0168 -0.0325 -0.1567 0.495 0.407 0.768 176 177 178 0 0
0.0067 0.0005 -0.1808 0.141 0.823 0.550 121 103 71 0 0
0.0066 0.0012 -0.1821 0.031 0.781 0.624 136 120 81 0 0
0.0061 0.0027 -0.1833 -0.234 0.849 0.474 137 119 82 0 0
0.0035 0.0156 -0.2170 -0.467 0.813 0.346 159 139 105 0 0
0.0034 0.0253 -0.2740 -0.425 0.905 0.006 46 36 29 0 0
0.0038 0.0243 -0.2757 -0.682 0.680 -0.269 28 19 17 0 0
0.0087 0.0173 -0.3208 -0.976 0.178 -0.122 174 173 178 0 0
0.0089 0.0171 -0.3224 -0.976 0.178 -0.122 177 177 182 0 0
0.0096 0.0156 -0.3260 -0.991 0.101 -0.084 177 178 182 0 0
0.0043 0.0908 -0.6991 -0.733 0.645 -0.214 11 9 10 0 0
0.0049 0.0898 -0.7039 -0.815 0.578 -0.040 7 5 6 0 0
0.0052 0.0892 -0.7064 -0.547 0.835 0.062 7 5 6 0 0
0.0052 0.0900 -0.7119 -0.775 0.625 0.093 6 6 6 0 0
0.0052 0.0903 -0.7138 -0.775 0.625 0.093 14 13 11 0 0
-0.0044 0.1188 -0.7170 0.127 0.534 0.836 55 50 46 0 0
-0.0062 0.1242 -0.7169 0.182 0.040 0.983 62 58 51 0 0
0.0019 0.1105 -0.7797 0.465 0.808 0.360 72 61 43 0 0
-0.0030 0.1279 -0.7994 -0.054 0.908 0.414 105 91 62 0 0
0.0085 0.0035 -0.2033 -0.383 0.863 0.328 108 93 61 0 0
0.0084 0.0039 -0.2046 -0.373 0.666 0.646 130 114 79 0 0
0.0082 0.0048 -0.2059 -0.227 0.682 0.695 121 102 72 0 0
0.0074 0.0074 -0.2069 0.068 0.694 0.717 129 111 77 0 0
0.0076 0.0073 -0.2099 0.009 0.919 0.393 144 125 86 0 0
0.0054 0.0149 -0.2172 -0.243 0.671 0.701 168 147 116 0 0
0.0026 0.0258 -0.2354 -0.658 0.718 0.227 128 114 80 0 0
0.0048 0.0233 -0.2595 -0.895 0.397 -0.206 39 27 15 0 0
0.0050 0.0229 -0.2611 -0.925 0.352 -0.144 38 26 13 0 0
0.0050 0.0234 -0.2625 -0.725 0.354 0.591 50 38 24 0 0
0.0041 0.0296 -0.2850 -0.858 0.470 0.207 14 13 9 0 0
0.0096 0.0197 -0.3233 -0.995 0.080 -0.055 177 178 182 0 0
0.0077 0.0682 -0.5888 -0.856 0.501 -0.125 14 10 9 0 0
0.0075 0.0703 -0.5989 -0.951 0.308 0.014 22 21 16 0 0
0.0075 0.0707 -0.6006 -0.904 0.399 0.153 24 20 16 0 0
0.0060 0.0920 -0.7066 -0.826 0.543 0.154 8 6 7 0 0
0.0060 0.0927 -0.7103 -0.795 0.596 0.114 6 6 6 0 0
-0.0045 0.1242 -0.7172 0.176 0.054 0.983 62 57 51 0 0
0.0017 0.1173 -0.7851 0.071 0.743 0.665 72 59 41 0 0
-0.0019 0.1295 -0.7962 0.062 0.794 0.605 93 78 53 0 0
-0.0051 0.1445 -0.8326 0.078 0.944 0.321 95 83 47 0 0
0.0098 0.0049 -0.2060 -0.115 0.741 0.662 139 121 84 0 0
0.0095 0.0060 -0.2072 -0.070 0.701 0.710 149 131 91 0 0
0.0037 0.0270 -0.2337 -0.486 0.861 -0.148 102 88 58 0 0
0.0028 0.0326 -0.2530 -0.809 0.584 -0.066 72 56 36 0 0
0.0060 0.0250 -0.2622 -0.725 0.354 0.591 44 32 18 0 0
0.0053 0.0272 -0.2646 -0.779 0.573 0.253 70 57 40 0 0
0.0059 0.0275 -0.2766 -0.562 0.695 0.448 34 23 16 0 0
0.0049 0.0314 -0.2831 -0.773 0.355 0.526 31 27 20 0 0
0.0090 0.0702 -0.5935 -0.559 0.421 0.715 13 10 8 0 0
0.0085 0.0717 -0.5945 -0.766 0.495 0.411 23 20 17 0 0
0.0081 0.0731 -0.5956 -0.808 0.589 -0.005 34 30 26 0 0
0.0082 0.0731 -0.5975 -0.838 0.546 -0.017 30 26 20 0 0
0.0069 0.0941 -0.7034 -0.589 0.669 0.454 13 11 11 0 0
0.0076 0.0938 -0.7138 -0.458 0.717 0.526 6 5 5 0 0
-0.0009 0.1190 -0.7174 0.334 0.308 0.891 51 46 43 0 0
-0.0019 0.1392 -0.8247 -0.032 0.815 0.578 104 90 62 0 0
-0.0041 0.1482 -0.8406 -0.098 0.810 0.578 143 129 89 0 0
-0.0043 0.1537 -0.8709 0.165 0.386 0.908 156 155 155 0 0
-0.0049 0.1556 -0.8713 0.213 0.383 0.899 165 164 162 0 0
-0.0055 0.1573 -0.8719 0.213 0.383 0.899 171 169 167 0 0
0.0209 -0.0301 -0.1607 0.483 0.444 0.754 178 178 178 0 0
0.0101 0.0099 -0.2138 0.199 0.827 0.525 160 143 112 0 0
0.0053 0.0246 -0.2198 -0.341 0.297 0.892 183 165 122 0 0
0.0051 0.0281 -0.2379 -0.873 0.463 0.155 66 50 30 0 0
0.0063 0.0315 -0.2802 -0.819 0.458 0.346 91 81 66 0 0
0.0062 0.0322 -0.2815 -0.819 0.458 0.346 87 80 67 0 0
0.0059 0.0334 -0.2842 -0.826 0.474 0.304 24 19 15 0 0
0.0102 0.0272 -0.3213 -0.996 0.089 0.006 121 118 122 0 0
0.0105 0.0267 -0.3246 -0.989 0.113 -0.095 176 176 181 0 0
0.0106 0.0267 -0.3262 -0.986 0.123 -0.109 177 177 182 0 0
0.0091 0.0669 -0.5453 0.436 0.777 -0.454 200 201 205 0 0
0.0101 0.0646 -0.5484 0.450 0.774 -0.445 168 167 171 0 0
0.0113 0.0616 -0.5518 0.479 0.769 -0.423 104 101 104 0 0
0.0095 0.0691 -0.5662 -0.988 0.056 0.141 31 27 24 0 0
0.0069 0.0781 -0.5741 -0.852 0.523 0.005 32 28 25 0 0
0.0069 0.0782 -0.5759 -0.824 0.538 -0.178 28 24 21 0 0
0.0098 0.0730 -0.5939 -0.766 0.495 0.411 29 25 21 0 0
0.0094 0.0742 -0.5951 -0.847 0.511 0.147 49 44 37 0 0
0.0075 0.0845 -0.6232 -0.805 0.533 0.261 38 32 26 0 0
0.0073 0.0851 -0.6247 -0.805 0.533 0.261 48 40 31 0 0
0.0072 0.0857 -0.6262 -0.819 0.561 0.121 53 42 32 0 0
0.0072 0.0861 -0.6279 -0.778 0.628 -0.001 57 44 32 0 0
0.0071 0.0933 -0.6701 -0.819 0.570 -0.059 11 7 6 0 0
0.0069 0.0968 -0.6876 -0.850 0.517 -0.102 22 18 15 0 0
0.0069 0.0970 -0.6895 -0.713 0.650 -0.262 38 33 30 0 0
0.0083 0.0951 -0.7030 -0.589 0.669 0.454 16 15 13 0 0
0.0090 0.0952 -0.7151 -0.398 0.349 0.848 7 5 6 0 0
0.0024 0.1290 -0.8060 -0.251 0.904 0.345 74 62 39 0 0
0.0000 0.1412 -0.8386 -0.329 0.880 0.343 160 143 101 0 0
-0.0024 0.1484 -0.8408 -0.254 0.744 0.618 121 105 68 0 0
-0.0026 0.1494 -0.8421 -0.248 0.792 0.558 119 104 68 0 0
-0.0024 0.1505 -0.8521 0.023 0.890 0.456 116 102 68 0 0
-0.0023 0.1504 -0.8544 0.006 0.524 0.852 117 103 67 0 0
0.0210 -0.0253 -0.1630 0.447 0.544 0.710 176 176 179 0 0
0.0131 0.0017 -0.1907 -0.063 0.648 0.759 109 93 67 0 0
0.0128 0.0029 -0.1920 -0.001 0.808 0.588 99 85 58 0 0
0.0122 0.0081 -0.2127 -0.006 0.887 0.461 151 134 109 0 0
0.0111 0.0112 -0.2136 -0.101 0.864 0.493 153 136 106 0 0
0.0107 0.0126 -0.2148 -0.103 0.525 0.845 152 133 103 0 0
0.0047 0.0312 -0.2229 -0.670 0.519 0.531 141 124 90 0 0
0.0044 0.0323 -0.2241 -0.562 0.604 0.565 152 136 99 0 0
0.0066 0.0288 -0.2407 -0.851 0.453 0.264 70 55 33 0 0
0.0065 0.0292 -0.2421 -0.767 0.613 0.189 70 55 33 0 0
0.0063 0.0300 -0.2434 -0.600 0.608 0.519 64 49 30 0 0
0.0047 0.0357 -0.2510 -0.300 0.952 -0.069 78 64 38 0 0
0.0075 0.0313 -0.2713 -0.554 0.794 0.249 47 40 28 0 0
0.0074 0.0317 -0.2727 -0.554 0.794 0.249 37 31 24 0 0
0.0066 0.0358 -0.2837 -0.581 0.563 0.588 22 17 12 0 0
0.0066 0.0360 -0.2851 -0.745 0.653 0.135 23 18 14 0 0
0.0068 0.0387 -0.3042 -0.923 0.276 0.270 59 48 39 0 0
0.0068 0.0387 -0.3057 -0.957 0.270 0.105 44 35 28 0 0
0.0107 0.0304 -0.3220 -0.996 0.090 -0.014 95 91 94 0 0
0.0108 0.0304 -0.3236 -0.990 0.127 -0.067 148 146 151 0 0
0.0113 0.0295 -0.3270 -0.964 0.142 -0.223 177 177 181 0 0
0.0101 0.0684 -0.5411 0.393 0.802 -0.449 202 201 205 0 0
0.0110 0.0663 -0.5440 0.393 0.802 -0.449 168 167 170 0 0
0.0116 0.0649 -0.5466 0.527 0.735 -0.426 99 97 98 0 0
0.0106 0.0679 -0.5468 -0.977 0.215 0.006 64 60 58 0 0
0.0106 0.0680 -0.5486 -0.976 0.210 -0.066 50 45 42 0 0
0.0107 0.0681 -0.5504 -0.950 0.271 -0.154 48 41 37 0 0
0.0108 0.0688 -0.5555 -0.977 -0.033 0.211 50 45 42 0 0
0.0080 0.0798 -0.5733 -0.852 0.523 0.005 24 20 19 0 0
0.0079 0.0804 -0.5767 -0.686 0.681 0.256 21 17 16 0 0
0.0110 0.0743 -0.5934 -0.755 0.476 0.452 35 30 26 0 0
0.0107 0.0754 -0.5946 -0.839 0.465 0.281 50 44 38 0 0
0.0105 0.0762 -0.5961 -0.892 0.401 0.211 61 54 45 0 0
0.0088 0.0853 -0.6210 -0.850 0.414 0.326 15 11 7 0 0
0.0084 0.0865 -0.6221 -0.650 0.760 0.024 22 16 13 0 0
0.0085 0.0867 -0.6240 -0.650 0.760 0.024 32 25 21 0 0
0.0084 0.0871 -0.6256 -0.755 0.649 0.088 39 29 23 0 0
0.0084 0.0874 -0.6273 -0.755 0.649 0.088 38 27 19 0 0
0.0085 0.0974 -0.6894 -0.845 0.534 0.038 30 26 22 0 0
0.0095 0.0974 -0.7057 -0.593 0.800 0.092 14 11 10 0 0
0.0080 0.1151 -0.7879 -0.250 0.707 0.661 67 55 33 0 0
0.0035 0.1320 -0.8123 -0.137 0.846 0.515 97 81 52 0 0
0.0123 0.0126 -0.2148 -0.260 0.304 0.916 156 139 109 0 0
0.0099 0.0198 -0.2164 0.019 0.255 0.967 182 165 130 0 0
0.0060 0.0318 -0.2228 -0.463 0.669 0.582 132 113 81 0 0
0.0056 0.0333 -0.2239 -0.144 0.772 0.619 121 101 70 0 0
0.0054 0.0341 -0.2252 -0.159 0.811 0.563 116 99 66 0 0
0.0051 0.0352 -0.2264 -0.081 0.907 0.412 115 99 65 0 0
0.0095 0.0333 -0.2904 -0.610 0.471 0.637 69 60 46 0 0
0.0090 0.0347 -0.2916 -0.618 0.314 0.721 79 69 54 0 0
0.0078 0.0399 -0.3024 -0.826 0.281 0.488 78 65 54 0 0
0.0075 0.0411 -0.3036 -0.823 0.365 0.435 96 83 69 0 0
0.0113 0.0336 -0.3243 -0.975 0.155 -0.158 136 135 137 0 0
0.0116 0.0685 -0.5394 0.566 0.731 -0.380 169 169 173 0 0
0.0113 0.0696 -0.5406 -0.975 0.158 0.155 104 103 106 0 0
0.0112 0.0702 -0.5421 -0.983 0.075 0.170 53 50 50 0 0
0.0111 0.0707 -0.5436 -0.985 0.092 0.146 37 34 31 0 0
0.0112 0.0707 -0.5455 -0.981 0.193 -0.001 44 40 36 0 0
0.0112 0.0710 -0.5471 -0.973 0.217 -0.079 61 56 51 0 0
0.0115 0.0707 -0.5491 -0.943 0.277 -0.186 65 60 54 0 0
0.0117 0.0702 -0.5512 -0.925 0.317 -0.211 56 50 44 0 0
0.0095 0.0789 -0.5648 -0.875 0.300 0.379 17 13 13 0 0
0.0094 0.0795 -0.5663 -0.908 0.363 0.208 19 17 16 0 0
0.0092 0.0802 -0.5678 -0.891 0.276 0.360 18 17 15 0 0
0.0090 0.0810 -0.5691 -0.898 0.354 0.260 18 17 15 0 0
0.0090 0.0812 -0.5709 -0.904 0.401 0.146 22 21 19 0 0
0.0107 0.0778 -0.5784 -0.422 0.891 0.169 20 16 16 0 0
0.0106 0.0783 -0.5800 -0.522 0.755 0.396 22 18 18 0 0
0.0105 0.0789 -0.5815 -0.521 0.652 0.551 23 19 18 0 0
0.0120 0.0763 -0.5925 -0.701 0.662 0.264 35 27 24 0 0
0.0119 0.0769 -0.5940 -0.762 0.587 0.275 31 23 20 0 0
0.0118 0.0775 -0.5955 -0.790 0.573 0.217 27 20 15 0 0
0.0116 0.0782 -0.5970 -0.869 0.472 0.148 33 26 22 0 0
0.0085 0.0986 -0.6670 -0.799 0.583 0.148 35 26 19 0 0
0.0084 0.0993 -0.6685 -0.880 0.365 0.303 33 24 19 0 0
0.0098 0.1151 -0.7883 -0.183 0.658 0.731 104 92 70 0 0
0.0082 0.1218 -0.7999 -0.215 0.818 0.534 76 59 37 0 0
0.0060 0.1290 -0.8066 -0.561 0.791 0.244 84 69 47 0 0
0.0057 0.1301 -0.8079 -0.335 0.937 0.099 81 65 41 0 0
0.0053 0.1317 -0.8108 -0.285 0.772 0.568 96 80 51 0 0
0.0052 0.1324 -0.8123 -0.190 0.843 0.503 97 81 50 0 0
0.0055 0.1320 -0.8149 0.054 0.935 0.351 107 89 59 0 0
0.0059 0.1312 -0.8177 0.035 0.997 0.070 97 80 52 0 0
0.0035 0.1400 -0.8295 0.073 0.952 0.298 106 94 65 0 0
0.0035 0.1404 -0.8314 -0.081 0.877 0.474 121 106 71 0 0
0.0177 -0.0037 -0.1830 0.129 0.878 0.460 135 118 79 0 0
0.0163 0.0032 -0.2006 -0.031 0.939 0.344 91 75 50 0 0
0.0131 0.0147 -0.2145 0.056 0.319 0.946 156 140 111 0 0
0.0114 0.0198 -0.2165 0.019 0.255 0.967 179 159 124 0 0
0.0087 0.0276 -0.2179 -0.436 0.515 0.738 162 141 104 0 0
0.0073 0.0326 -0.2227 -0.463 0.669 0.582 180 161 116 0 0
0.0070 0.0335 -0.2239 -0.144 0.772 0.619 154 135 93 0 0
0.0068 0.0344 -0.2252 -0.076 0.825 0.559 142 124 83 0 0
0.0066 0.0351 -0.2265 0.051 0.882 0.468 130 113 76 0 0
0.0063 0.0368 -0.2305 0.019 0.810 0.586 117 101 67 0 0
0.0089 0.0378 -0.2818 -0.558 0.611 0.561 26 21 17 0 0
0.0105 0.0349 -0.2901 -0.714 0.336 0.614 57 47 35 0 0
0.0101 0.0362 -0.2913 -0.714 0.336 0.614 78 67 53 0 0
0.0085 0.0428 -0.3032 -0.823 0.365 0.435 118 106 91 0 0
0.0117 0.0721 -0.5322 0.317 0.857 -0.406 199 201 204 0 0
0.0122 0.0714 -0.5362 -0.988 0.021 0.150 97 95 96 0 0
0.0121 0.0719 -0.5378 -0.984 0.047 0.172 59 56 55 0 0
0.0118 0.0728 -0.5391 -0.982 0.059 0.179 43 39 37 0 0
0.0117 0.0734 -0.5406 -0.983 0.075 0.170 45 41 37 0 0
0.0116 0.0739 -0.5421 -0.985 0.092 0.146 65 60 54 0 0
0.0115 0.0745 -0.5436 -0.985 0.092 0.146 71 68 61 0 0
0.0113 0.0752 -0.5451 -0.985 0.092 0.146 61 57 52 0 0
0.0118 0.0744 -0.5473 -0.973 0.225 -0.056 43 36 33 0 0
0.0104 0.0812 -0.5656 -0.789 0.460 0.407 23 21 19 0 0
0.0104 0.0815 -0.5672 -0.744 0.432 0.509 24 21 20 0 0
0.0108 0.0808 -0.5695 -0.801 0.594 -0.074 19 15 14 0 0
0.0109 0.0808 -0.5713 -0.801 0.594 -0.074 21 17 16 0 0
0.0111 0.0807 -0.5732 -0.801 0.594 -0.074 20 16 16 0 0
0.0126 0.0779 -0.5823 -0.692 0.627 -0.358 23 19 18 0 0
0.0127 0.0779 -0.5842 -0.645 0.762 0.060 21 17 16 0 0
0.0128 0.0779 -0.5861 -0.801 0.588 -0.109 17 13 12 0 0
0.0130 0.0789 -0.5949 -0.797 0.518 0.310 46 39 32 0 0
0.0123 0.0811 -0.5973 -0.691 0.516 0.506 60 53 44 0 0
0.0119 0.0826 -0.5983 -0.549 0.462 0.697 43 36 28 0 0
0.0118 0.0830 -0.6000 -0.691 0.566 0.451 36 29 22 0 0
0.0112 0.0936 -0.6529 -0.505 0.852 0.137 48 39 30 0 0
0.0111 0.0942 -0.6545 -0.416 0.885 0.209 42 33 24 0 0
0.0103 0.0981 -0.6636 -0.303 0.921 0.246 48 39 28 0 0
0.0102 0.0986 -0.6653 -0.303 0.921 0.246 43 33 23 0 0
0.0119 0.1142 -0.7872 -0.270 0.389 0.881 83 72 45 0 0
0.0112 0.1166 -0.7895 -0.170 0.743 0.647 90 78 53 0 0
0.0102 0.1200 -0.7931 0.068 0.876 0.477 70 54 31 0 0
0.0073 0.1308 -0.8076 -0.361 0.882 0.304 84 72 46 0 0
0.0071 0.1314 -0.8092 -0.485 0.805 0.342 88 74 46 0 0
0.0077 0.1310 -0.8161 0.039 0.998 0.039 97 80 50 0 0
0.0047 0.1488 -0.8705 0.289 0.846 0.448 142 141 139 0 0
0.0242 -0.0202 -0.1667 0.207 0.385 0.899 177 176 176 0 0
0.0193 -0.0035 -0.1844 -0.156 0.915 0.372 109 94 65 0 0
0.0192 -0.0030 -0.1858 -0.079 0.957 0.279 96 80 54 0 0
0.0191 -0.0023 -0.1871 0.058 0.972 0.229 110 96 67 0 0
0.0085 0.0339 -0.2239 -0.293 0.765 0.573 159 144 99 0 0
0.0084 0.0344 -0.2252 -0.164 0.846 0.507 171 155 110 0 0
0.0082 0.0350 -0.2266 -0.062 0.896 0.440 158 142 102 0 0
0.0081 0.0359 -0.2293 0.023 0.929 0.369 130 113 82 0 0
0.0078 0.0369 -0.2305 -0.038 0.770 0.636 111 96 64 0 0
0.0105 0.0345 -0.2617 -0.682 0.730 -0.042 127 116 89 0 0
0.0108 0.0340 -0.2633 -0.752 0.646 0.132 97 85 62 0 0
0.0108 0.0343 -0.2648 -0.701 0.628 0.339 67 54 39 0 0
0.0108 0.0344 -0.2662 -0.748 0.636 0.189 65 51 41 0 0
0.0106 0.0367 -0.2761 -0.743 0.622 0.247 103 91 72 0 0
0.0102 0.0388 -0.2816 -0.558 0.611 0.561 29 23 18 0 0
0.0136 0.0703 -0.5261 -0.991 0.039 0.128 203 205 209 0 0
0.0136 0.0707 -0.5277 -0.995 0.033 0.093 201 203 207 0 0
0.0135 0.0713 -0.5292 -0.995 0.033 0.093 177 176 180 0 0
0.0125 0.0753 -0.5361 -0.979 0.106 0.174 34 29 25 0 0
0.0123 0.0760 -0.5376 -0.982 0.059 0.179 49 45 42 0 0
0.0124 0.0816 -0.5729 -0.527 0.790 -0.314 24 20 19 0 0
0.0173 0.0702 -0.5870 -0.217 0.919 -0.328 22 18 17 0 0
0.0172 0.0709 -0.5885 -0.227 0.883 0.411 18 14 13 0 0
0.0170 0.0717 -0.5899 -0.448 0.811 0.377 17 13 12 0 0
0.0123 0.0878 -0.6067 -0.846 0.506 0.169 42 36 29 0 0
0.0120 0.1046 -0.7013 -0.814 0.573 -0.096 13 9 8 0 0
0.0120 0.1049 -0.7031 -0.904 0.391 0.172 15 11 10 0 0
0.0078 0.1195 -0.7186 0.214 0.251 0.944 63 58 54 0 0
0.0057 0.1255 -0.7200 -0.055 0.573 0.818 81 73 66 0 0
0.0019 0.1370 -0.7253 0.152 0.979 0.137 104 92 74 0 0
0.0116 0.1221 -0.7982 -0.081 0.922 0.378 74 62 38 0 0
0.0208 -0.0032 -0.1844 -0.156 0.915 0.372 104 89 61 0 0
0.0207 -0.0028 -0.1858 -0.162 0.871 0.463 96 80 55 0 0
0.0206 -0.0020 -0.1885 0.005 0.959 0.282 109 95 67 0 0
0.0096 0.0349 -0.2237 -0.791 0.518 0.327 122 105 73 0 0
0.0082 0.0408 -0.2355 -0.155 0.976 0.152 113 96 66 0 0
0.0083 0.0410 -0.2369 -0.155 0.976 0.152 121 104 76 0 0
0.0083 0.0410 -0.2384 -0.156 0.763 0.627 113 96 68 0 0
0.0117 0.0356 -0.2616 -0.682 0.730 -0.042 109 97 72 0 0
0.0118 0.0354 -0.2631 -0.791 0.606 0.090 84 72 51 0 0
0.0119 0.0353 -0.2646 -0.687 0.662 0.301 55 41 29 0 0
0.0119 0.0357 -0.2660 -0.737 0.656 0.163 40 25 18 0 0
0.0117 0.0379 -0.2759 -0.743 0.622 0.247 101 89 68 0 0
0.0141 0.0729 -0.5214 -0.996 0.059 0.064 204 205 209 0 0
0.0139 0.0738 -0.5227 -0.989 0.144 0.029 201 202 206 0 0
0.0140 0.0738 -0.5245 -0.991 0.039 0.128 173 173 175 0 0
0.0129 0.0835 -0.5628 -0.155 0.976 -0.152 25 24 22 0 0
0.0128 0.0843 -0.5661 -0.650 0.676 0.348 34 31 26 0 0
0.0180 0.0741 -0.5925 -0.158 0.615 0.772 18 14 11 0 0
0.0166 0.0786 -0.5955 0.010 0.460 0.888 40 33 25 0 0
0.0121 0.1000 -0.6472 -0.817 0.555 0.159 60 48 31 0 0
0.0112 0.1053 -0.6631 -0.805 0.570 0.162 66 53 36 0 0
0.0111 0.1060 -0.6666 -0.758 0.619 0.207 74 62 45 0 0
0.0111 0.1065 -0.6682 -0.691 0.671 0.269 71 59 44 0 0
0.0110 0.1071 -0.6698 -0.682 0.724 0.104 50 40 27 0 0
0.0097 0.1191 -0.7191 -0.065 0.184 0.981 63 58 54 0 0
0.0134 0.1218 -0.7966 0.236 0.774 0.588 82 69 42 0 0
0.0134 0.1221 -0.7985 0.006 0.904 0.427 87 73 46 0 0
0.0084 0.1500 -0.8792 -0.257 0.482 0.838 180 179 177 0 0
-0.0185 0.2242 -0.8707 0.012 0.910 -0.415 206 205 203 0 0
0.0277 -0.0208 -0.1683 0.565 0.507 0.651 178 176 179 0 0
0.0225 -0.0031 -0.1873 -0.275 0.950 0.146 112 98 71 0 0
0.0225 -0.0029 -0.1887 -0.425 0.902 0.074 106 91 65 0 0
0.0108 0.0352 -0.2194 -0.640 0.690 0.338 140 125 86 0 0
0.0107 0.0357 -0.2208 -0.640 0.690 0.338 106 90 56 0 0
0.0098 0.0409 -0.2355 -0.118 0.981 0.157 133 112 81 0 0
0.0100 0.0406 -0.2371 0.049 0.812 0.582 121 102 76 0 0
0.0090 0.0439 -0.2407 -0.251 0.507 0.824 89 73 45 0 0
0.0085 0.0454 -0.2418 0.026 0.698 0.716 75 58 36 0 0
0.0081 0.0468 -0.2430 -0.315 0.947 -0.059 73 56 33 0 0
0.0129 0.0386 -0.2743 -0.745 0.611 0.269 112 101 76 0 0
0.0108 0.0502 -0.3059 -0.798 0.570 0.195 84 69 48 0 0
0.0106 0.0508 -0.3073 -0.324 0.619 0.716 103 90 65 0 0
0.0143 0.0760 -0.5146 -0.966 0.238 0.102 203 203 208 0 0
0.0143 0.0764 -0.5162 -0.966 0.238 0.102 202 203 208 0 0
0.0144 0.0765 -0.5197 -0.996 0.059 0.064 170 170 172 0 0
0.0139 0.0859 -0.5653 -0.119 0.972 0.203 47 44 39 0 0
0.0184 0.0784 -0.5959 0.290 0.555 0.780 35 28 22 0 0
0.0179 0.0801 -0.5968 0.196 0.360 0.912 37 30 22 0 0
0.0099 0.1236 -0.7200 0.061 0.205 0.977 71 63 57 0 0
0.0153 0.1216 -0.7971 0.236 0.774 0.588 91 79 53 0 0
0.0152 0.1222 -0.7988 0.251 0.883 0.397 78 65 38 0 0
0.0139 0.1300 -0.8225 0.065 0.928 0.367 90 73 44 0 0
0.0113 0.1412 -0.8453 0.104 0.995 0.011 137 123 84 0 0
0.0055 0.1616 -0.8705 0.400 0.415 0.817 183 182 180 0 0
0.0120 0.0353 -0.2152 -0.295 0.947 0.127 171 151 118 0 0
0.0120 0.0358 -0.2179 -0.489 0.863 0.124 113 96 68 0 0
0.0114 0.0400 -0.2315 -0.518 0.694 0.500 141 126 93 0 0
0.0095 0.0472 -0.2429 -0.315 0.947 -0.059 72 54 32 0 0
0.0101 0.0461 -0.2461 -0.620 0.688 -0.378 107 91 64 0 0
0.0114 0.0429 -0.2482 -0.741 0.584 -0.332 101 86 57 0 0
0.0115 0.0529 -0.3083 -0.648 0.597 0.474 105 93 70 0 0
0.0112 0.0539 -0.3095 -0.555 0.520 0.649 110 97 76 0 0
0.0171 0.0422 -0.3363 -0.857 0.263 -0.443 177 178 182 0 0
0.0150 0.0854 -0.5530 -0.534 0.845 0.035 27 23 19 0 0
0.0163 0.0842 -0.5665 -0.056 0.997 -0.051 34 29 24 0 0
0.0163 0.0845 -0.5682 -0.018 0.927 0.374 19 15 12 0 0
0.0163 0.0847 -0.5699 -0.190 0.975 0.119 17 13 12 0 0
0.0206 0.0772 -0.5949 -0.007 0.651 0.759 30 22 18 0 0
0.0203 0.0780 -0.5963 -0.004 0.392 0.920 37 30 23 0 0
0.0140 0.1135 -0.6996 -0.851 0.524 0.028 16 14 11 0 0
0.0141 0.1136 -0.7016 -0.883 0.459 0.100 15 13 10 0 0
0.0161 0.1288 -0.8216 -0.100 0.832 0.546 101 85 53 0 0
0.0135 0.1400 -0.8446 -0.313 0.949 0.033 119 105 70 0 0
0.0108 0.1488 -0.8519 -0.075 0.844 0.532 135 120 84 0 0
0.0106 0.1497 -0.8533 -0.075 0.844 0.532 134 121 90 0 0
0.0130 0.1458 -0.8705 0.248 0.936 0.250 135 133 131 0 0
0.0122 0.1490 -0.8764 -0.214 0.522 0.826 174 175 175 0 0
0.0072 0.1620 -0.8706 -0.000 0.523 0.852 185 184 182 0 0
0.0288 -0.0140 -0.1746 0.614 0.546 0.570 177 177 178 0 0
0.0234 0.0077 -0.2131 0.243 0.492 0.836 137 125 108 0 0
0.0141 0.0338 -0.2155 -0.189 0.743 0.642 187 170 134 0 0
0.0137 0.0352 -0.2167 -0.427 0.865 0.263 151 135 103 0 0
0.0136 0.0359 -0.2180 -0.469 0.826 0.312 74 57 35 0 0
0.0125 0.0413 -0.2312 -0.507 0.745 0.434 138 125 93 0 0
0.0134 0.0470 -0.2783 -0.734 0.450 0.509 44 36 26 0 0
0.0125 0.0552 -0.3123 -0.964 0.247 0.099 121 110 86 0 0
0.0176 0.0451 -0.3355 -0.871 0.239 -0.429 177 177 181 0 0
0.0182 0.0437 -0.3375 -0.899 0.208 -0.386 178 179 183 0 0
0.0176 0.0854 -0.5679 -0.665 0.709 0.233 23 19 16 0 0
0.0181 0.0845 -0.5703 -0.405 0.898 -0.173 17 13 12 0 0
0.0154 0.1003 -0.6170 -0.886 0.422 0.190 45 37 27 0 0
0.0155 0.1003 -0.6189 -0.857 0.505 0.107 37 28 18 0 0
0.0155 0.1006 -0.6206 -0.885 0.449 0.125 33 24 13 0 0
0.0145 0.1090 -0.6536 -0.739 0.673 -0.018 65 52 36 0 0
0.0156 0.1168 -0.7157 -0.844 0.417 0.337 5 4 5 0 0
0.0155 0.1174 -0.7172 -0.854 0.449 0.263 8 7 9 0 0
0.0152 0.1185 -0.7185 -0.634 0.298 0.713 39 35 36 0 0
0.0152 0.1397 -0.8408 0.106 0.969 0.223 103 87 60 0 0
0.0155 0.1455 -0.8802 -0.018 0.594 0.804 178 179 178 0 0
0.0281 -0.0048 -0.1905 0.519 0.835 -0.183 152 151 150 0 0
0.0262 0.0042 -0.2123 -0.100 0.262 0.960 134 125 109 0 0
0.0249 0.0078 -0.2131 -0.054 0.279 0.959 142 132 113 0 0
0.0155 0.0342 -0.2155 -0.215 0.693 0.689 208 192 149 0 0
0.0151 0.0358 -0.2166 -0.360 0.796 0.486 184 168 128 0 0
0.0149 0.0364 -0.2179 -0.302 0.905 0.300 105 87 56 0 0
0.0147 0.0372 -0.2192 -0.352 0.864 0.361 95 76 50 0 0
0.0136 0.0424 -0.2311 -0.407 0.895 0.181 143 129 98 0 0
0.0138 0.0451 -0.2493 -0.451 0.854 -0.261 110 96 66 0 0
0.0140 0.0497 -0.2792 -0.408 0.774 0.484 115 107 94 0 0
0.0138 0.0504 -0.2805 -0.410 0.818 0.404 139 130 116 0 0
0.0137 0.0509 -0.2818 -0.469 0.748 0.469 128 117 102 0 0
0.0138 0.0879 -0.4951 0.176 0.941 -0.288 202 203 208 0 0
0.0168 0.0881 -0.5428 -0.726 0.672 0.148 46 39 31 0 0
0.0196 0.0851 -0.5701 -0.356 0.895 -0.268 21 17 16 0 0
0.0218 0.0829 -0.5919 0.438 0.630 0.641 46 39 29 0 0
0.0204 0.1266 -0.8199 0.022 0.900 0.436 89 74 47 0 0
0.0198 0.1284 -0.8206 -0.026 0.811 0.584 87 73 47 0 0
0.0170 0.1398 -0.8411 -0.003 0.980 0.198 90 76 51 0 0
0.0169 0.1402 -0.8430 -0.003 0.980 0.198 103 91 61 0 0
0.0106 0.1625 -0.8708 0.064 0.468 0.881 187 186 184 0 0
0.0299 -0.0058 -0.1893 0.491 0.871 -0.024 176 177 179 0 0
0.0302 -0.0062 -0.1908 0.471 0.852 -0.229 175 176 178 0 0
0.0316 -0.0097 -0.1928 0.681 0.716 -0.153 176 176 178 0 0
0.0275 0.0049 -0.2122 -0.015 0.294 0.956 131 123 106 0 0
0.0264 0.0082 -0.2131 0.016 0.247 0.969 147 138 120 0 0
0.0169 0.0346 -0.2154 -0.349 0.663 0.662 210 191 150 0 0
0.0164 0.0363 -0.2165 -0.360 0.796 0.486 189 169 129 0 0
0.0163 0.0369 -0.2179 -0.302 0.905 0.300 180 160 123 0 0
0.0162 0.0373 -0.2192 -0.193 0.817 0.544 178 159 122 0 0
0.0160 0.0381 -0.2205 -0.148 0.928 0.341 178 162 121 0 0
0.0151 0.0411 -0.2228 -0.411 0.593 0.693 186 172 133 0 0
