ply
format ascii 1.0
element vertex 872
property float x
property float y
property float z
property float nx
property float ny
property float nz
property uchar diffuse_red
property uchar diffuse_green
property uchar diffuse_blue
property uchar class
property uchar detection
end_header
-0.0435 0.0314 -0.2978 0.274 0.837 0.474 102 87 70 0 0
-0.0401 0.0476 -0.3385 0.359 0.773 0.523 38 32 23 0 0
-0.0353 0.0777 -0.3676 0.369 0.642 0.672 144 127 96 0 0
-0.0349 0.0809 -0.3697 0.232 0.883 0.408 172 152 107 0 0
-0.0336 0.0875 -0.3837 0.038 0.896 0.442 62 43 26 0 0
-0.0326 0.0863 -0.4227 0.497 0.867 -0.019 65 49 32 0 0
-0.0326 0.0854 -0.4248 0.273 0.959 0.080 72 59 41 0 0
-0.0325 0.0856 -0.4265 0.300 0.937 0.182 73 60 43 0 0
-0.0324 0.0864 -0.4278 -0.066 0.871 0.486 64 51 34 0 0
-0.0307 0.0922 -0.4597 0.163 0.962 0.218 46 36 23 0 0
-0.0306 0.0926 -0.4613 0.163 0.962 0.218 34 26 14 0 0
-0.0305 0.0932 -0.4627 0.210 0.927 0.311 48 38 27 0 0
-0.0304 0.0937 -0.4643 0.210 0.927 0.311 79 69 55 0 0
-0.0301 0.0949 -0.4672 0.390 0.795 0.465 125 117 92 0 0
-0.0300 0.0956 -0.4686 0.304 0.615 0.728 107 97 74 0 0
-0.0298 0.0969 -0.4697 0.418 0.529 0.739 114 102 79 0 0
-0.0297 0.0974 -0.4713 0.554 0.675 0.488 109 96 72 0 0
-0.0293 0.0995 -0.4738 0.433 0.862 0.263 106 93 70 0 0
-0.0279 0.1070 -0.4894 0.337 0.768 0.544 84 71 55 0 0
-0.0277 0.1079 -0.4907 0.037 0.878 0.477 57 44 30 0 0
-0.0276 0.1087 -0.4920 0.037 0.878 0.477 66 52 35 0 0
-0.0274 0.1093 -0.4935 0.081 0.969 0.235 79 64 39 0 0
-0.0266 0.1080 -0.5281 0.131 0.813 0.567 97 81 51 0 0
-0.0265 0.1082 -0.5298 0.310 0.888 0.339 97 82 51 0 0
-0.0263 0.1093 -0.5310 0.301 0.946 0.118 101 87 56 0 0
-0.0262 0.1085 -0.5387 0.458 0.868 0.191 112 95 65 0 0
-0.0261 0.1091 -0.5402 0.405 0.914 -0.017 112 97 68 0 0
-0.0255 0.1115 -0.5480 0.451 0.880 0.148 104 89 63 0 0
-0.0255 0.1110 -0.5501 0.354 0.935 0.026 115 101 73 0 0
-0.0334 0.0343 -0.6232 0.474 0.419 0.775 48 37 30 0 0
-0.0308 0.0520 -0.6307 -0.166 0.653 0.739 62 54 44 0 0
-0.0306 0.0537 -0.6316 -0.132 0.612 0.780 64 56 47 0 0
-0.0304 0.0548 -0.6330 0.090 0.649 0.755 72 64 54 0 0
-0.0289 0.0648 -0.6388 0.118 0.831 0.544 41 33 30 0 0
-0.0287 0.0657 -0.6403 0.118 0.831 0.544 36 29 27 0 0
-0.0280 0.0711 -0.6429 0.134 0.675 0.725 41 35 32 0 0
-0.0277 0.0731 -0.6436 0.294 0.630 0.719 41 36 33 0 0
-0.0262 0.0826 -0.6515 0.014 0.749 0.662 28 25 21 0 0
-0.0244 0.0939 -0.6620 0.714 0.448 0.539 18 13 11 0 0
-0.0231 0.0961 -0.6948 0.109 0.889 -0.444 4 4 4 0 0
-0.0224 0.1025 -0.6924 0.499 0.781 -0.375 5 5 5 0 0
-0.0220 0.1011 -0.7097 0.469 0.734 0.490 23 22 20 0 0
-0.0218 0.1028 -0.7105 0.262 0.767 0.585 41 37 34 0 0
-0.0167 0.1398 -0.7179 0.053 0.773 0.632 65 47 32 0 0
-0.0162 0.1429 -0.7216 -0.073 0.915 0.397 102 90 68 0 0
-0.0159 0.1446 -0.7243 0.127 0.969 0.210 56 43 27 0 0
-0.0176 0.1192 -0.7774 -0.051 0.857 0.512 23 16 12 0 0
-0.0147 0.1353 -0.8070 0.178 0.920 0.348 78 66 46 0 0
-0.0115 0.1518 -0.8402 0.097 0.962 0.256 137 120 81 0 0
-0.0112 0.1532 -0.8456 0.286 0.893 0.347 139 122 87 0 0
-0.0107 0.1548 -0.8529 0.089 0.966 0.244 117 105 70 0 0
-0.0497 -0.0159 -0.2419 0.381 0.818 0.431 126 121 110 0 0
-0.0493 -0.0134 -0.2446 0.397 0.707 0.586 90 78 60 0 0
-0.0447 0.0155 -0.2730 0.356 0.780 0.515 54 46 34 0 0
-0.0435 0.0222 -0.2841 0.273 0.907 0.321 85 69 47 0 0
-0.0431 0.0234 -0.2935 0.215 0.801 0.558 38 31 24 0 0
-0.0429 0.0242 -0.2949 0.192 0.902 0.388 16 9 9 0 0
-0.0415 0.0337 -0.3019 0.439 0.857 0.270 91 76 57 0 0
-0.0345 0.0724 -0.3677 0.380 0.258 0.888 124 113 98 0 0
-0.0336 0.0787 -0.3688 0.305 0.840 0.448 154 133 93 0 0
-0.0334 0.0802 -0.3698 0.284 0.801 0.527 185 164 118 0 0
-0.0317 0.0875 -0.3952 0.104 0.977 0.185 61 43 23 0 0
-0.0311 0.0860 -0.4211 0.406 0.905 0.125 63 47 31 0 0
-0.0310 0.0862 -0.4227 0.212 0.977 -0.016 62 46 31 0 0
-0.0310 0.0861 -0.4244 0.057 0.942 0.329 65 49 34 0 0
-0.0309 0.0865 -0.4259 -0.071 0.913 0.402 65 51 38 0 0
-0.0301 0.0885 -0.4422 0.563 0.764 0.314 77 62 36 0 0
-0.0275 0.0998 -0.4787 0.416 0.772 0.480 95 83 64 0 0
-0.0258 0.1066 -0.5072 0.403 0.915 -0.005 81 65 39 0 0
-0.0254 0.1056 -0.5238 0.327 0.830 0.451 93 78 49 0 0
-0.0250 0.1079 -0.5280 0.098 0.791 0.604 95 78 48 0 0
-0.0248 0.1088 -0.5311 0.301 0.946 0.118 100 83 53 0 0
-0.0242 0.1084 -0.5514 0.389 0.921 0.014 104 89 60 0 0
-0.0311 0.0372 -0.6273 0.267 0.296 0.917 107 97 86 0 0
-0.0292 0.0507 -0.6313 0.301 0.632 0.714 70 62 51 0 0
-0.0290 0.0518 -0.6326 0.398 0.757 0.517 68 61 51 0 0
-0.0267 0.0677 -0.6408 0.449 0.440 0.777 34 30 29 0 0
-0.0240 0.0844 -0.6581 0.426 0.880 0.210 9 8 8 0 0
-0.0225 0.0950 -0.6631 0.134 0.688 0.713 15 12 12 0 0
-0.0223 0.0964 -0.6641 -0.051 0.993 0.111 32 29 27 0 0
-0.0202 0.1019 -0.7110 0.399 0.750 0.528 43 39 38 0 0
-0.0200 0.1028 -0.7123 0.434 0.565 0.702 48 44 41 0 0
-0.0161 0.1332 -0.7125 -0.392 0.419 0.819 67 59 51 0 0
-0.0152 0.1389 -0.7183 0.253 0.811 0.528 54 36 19 0 0
-0.0141 0.1440 -0.7307 0.483 0.869 -0.108 126 110 79 0 0
-0.0141 0.1437 -0.7329 0.511 0.858 -0.054 139 123 89 0 0
-0.0140 0.1435 -0.7351 0.511 0.858 -0.054 99 83 52 0 0
-0.0143 0.1395 -0.7423 -0.196 0.942 -0.271 119 104 75 0 0
-0.0157 0.1204 -0.7784 0.123 0.841 0.528 27 22 16 0 0
-0.0132 0.1335 -0.8040 0.122 0.864 0.489 57 44 25 0 0
-0.0115 0.1428 -0.8218 0.010 0.922 0.386 88 73 49 0 0
-0.0114 0.1435 -0.8234 0.010 0.922 0.386 85 70 50 0 0
-0.0108 0.1460 -0.8321 0.257 0.908 0.331 119 104 74 0 0
-0.0098 0.1517 -0.8401 0.114 0.942 0.316 144 125 88 0 0
-0.0484 -0.0177 -0.2406 -0.088 0.869 0.487 176 175 173 0 0
-0.0482 -0.0167 -0.2420 0.310 0.870 0.383 168 166 160 0 0
-0.0420 0.0208 -0.2860 -0.038 0.904 0.426 88 77 56 0 0
-0.0419 0.0218 -0.2873 0.350 0.833 0.428 71 60 46 0 0
-0.0415 0.0230 -0.2935 0.215 0.801 0.558 38 32 25 0 0
-0.0404 0.0296 -0.3030 0.233 0.689 0.686 87 72 54 0 0
-0.0399 0.0329 -0.3052 0.545 0.762 0.350 74 61 41 0 0
-0.0387 0.0383 -0.3199 0.356 0.911 0.209 30 24 18 0 0
-0.0371 0.0457 -0.3406 0.474 0.870 0.134 21 16 13 0 0
-0.0359 0.0519 -0.3550 -0.079 0.941 0.328 29 21 18 0 0
-0.0320 0.0790 -0.3685 0.090 0.925 0.368 141 120 82 0 0
-0.0310 0.0847 -0.3763 0.083 0.885 0.459 70 58 45 0 0
-0.0306 0.0836 -0.3950 -0.089 0.866 0.491 65 47 27 0 0
-0.0304 0.0846 -0.3962 -0.160 0.956 0.247 60 42 22 0 0
-0.0299 0.0857 -0.4075 0.184 0.959 0.217 75 59 35 0 0
-0.0300 0.0845 -0.4097 0.215 0.861 0.462 75 59 34 0 0
-0.0295 0.0848 -0.4248 0.012 0.881 0.474 59 43 28 0 0
-0.0294 0.0856 -0.4262 -0.129 0.850 0.511 60 46 31 0 0
-0.0286 0.0869 -0.4463 0.360 0.879 0.311 68 55 31 0 0
-0.0285 0.0871 -0.4479 0.244 0.890 0.385 66 54 32 0 0
-0.0278 0.0913 -0.4547 0.194 0.973 0.125 59 46 29 0 0
-0.0238 0.1062 -0.5197 0.697 0.717 -0.023 89 74 45 0 0
-0.0239 0.1053 -0.5220 0.468 0.879 -0.091 91 76 47 0 0
-0.0236 0.1064 -0.5250 0.178 0.962 0.207 96 81 52 0 0
-0.0234 0.1075 -0.5280 0.103 0.954 0.282 87 70 40 0 0
-0.0233 0.1076 -0.5298 0.279 0.849 0.449 95 78 48 0 0
-0.0232 0.1083 -0.5312 0.301 0.946 0.118 95 78 48 0 0
-0.0227 0.1100 -0.5412 0.396 0.902 0.170 106 90 61 0 0
-0.0226 0.1102 -0.5429 0.289 0.914 0.285 101 84 56 0 0
-0.0305 0.0289 -0.6240 0.706 0.440 0.555 78 68 57 0 0
-0.0275 0.0501 -0.6315 0.312 0.730 0.608 71 64 53 0 0
-0.0275 0.0501 -0.6335 0.712 0.639 0.292 66 59 49 0 0
-0.0272 0.0520 -0.6343 0.645 0.479 0.595 83 76 66 0 0
-0.0241 0.0737 -0.6448 0.012 0.602 0.798 29 24 21 0 0
-0.0209 0.0932 -0.6661 0.499 0.794 0.348 28 28 27 0 0
-0.0207 0.0945 -0.6692 0.318 0.948 0.011 25 24 22 0 0
-0.0136 0.1381 -0.7187 0.022 0.927 0.374 79 63 44 0 0
-0.0134 0.1390 -0.7201 -0.058 0.929 0.365 76 57 34 0 0
-0.0126 0.1427 -0.7315 0.389 0.921 -0.034 117 101 74 0 0
-0.0125 0.1426 -0.7336 0.389 0.921 -0.034 104 88 60 0 0
-0.0125 0.1427 -0.7356 0.548 0.810 0.207 110 94 67 0 0
-0.0140 0.1207 -0.7779 0.340 0.901 0.270 28 22 15 0 0
-0.0115 0.1332 -0.8039 0.109 0.868 0.484 85 72 53 0 0
-0.0114 0.1341 -0.8054 0.109 0.868 0.484 86 73 54 0 0
-0.0096 0.1434 -0.8233 0.010 0.922 0.386 94 79 56 0 0
-0.0046 0.1732 -0.8639 -0.476 0.877 -0.063 190 190 188 0 0
-0.0472 -0.0188 -0.2295 -0.640 0.745 0.188 106 96 79 0 0
-0.0470 -0.0180 -0.2341 -0.804 0.593 -0.030 117 107 91 0 0
-0.0469 -0.0177 -0.2357 -0.825 0.564 0.043 119 109 92 0 0
-0.0466 -0.0169 -0.2419 0.027 0.921 0.388 123 118 111 0 0
-0.0465 -0.0166 -0.2435 0.465 0.881 0.086 138 134 128 0 0
-0.0456 -0.0115 -0.2504 0.631 0.666 0.398 59 51 42 0 0
-0.0388 0.0292 -0.3030 0.259 0.613 0.747 80 67 50 0 0
-0.0386 0.0306 -0.3042 0.259 0.613 0.747 81 68 51 0 0
-0.0384 0.0321 -0.3054 0.323 0.854 0.409 79 66 50 0 0
-0.0383 0.0324 -0.3069 0.576 0.756 0.312 73 60 42 0 0
-0.0382 0.0329 -0.3084 0.576 0.756 0.312 82 69 47 0 0
-0.0363 0.0406 -0.3372 0.500 0.559 0.661 42 35 26 0 0
-0.0344 0.0512 -0.3535 0.007 0.847 0.532 27 19 15 0 0
-0.0344 0.0512 -0.3552 -0.102 0.978 0.181 25 20 15 0 0
-0.0342 0.0508 -0.3636 0.007 0.987 0.162 46 39 33 0 0
-0.0341 0.0511 -0.3652 0.176 0.752 0.635 59 52 46 0 0
-0.0308 0.0762 -0.3694 0.021 0.620 0.784 152 134 99 0 0
-0.0285 0.0841 -0.4097 0.215 0.861 0.462 66 51 30 0 0
-0.0284 0.0842 -0.4114 0.322 0.856 0.404 64 48 27 0 0
-0.0283 0.0850 -0.4127 0.227 0.894 0.386 64 48 27 0 0
-0.0279 0.0848 -0.4247 0.012 0.881 0.474 55 40 24 0 0
-0.0279 0.0850 -0.4263 0.098 0.986 0.138 56 43 27 0 0
-0.0272 0.0854 -0.4468 0.181 0.949 0.256 63 51 29 0 0
-0.0271 0.0858 -0.4483 0.181 0.949 0.256 63 51 31 0 0
-0.0223 0.1055 -0.5199 0.256 0.965 -0.050 90 75 46 0 0
-0.0221 0.1065 -0.5230 0.497 0.841 0.216 91 76 47 0 0
-0.0284 0.0307 -0.6268 0.513 0.335 0.791 116 107 89 0 0
-0.0281 0.0325 -0.6277 0.588 0.332 0.738 109 100 84 0 0
-0.0260 0.0485 -0.6323 0.596 0.396 0.699 71 63 52 0 0
-0.0197 0.0890 -0.6667 0.329 0.242 0.913 9 8 10 0 0
-0.0195 0.0905 -0.6677 0.302 0.665 0.683 18 17 18 0 0
-0.0194 0.0909 -0.6694 0.250 0.816 0.522 26 24 24 0 0
-0.0192 0.0926 -0.6703 0.114 0.988 0.102 30 27 27 0 0
-0.0183 0.0943 -0.6914 0.841 0.522 -0.140 4 4 4 0 0
-0.0193 0.0830 -0.7034 0.842 0.531 -0.094 4 4 4 0 0
-0.0191 0.0845 -0.7044 -0.281 0.379 0.882 4 4 4 0 0
-0.0187 0.0875 -0.7043 0.608 0.657 0.446 5 5 5 0 0
-0.0184 0.0900 -0.7046 0.671 0.255 0.696 5 5 5 0 0
-0.0172 0.0983 -0.7090 0.495 0.719 0.489 32 28 28 0 0
-0.0166 0.1021 -0.7125 0.041 0.948 0.316 46 42 39 0 0
-0.0123 0.1364 -0.7117 0.229 0.773 0.592 64 55 42 0 0
-0.0118 0.1385 -0.7182 0.239 0.940 0.243 71 51 31 0 0
-0.0098 0.1330 -0.8039 0.109 0.868 0.484 85 72 53 0 0
-0.0097 0.1338 -0.8054 0.122 0.864 0.489 84 71 52 0 0
-0.0083 0.1416 -0.8182 0.029 0.968 0.248 74 57 31 0 0
-0.0075 0.1443 -0.8309 -0.070 0.984 0.163 81 70 43 0 0
-0.0470 -0.0246 -0.2099 -0.309 0.750 0.585 178 177 177 0 0
-0.0447 -0.0143 -0.2413 -0.556 0.811 0.182 52 44 34 0 0
-0.0447 -0.0151 -0.2430 0.061 0.990 -0.123 64 58 51 0 0
-0.0345 0.0418 -0.3400 0.363 0.703 0.611 49 43 34 0 0
-0.0342 0.0435 -0.3411 0.291 0.878 0.379 30 23 20 0 0
-0.0341 0.0437 -0.3427 0.090 0.833 0.546 21 14 12 0 0
-0.0340 0.0441 -0.3442 0.200 0.934 0.297 36 28 24 0 0
-0.0340 0.0444 -0.3457 0.329 0.932 0.151 72 65 56 0 0
-0.0330 0.0490 -0.3591 0.181 0.953 -0.243 30 24 17 0 0
-0.0284 0.0819 -0.3738 0.139 0.878 0.457 94 82 63 0 0
-0.0270 0.0837 -0.4097 0.178 0.882 0.437 56 41 22 0 0
-0.0269 0.0837 -0.4115 0.197 0.880 0.433 56 41 22 0 0
-0.0268 0.0844 -0.4129 0.182 0.865 0.467 55 40 20 0 0
-0.0265 0.0857 -0.4174 0.175 0.963 0.203 62 46 30 0 0
-0.0260 0.0853 -0.4346 0.018 0.919 0.394 70 56 30 0 0
-0.0258 0.0849 -0.4417 -0.065 0.965 0.254 74 60 37 0 0
-0.0258 0.0843 -0.4437 0.126 0.875 0.468 74 60 38 0 0
-0.0257 0.0845 -0.4453 0.204 0.818 0.538 64 52 30 0 0
-0.0243 0.0879 -0.4752 0.747 0.117 0.654 93 83 69 0 0
-0.0240 0.0900 -0.4760 0.805 0.227 0.548 94 85 71 0 0
-0.0210 0.1060 -0.5088 -0.165 0.898 0.408 85 70 43 0 0
-0.0209 0.1066 -0.5102 -0.082 0.914 0.396 84 68 41 0 0
-0.0208 0.1070 -0.5118 -0.189 0.960 0.207 84 68 42 0 0
-0.0207 0.1070 -0.5136 -0.000 0.998 0.057 84 68 41 0 0
-0.0207 0.1069 -0.5154 0.042 0.998 -0.056 85 70 40 0 0
-0.0206 0.1065 -0.5174 0.056 0.998 -0.011 85 70 41 0 0
-0.0206 0.1062 -0.5194 -0.167 0.979 -0.116 87 72 42 0 0
-0.0206 0.1059 -0.5214 -0.179 0.982 -0.056 90 75 45 0 0
-0.0205 0.1064 -0.5229 -0.069 0.979 0.189 91 76 46 0 0
-0.0205 0.1061 -0.5249 -0.286 0.937 0.201 89 74 44 0 0
-0.0182 0.0874 -0.6675 0.552 0.355 0.755 16 12 13 0 0
-0.0171 0.0875 -0.7000 0.892 0.450 -0.032 4 4 4 0 0
-0.0173 0.0851 -0.7037 -0.019 0.268 0.963 4 4 4 0 0
-0.0172 0.0860 -0.7052 0.063 0.094 0.994 5 5 5 0 0
-0.0165 0.0905 -0.7082 0.592 0.606 0.532 19 17 18 0 0
-0.0163 0.0914 -0.7096 0.512 0.657 0.553 26 24 25 0 0
-0.0163 0.0907 -0.7122 0.288 0.547 0.786 29 27 27 0 0
-0.0081 0.1328 -0.8039 0.109 0.868 0.484 92 77 58 0 0
-0.0063 0.1417 -0.8264 0.185 0.840 0.510 83 65 41 0 0
-0.0061 0.1425 -0.8280 0.122 0.862 0.492 106 95 70 0 0
-0.0060 0.1433 -0.8294 0.122 0.862 0.492 104 99 73 0 0
-0.0058 0.1442 -0.8308 0.085 0.870 0.486 91 82 55 0 0
-0.0428 -0.0115 -0.2389 -0.779 0.626 -0.036 65 56 41 0 0
-0.0429 -0.0130 -0.2409 -0.576 0.815 0.061 45 37 27 0 0
-0.0369 0.0205 -0.2987 0.351 0.912 0.214 77 68 61 0 0
-0.0359 0.0272 -0.3033 0.578 0.716 0.391 75 62 48 0 0
-0.0351 0.0315 -0.3119 0.627 0.649 0.430 53 44 33 0 0
-0.0349 0.0322 -0.3133 0.627 0.649 0.430 52 43 31 0 0
-0.0337 0.0368 -0.3332 0.387 0.893 0.229 19 13 12 0 0
-0.0336 0.0372 -0.3347 0.372 0.783 0.498 22 17 15 0 0
-0.0334 0.0383 -0.3361 0.115 0.777 0.619 32 27 21 0 0
-0.0332 0.0399 -0.3372 -0.087 0.858 0.507 59 55 48 0 0
-0.0328 0.0421 -0.3397 0.142 0.657 0.741 50 45 38 0 0
-0.0313 0.0474 -0.3663 0.290 0.819 0.495 42 37 33 0 0
-0.0313 0.0474 -0.3680 0.274 0.697 0.663 42 36 31 0 0
-0.0309 0.0501 -0.3687 0.464 0.405 0.788 51 45 39 0 0
-0.0260 0.0828 -0.3949 0.129 0.940 0.316 57 40 24 0 0
-0.0259 0.0834 -0.3963 0.204 0.962 0.180 64 50 30 0 0
-0.0254 0.0834 -0.4098 0.215 0.861 0.462 57 41 25 0 0
-0.0254 0.0831 -0.4116 0.431 0.805 0.408 61 45 28 0 0
-0.0251 0.0847 -0.4160 0.321 0.892 0.319 67 51 33 0 0
-0.0244 0.0852 -0.4345 0.018 0.919 0.394 69 55 29 0 0
-0.0241 0.0859 -0.4394 0.161 0.986 0.052 67 52 30 0 0
-0.0242 0.0842 -0.4436 0.068 0.912 0.405 64 50 29 0 0
-0.0221 0.0919 -0.4784 0.718 0.416 0.557 102 96 78 0 0
-0.0219 0.0931 -0.4796 0.719 0.315 0.619 109 101 84 0 0
-0.0217 0.0950 -0.4804 0.741 0.474 0.476 109 101 83 0 0
-0.0217 0.0942 -0.4826 0.828 0.476 0.296 101 90 73 0 0
-0.0213 0.0963 -0.4869 0.616 0.788 0.006 92 80 63 0 0
-0.0212 0.0971 -0.4882 0.521 0.847 0.102 97 86 68 0 0
-0.0211 0.0975 -0.4898 0.561 0.760 0.327 92 81 60 0 0
-0.0195 0.1036 -0.5152 0.333 0.908 0.253 85 69 43 0 0
-0.0194 0.1040 -0.5168 0.333 0.908 0.253 83 67 41 0 0
-0.0193 0.1044 -0.5184 0.333 0.908 0.253 82 67 41 0 0
-0.0192 0.1042 -0.5203 0.288 0.948 0.137 84 68 42 0 0
-0.0192 0.1042 -0.5221 0.353 0.934 -0.062 87 72 46 0 0
-0.0180 0.1103 -0.5333 -0.280 0.953 -0.117 74 61 37 0 0
-0.0240 0.0356 -0.6336 0.839 0.403 0.367 104 96 82 0 0
-0.0236 0.0381 -0.6362 0.838 0.521 0.164 99 91 79 0 0
-0.0235 0.0384 -0.6380 0.857 0.506 0.101 93 87 75 0 0
-0.0234 0.0394 -0.6395 0.888 0.297 0.352 83 77 65 0 0
-0.0223 0.0464 -0.6432 0.911 0.364 0.191 72 67 62 0 0
-0.0159 0.0849 -0.6934 0.928 0.370 0.035 4 4 4 0 0
-0.0150 0.0883 -0.7095 0.244 0.799 0.549 25 23 24 0 0
-0.0149 0.0887 -0.7113 0.214 0.655 0.724 26 24 25 0 0
-0.0052 0.1382 -0.8184 -0.136 0.917 0.375 79 58 36 0 0
-0.0051 0.1388 -0.8200 0.143 0.957 0.253 80 61 36 0 0
-0.0044 0.1432 -0.8249 0.046 0.885 0.463 88 72 48 0 0
-0.0042 0.1441 -0.8263 -0.047 0.789 0.612 99 88 64 0 0
-0.0412 -0.0117 -0.2405 -0.626 0.776 0.078 60 51 38 0 0
-0.0323 0.0353 -0.3319 0.367 0.901 0.231 16 12 11 0 0
-0.0320 0.0367 -0.3365 0.424 0.835 0.351 24 19 15 0 0
-0.0319 0.0372 -0.3379 0.424 0.835 0.351 43 38 34 0 0
-0.0295 0.0481 -0.3693 0.504 0.392 0.770 47 43 38 0 0
-0.0247 0.0819 -0.3901 0.048 0.998 -0.029 80 64 41 0 0
-0.0244 0.0826 -0.3948 0.129 0.940 0.316 63 47 28 0 0
-0.0240 0.0834 -0.4063 0.453 0.872 0.183 71 56 32 0 0
-0.0236 0.0838 -0.4145 0.322 0.856 0.404 73 58 36 0 0
-0.0235 0.0842 -0.4161 0.255 0.895 0.367 67 51 30 0 0
-0.0231 0.0837 -0.4299 0.322 0.860 0.395 78 63 40 0 0
-0.0229 0.0839 -0.4350 -0.116 0.959 0.259 71 56 32 0 0
-0.0229 0.0841 -0.4366 -0.235 0.972 0.028 70 55 31 0 0
-0.0227 0.0854 -0.4377 -0.127 0.986 0.105 67 52 31 0 0
-0.0218 0.0819 -0.4760 0.898 0.208 0.388 106 100 90 0 0
-0.0217 0.0829 -0.4773 0.876 0.181 0.447 101 95 85 0 0
-0.0200 0.0955 -0.4801 0.269 0.962 -0.055 93 85 72 0 0
-0.0200 0.0955 -0.4818 0.023 0.943 -0.332 93 84 69 0 0
-0.0197 0.0965 -0.4849 0.237 0.970 -0.056 95 86 70 0 0
-0.0197 0.0965 -0.4866 0.135 0.984 0.114 85 76 61 0 0
-0.0196 0.0968 -0.4883 0.297 0.955 0.006 84 75 59 0 0
-0.0196 0.0960 -0.4904 0.100 0.904 0.415 89 80 62 0 0
-0.0194 0.0976 -0.4914 0.176 0.947 0.269 79 69 48 0 0
-0.0191 0.0996 -0.4922 0.718 0.656 0.233 73 62 39 0 0
-0.0190 0.1000 -0.4937 0.718 0.656 0.233 78 65 43 0 0
-0.0188 0.1001 -0.5008 0.068 0.971 -0.230 72 56 31 0 0
-0.0187 0.1004 -0.5024 -0.027 1.000 0.007 73 57 32 0 0
-0.0188 0.0983 -0.5053 -0.504 0.855 0.120 71 55 30 0 0
-0.0187 0.0986 -0.5069 -0.504 0.855 0.120 70 56 31 0 0
-0.0187 0.0989 -0.5086 -0.504 0.855 0.120 75 60 35 0 0
-0.0170 0.1069 -0.5295 -0.371 0.861 0.347 72 58 38 0 0
-0.0167 0.1094 -0.5300 -0.010 0.959 0.283 72 60 40 0 0
-0.0166 0.1096 -0.5317 -0.184 0.976 0.113 69 58 39 0 0
-0.0209 0.0438 -0.6447 0.903 0.389 0.181 70 65 61 0 0
-0.0149 0.0788 -0.6933 0.943 0.334 0.011 3 3 3 0 0
-0.0149 0.0787 -0.6954 0.943 0.334 0.011 3 3 3 0 0
-0.0097 0.1149 -0.7189 0.563 0.794 0.231 53 50 45 0 0
-0.0087 0.1235 -0.7166 0.301 0.493 0.816 63 56 52 0 0
-0.0073 0.1346 -0.7185 0.211 0.832 0.512 76 59 39 0 0
-0.0064 0.1397 -0.7268 0.391 0.888 0.244 74 61 43 0 0
-0.0067 0.1284 -0.7583 0.354 0.857 -0.376 60 52 31 0 0
-0.0073 0.1175 -0.7796 0.259 0.859 0.442 27 19 13 0 0
-0.0069 0.1202 -0.7838 0.328 0.831 0.449 54 46 29 0 0
-0.0034 0.1385 -0.8201 0.094 0.951 0.293 85 65 38 0 0
-0.0028 0.1423 -0.8255 0.126 0.970 0.207 111 99 74 0 0
-0.0024 0.1442 -0.8281 0.124 0.803 0.583 109 97 73 0 0
-0.0021 0.1462 -0.8308 -0.049 0.838 0.544 84 70 39 0 0
-0.0010 0.1480 -0.8575 0.337 0.936 0.102 131 116 83 0 0
-0.0008 0.1495 -0.8584 0.001 0.991 0.137 105 97 79 0 0
-0.0003 0.1524 -0.8624 0.006 0.906 0.423 61 60 51 0 0
-0.0414 -0.0201 -0.2166 0.460 0.849 0.261 148 134 97 0 0
-0.0414 -0.0206 -0.2183 0.426 0.856 0.294 136 122 86 0 0
-0.0367 0.0010 -0.2777 0.696 0.712 -0.097 24 19 16 0 0
-0.0364 0.0034 -0.2787 0.704 0.697 0.136 14 13 11 0 0
-0.0364 0.0034 -0.2804 0.622 0.588 0.517 10 6 6 0 0
-0.0360 0.0059 -0.2813 0.592 0.412 0.693 27 20 18 0 0
-0.0358 0.0076 -0.2825 0.592 0.412 0.693 83 76 70 0 0
-0.0325 0.0264 -0.3115 0.636 0.628 0.448 41 34 31 0 0
-0.0309 0.0343 -0.3321 0.445 0.866 0.229 18 13 13 0 0
-0.0308 0.0346 -0.3337 0.445 0.866 0.229 17 13 12 0 0
-0.0307 0.0350 -0.3352 0.413 0.892 0.185 19 14 13 0 0
-0.0306 0.0353 -0.3368 0.413 0.892 0.185 20 15 13 0 0
-0.0305 0.0356 -0.3383 0.413 0.892 0.185 23 19 16 0 0
-0.0304 0.0360 -0.3399 0.298 0.907 0.297 31 26 24 0 0
-0.0303 0.0361 -0.3415 0.516 0.853 0.077 31 27 24 0 0
-0.0294 0.0423 -0.3461 0.515 0.801 0.304 46 39 32 0 0
-0.0287 0.0455 -0.3550 0.409 0.849 0.334 54 50 42 0 0
-0.0283 0.0456 -0.3683 0.595 0.584 0.551 48 44 38 0 0
-0.0276 0.0501 -0.3701 0.143 0.138 0.980 58 55 49 0 0
-0.0252 0.0700 -0.3712 -0.303 0.310 0.901 104 92 78 0 0
-0.0233 0.0810 -0.3887 0.158 0.974 -0.165 73 56 36 0 0
-0.0230 0.0819 -0.3933 0.129 0.940 0.316 81 65 41 0 0
-0.0229 0.0824 -0.3948 0.129 0.940 0.316 74 58 34 0 0
-0.0225 0.0828 -0.4047 0.160 0.983 0.092 74 59 35 0 0
-0.0226 0.0808 -0.4106 0.390 0.884 0.257 63 48 25 0 0
-0.0222 0.0828 -0.4131 -0.011 0.826 0.564 77 63 37 0 0
-0.0221 0.0832 -0.4147 -0.101 0.737 0.669 70 55 32 0 0
-0.0220 0.0840 -0.4160 -0.016 0.851 0.524 68 53 30 0 0
-0.0219 0.0842 -0.4176 0.168 0.975 0.144 62 45 24 0 0
-0.0216 0.0780 -0.4478 -0.232 0.920 0.315 60 47 30 0 0
-0.0204 0.0793 -0.4788 0.912 0.020 0.411 112 107 94 0 0
-0.0200 0.0823 -0.4792 0.953 0.197 0.228 106 101 89 0 0
-0.0190 0.0897 -0.4827 0.040 0.964 -0.261 101 93 83 0 0
-0.0189 0.0906 -0.4841 0.271 0.842 -0.466 96 88 78 0 0
-0.0189 0.0898 -0.4862 0.126 0.927 -0.353 94 86 76 0 0
-0.0188 0.0901 -0.4878 -0.310 0.942 -0.130 99 91 81 0 0
-0.0187 0.0902 -0.4896 -0.506 0.862 0.035 99 92 82 0 0
-0.0182 0.0949 -0.4890 0.531 0.847 0.020 96 88 77 0 0
-0.0181 0.0947 -0.4909 -0.034 0.668 0.744 94 85 73 0 0
-0.0179 0.0961 -0.4920 -0.385 0.675 0.629 91 81 66 0 0
-0.0176 0.0978 -0.4947 -0.675 0.459 0.577 83 70 53 0 0
-0.0174 0.0992 -0.4958 -0.524 0.615 0.589 76 62 45 0 0
-0.0171 0.0997 -0.5026 -0.494 0.855 -0.161 70 54 34 0 0
-0.0171 0.0984 -0.5087 -0.604 0.785 -0.141 66 51 33 0 0
-0.0172 0.0959 -0.5135 0.612 0.756 0.232 64 50 29 0 0
-0.0170 0.0965 -0.5186 0.498 0.859 0.115 61 47 27 0 0
-0.0169 0.0968 -0.5203 0.247 0.943 0.221 66 51 34 0 0
-0.0156 0.1061 -0.5244 -0.888 0.371 0.272 74 63 46 0 0
-0.0210 0.0298 -0.6388 0.921 0.237 0.308 103 97 84 0 0
-0.0194 0.0411 -0.6461 0.887 0.352 0.297 76 71 67 0 0
-0.0130 0.0795 -0.6968 0.946 0.281 0.160 4 4 4 0 0
-0.0131 0.0780 -0.6998 0.957 0.154 0.245 4 4 4 0 0
-0.0055 0.1351 -0.7200 -0.016 0.749 0.662 89 72 55 0 0
-0.0053 0.1361 -0.7212 -0.180 0.732 0.657 115 99 79 0 0
-0.0048 0.1390 -0.7252 0.179 0.817 0.548 61 48 29 0 0
-0.0052 0.1269 -0.7572 0.135 0.924 -0.358 76 66 43 0 0
-0.0030 0.1318 -0.8040 0.305 0.860 0.409 74 59 40 0 0
-0.0016 0.1387 -0.8218 0.209 0.823 0.528 104 89 57 0 0
0.0010 0.1495 -0.8582 0.087 0.967 0.239 108 103 84 0 0
-0.0401 -0.0223 -0.2154 0.409 0.807 0.425 122 107 78 0 0
-0.0397 -0.0204 -0.2182 -0.009 0.841 0.540 125 111 83 0 0
-0.0349 0.0022 -0.2789 0.795 0.382 0.472 23 21 16 0 0
-0.0349 0.0025 -0.2805 0.536 0.377 0.755 14 10 9 0 0
-0.0291 0.0347 -0.3352 0.675 0.735 0.070 21 18 17 0 0
-0.0290 0.0348 -0.3368 0.675 0.735 0.070 22 21 19 0 0
-0.0287 0.0360 -0.3431 0.396 0.914 0.093 17 13 12 0 0
-0.0268 0.0443 -0.3687 0.547 0.599 0.585 53 48 44 0 0
-0.0266 0.0460 -0.3698 0.278 0.460 0.843 57 53 48 0 0
-0.0236 0.0707 -0.3709 -0.170 0.582 0.795 98 86 73 0 0
-0.0215 0.0857 -0.3785 -0.043 0.903 0.428 83 75 58 0 0
-0.0214 0.0864 -0.3798 -0.043 0.903 0.428 64 52 34 0 0
-0.0212 0.0875 -0.3811 0.181 0.637 0.749 71 55 36 0 0
-0.0210 0.0809 -0.4104 0.355 0.877 0.323 72 56 31 0 0
-0.0208 0.0820 -0.4116 0.431 0.894 0.122 74 58 33 0 0
-0.0207 0.0822 -0.4133 0.431 0.894 0.122 78 62 37 0 0
-0.0191 0.0833 -0.4575 0.083 0.962 -0.259 89 79 61 0 0
-0.0173 0.0892 -0.4864 0.391 0.858 -0.333 104 97 83 0 0
-0.0174 0.0885 -0.4885 0.813 0.295 0.503 98 92 79 0 0
-0.0172 0.0895 -0.4898 0.682 0.381 0.624 109 102 91 0 0
-0.0164 0.0957 -0.4920 -0.314 0.490 0.813 109 103 90 0 0
-0.0153 0.1012 -0.5053 -0.710 0.692 -0.129 78 66 49 0 0
-0.0153 0.0999 -0.5077 -0.604 0.785 -0.141 82 70 54 0 0
-0.0152 0.1001 -0.5094 -0.807 0.590 0.005 83 71 54 0 0
-0.0152 0.0999 -0.5113 -0.335 0.933 0.133 80 70 52 0 0
-0.0150 0.1012 -0.5124 -0.766 0.641 0.048 77 67 49 0 0
-0.0148 0.1024 -0.5136 -0.751 0.638 0.170 84 74 55 0 0
-0.0147 0.1026 -0.5153 -0.814 0.488 0.314 87 77 59 0 0
-0.0188 0.0317 -0.6436 0.829 0.110 0.548 105 98 88 0 0
-0.0177 0.0406 -0.6463 0.939 0.302 0.163 84 80 74 0 0
-0.0174 0.0426 -0.6470 0.945 0.258 0.200 72 69 64 0 0
-0.0120 0.0724 -0.6994 0.761 0.042 0.647 5 5 5 0 0
-0.0063 0.1157 -0.7159 0.367 0.525 0.768 53 48 44 0 0
-0.0054 0.1221 -0.7173 0.468 0.316 0.825 55 50 45 0 0
-0.0024 0.1254 -0.7940 0.305 0.893 0.331 75 59 39 0 0
-0.0021 0.1269 -0.7971 0.175 0.714 0.677 80 65 43 0 0
-0.0013 0.1314 -0.8041 0.359 0.875 0.326 71 56 35 0 0
-0.0006 0.1345 -0.8144 0.214 0.904 0.371 80 62 41 0 0
0.0022 0.1468 -0.8515 0.300 0.817 0.492 117 101 67 0 0
0.0023 0.1477 -0.8530 0.300 0.817 0.492 140 122 84 0 0
0.0024 0.1484 -0.8545 0.101 0.824 0.558 151 136 93 0 0
0.0026 0.1493 -0.8559 0.101 0.824 0.558 131 120 83 0 0
0.0027 0.1501 -0.8574 0.223 0.813 0.538 95 92 72 0 0
0.0028 0.1497 -0.8599 0.310 0.944 0.116 44 46 40 0 0
0.0030 0.1493 -0.8670 0.285 0.927 0.246 112 110 104 0 0
0.0060 0.1735 -0.8686 -0.030 0.812 0.583 198 197 195 0 0
0.0063 0.1762 -0.8705 0.029 0.877 0.479 200 199 197 0 0
-0.0330 0.0038 -0.2833 0.388 0.321 0.864 43 39 35 0 0
-0.0325 0.0073 -0.2840 0.697 0.555 0.454 80 75 68 0 0
-0.0251 0.0448 -0.3701 0.663 0.572 0.483 56 53 48 0 0
-0.0204 0.0786 -0.3893 0.586 0.740 0.330 73 58 37 0 0
-0.0189 0.0774 -0.4374 -0.147 0.965 0.219 62 47 26 0 0
-0.0175 0.0832 -0.4574 0.083 0.962 -0.259 94 82 56 0 0
-0.0193 0.0131 -0.6423 0.313 -0.177 0.933 103 97 85 0 0
-0.0047 0.1145 -0.7165 0.096 0.705 0.702 53 48 44 0 0
-0.0038 0.1211 -0.7178 0.295 0.312 0.903 61 56 51 0 0
-0.0015 0.1206 -0.7870 0.170 0.835 0.524 71 59 40 0 0
-0.0007 0.1255 -0.7937 0.290 0.854 0.432 76 61 40 0 0
-0.0002 0.1285 -0.7976 -0.086 0.926 0.368 76 61 40 0 0
-0.0001 0.1285 -0.7999 0.064 0.889 0.454 87 74 52 0 0
0.0000 0.1289 -0.8016 0.256 0.875 0.410 85 70 49 0 0
0.0013 0.1361 -0.8149 0.225 0.945 0.239 83 63 37 0 0
0.0035 0.1465 -0.8406 0.335 0.921 0.198 129 111 76 0 0
0.0042 0.1480 -0.8546 0.281 0.739 0.613 140 126 85 0 0
0.0044 0.1497 -0.8575 0.223 0.813 0.538 104 101 81 0 0
0.0048 0.1505 -0.8656 0.302 0.922 0.242 115 112 108 0 0
-0.0340 -0.0084 -0.2490 -0.547 0.791 -0.276 64 57 47 0 0
-0.0362 -0.0332 -0.2696 0.037 0.301 0.953 111 102 86 0 0
-0.0350 -0.0235 -0.2705 0.710 0.086 0.699 99 95 87 0 0
-0.0332 -0.0101 -0.2786 0.852 0.430 -0.299 27 23 20 0 0
-0.0304 0.0074 -0.2986 0.604 0.604 0.520 7 5 6 0 0
-0.0295 0.0134 -0.3035 0.572 0.581 0.579 45 42 39 0 0
-0.0229 0.0489 -0.3718 0.061 0.419 0.906 71 70 66 0 0
-0.0132 0.0443 -0.6599 0.912 0.262 0.315 79 78 76 0 0
-0.0130 0.0454 -0.6613 0.912 0.262 0.315 71 71 69 0 0
-0.0129 0.0465 -0.6626 0.917 0.244 0.317 61 60 58 0 0
-0.0110 0.0573 -0.6782 0.930 0.325 -0.171 7 7 9 0 0
-0.0080 0.0731 -0.7109 0.606 0.265 0.750 19 18 19 0 0
-0.0063 0.0871 -0.7114 0.574 0.294 0.765 48 48 49 0 0
-0.0028 0.1150 -0.7180 0.386 0.666 0.639 52 47 44 0 0
-0.0023 0.1195 -0.7187 0.027 0.299 0.954 59 54 50 0 0
0.0000 0.1364 -0.7285 0.046 0.999 0.009 95 84 63 0 0
0.0001 0.1358 -0.7330 -0.003 0.992 0.126 85 72 50 0 0
0.0002 0.1358 -0.7351 0.203 0.979 0.001 86 71 48 0 0
0.0003 0.1358 -0.7372 0.203 0.979 0.001 99 84 61 0 0
-0.0007 0.1168 -0.7728 0.199 0.855 -0.479 66 54 39 0 0
0.0005 0.1220 -0.7878 0.157 0.895 0.417 61 49 32 0 0
0.0008 0.1237 -0.7929 0.203 0.779 0.593 80 67 47 0 0
0.0013 0.1254 -0.8000 -0.104 0.958 0.268 79 63 42 0 0
0.0017 0.1287 -0.8016 0.152 0.938 0.312 79 66 44 0 0
0.0035 0.1372 -0.8224 0.237 0.875 0.422 109 96 63 0 0
0.0055 0.1470 -0.8465 0.422 0.796 0.433 130 115 81 0 0
0.0061 0.1488 -0.8580 0.048 0.978 0.202 92 88 70 0 0
0.0064 0.1496 -0.8640 0.302 0.922 0.242 77 74 66 0 0
-0.0323 -0.0071 -0.2486 -0.547 0.791 -0.276 31 24 21 0 0
-0.0341 -0.0271 -0.2614 -0.222 0.561 -0.798 92 87 77 0 0
-0.0348 -0.0353 -0.2683 0.148 0.388 0.909 102 95 83 0 0
-0.0348 -0.0357 -0.2701 0.681 0.133 0.720 99 92 80 0 0
-0.0342 -0.0308 -0.2705 0.124 0.212 0.969 94 87 78 0 0
-0.0336 -0.0255 -0.2709 0.479 0.132 0.868 79 72 66 0 0
-0.0288 0.0077 -0.2984 0.606 0.645 0.466 9 7 10 0 0
-0.0262 0.0244 -0.3150 0.438 0.468 0.768 54 49 45 0 0
-0.0261 0.0253 -0.3163 0.493 0.483 0.723 36 32 28 0 0
-0.0258 0.0248 -0.3247 0.430 0.860 0.273 28 24 21 0 0
-0.0230 0.0339 -0.3737 0.099 0.994 0.054 61 58 52 0 0
-0.0215 0.0469 -0.3741 -0.048 -0.113 0.992 82 80 77 0 0
-0.0180 0.0769 -0.3748 -0.168 0.960 0.222 96 85 63 0 0
-0.0177 0.0786 -0.3758 0.591 0.604 0.535 91 80 59 0 0
-0.0177 0.0786 -0.3775 0.757 0.507 0.412 89 76 53 0 0
-0.0128 0.0343 -0.6536 0.976 0.219 -0.011 139 134 121 0 0
-0.0096 0.0508 -0.6905 0.484 0.875 -0.005 50 50 51 0 0
-0.0087 0.0546 -0.7026 -0.344 0.791 0.505 16 15 16 0 0
-0.0065 0.0704 -0.7126 0.205 0.247 0.947 20 19 19 0 0
-0.0012 0.1145 -0.7182 0.458 0.573 0.680 50 45 42 0 0
-0.0010 0.1155 -0.7195 -0.040 0.602 0.797 52 47 43 0 0
-0.0006 0.1193 -0.7187 0.027 0.299 0.954 53 48 43 0 0
0.0009 0.1139 -0.7770 0.224 0.975 -0.010 63 50 37 0 0
0.0027 0.1238 -0.7947 0.170 0.947 0.271 74 60 37 0 0
0.0028 0.1247 -0.7961 0.023 0.905 0.425 74 61 40 0 0
0.0046 0.1345 -0.8137 0.106 0.956 0.272 86 68 44 0 0
0.0068 0.1442 -0.8443 0.630 0.725 0.279 147 129 89 0 0
0.0082 0.1498 -0.8636 -0.120 0.954 0.273 80 78 68 0 0
-0.0305 -0.0056 -0.2497 -0.016 0.536 0.844 46 40 34 0 0
-0.0245 0.0228 -0.3236 0.503 0.761 0.410 32 28 25 0 0
-0.0242 0.0240 -0.3265 0.510 0.720 0.472 29 24 21 0 0
-0.0121 0.0250 -0.6530 0.932 -0.082 0.354 123 117 105 0 0
-0.0119 0.0265 -0.6542 0.921 -0.065 0.385 139 130 119 0 0
-0.0084 0.0533 -0.6660 0.445 0.787 -0.427 28 32 30 0 0
-0.0083 0.0517 -0.6752 0.549 0.802 0.236 34 33 33 0 0
-0.0081 0.0525 -0.6768 0.138 0.879 0.456 43 43 43 0 0
-0.0082 0.0488 -0.6854 0.418 0.897 0.142 7 7 9 0 0
-0.0079 0.0501 -0.6908 0.180 0.965 0.190 26 27 27 0 0
-0.0078 0.0504 -0.6927 0.180 0.965 0.190 34 36 35 0 0
-0.0077 0.0508 -0.6945 0.180 0.965 0.190 41 42 44 0 0
-0.0075 0.0513 -0.6962 -0.261 0.929 0.262 44 45 47 0 0
-0.0055 0.0637 -0.7129 0.169 0.277 0.946 17 17 17 0 0
-0.0040 0.0775 -0.7095 0.073 0.261 0.963 17 15 16 0 0
0.0037 0.1338 -0.7444 0.446 0.824 -0.350 88 78 57 0 0
0.0024 0.1113 -0.7789 -0.023 1.000 0.010 62 50 37 0 0
0.0024 0.1107 -0.7815 0.068 0.979 0.192 43 33 22 0 0
0.0030 0.1151 -0.7823 0.466 0.453 0.760 42 32 22 0 0
0.0033 0.1173 -0.7848 0.331 0.691 0.643 58 48 33 0 0
0.0045 0.1245 -0.7960 0.041 0.957 0.286 72 56 39 0 0
0.0048 0.1257 -0.7993 -0.014 0.919 0.394 58 42 27 0 0
0.0063 0.1343 -0.8136 0.106 0.956 0.272 91 75 47 0 0
0.0085 0.1431 -0.8451 0.692 0.600 0.401 149 132 90 0 0
0.0092 0.1458 -0.8559 0.355 0.896 0.267 138 124 89 0 0
-0.0295 -0.0035 -0.2269 -0.323 0.869 0.375 123 107 78 0 0
-0.0294 -0.0180 -0.2738 0.172 0.984 -0.044 71 69 65 0 0
-0.0293 -0.0182 -0.2755 0.137 0.987 -0.089 66 62 59 0 0
-0.0254 0.0067 -0.3051 0.815 0.572 0.094 28 27 26 0 0
-0.0232 0.0206 -0.3208 0.747 0.548 0.376 39 35 33 0 0
-0.0232 0.0207 -0.3224 0.172 0.872 0.459 43 40 37 0 0
-0.0230 0.0216 -0.3238 0.066 0.958 0.278 39 36 32 0 0
-0.0228 0.0230 -0.3251 0.530 0.714 0.458 37 34 31 0 0
-0.0227 0.0238 -0.3265 0.530 0.714 0.458 37 34 30 0 0
-0.0217 0.0241 -0.3515 0.320 0.845 0.430 36 29 28 0 0
-0.0150 0.0714 -0.3883 0.180 0.967 0.178 88 78 64 0 0
-0.0149 0.0717 -0.3898 0.170 0.959 0.227 89 80 67 0 0
-0.0148 0.0723 -0.3913 0.107 0.940 0.324 92 85 72 0 0
-0.0146 0.0731 -0.3927 -0.020 0.860 0.509 96 90 78 0 0
-0.0145 0.0735 -0.3942 -0.142 0.796 0.589 104 99 89 0 0
-0.0144 0.0742 -0.3956 -0.261 0.812 0.521 112 108 99 0 0
-0.0142 0.0755 -0.3968 -0.599 0.737 0.313 121 117 110 0 0
-0.0067 0.0529 -0.6661 -0.405 0.892 -0.203 41 46 42 0 0
-0.0066 0.0527 -0.6683 -0.387 0.907 -0.167 32 34 30 0 0
-0.0015 0.0842 -0.7108 0.185 0.720 0.669 25 23 24 0 0
-0.0013 0.0852 -0.7121 0.149 0.767 0.624 26 24 24 0 0
-0.0011 0.0862 -0.7135 -0.188 0.979 0.075 34 33 31 0 0
-0.0009 0.0878 -0.7145 0.079 0.718 0.691 54 53 50 0 0
0.0016 0.1090 -0.7177 0.012 0.287 0.958 49 44 41 0 0
0.0039 0.1089 -0.7806 0.430 0.899 -0.090 46 35 22 0 0
0.0057 0.1211 -0.7900 0.282 0.844 0.457 36 26 12 0 0
0.0064 0.1254 -0.7972 0.013 0.938 0.345 67 51 36 0 0
0.0065 0.1260 -0.7988 0.013 0.938 0.345 69 53 37 0 0
0.0100 0.1413 -0.8442 0.627 0.640 0.443 136 118 78 0 0
0.0101 0.1418 -0.8460 0.692 0.600 0.401 143 128 86 0 0
-0.0276 -0.0177 -0.2752 -0.383 0.826 -0.413 46 44 41 0 0
-0.0277 -0.0187 -0.2771 -0.278 0.814 -0.510 47 43 41 0 0
-0.0257 -0.0075 -0.2973 0.661 0.392 -0.640 40 39 35 0 0
-0.0214 0.0221 -0.3236 0.753 0.619 0.223 33 32 28 0 0
-0.0210 0.0234 -0.3281 0.830 0.549 0.094 40 36 33 0 0
-0.0135 0.0724 -0.3828 0.875 0.484 0.024 107 102 92 0 0
-0.0135 0.0711 -0.3866 -0.517 0.849 0.108 121 116 106 0 0
-0.0134 0.0716 -0.3881 -0.437 0.883 0.171 123 120 114 0 0
-0.0133 0.0719 -0.3896 -0.458 0.856 0.241 133 131 125 0 0
-0.0131 0.0729 -0.3909 -0.429 0.811 0.398 144 143 139 0 0
-0.0130 0.0736 -0.3923 -0.538 0.695 0.476 158 157 153 0 0
-0.0128 0.0746 -0.3936 -0.538 0.695 0.476 170 171 168 0 0
-0.0128 0.0745 -0.3953 -0.182 0.803 0.568 178 179 178 0 0
-0.0126 0.0754 -0.3966 -0.182 0.803 0.568 182 183 183 0 0
0.0033 0.1092 -0.7174 -0.223 0.361 0.906 48 43 40 0 0
0.0073 0.1203 -0.7883 0.173 0.939 0.298 87 76 57 0 0
0.0074 0.1209 -0.7900 0.173 0.939 0.298 68 56 37 0 0
0.0080 0.1248 -0.7953 0.051 0.864 0.501 69 54 34 0 0
0.0112 0.1399 -0.8343 0.203 0.830 0.520 95 82 49 0 0
0.0113 0.1407 -0.8358 0.355 0.879 0.317 137 120 80 0 0
-0.0266 -0.0263 -0.2839 -0.750 0.657 -0.083 4 4 3 0 0
-0.0266 -0.0264 -0.2856 -0.750 0.657 -0.083 5 5 5 0 0
-0.0266 -0.0274 -0.2876 -0.569 0.787 0.239 6 7 6 0 0
-0.0202 0.0185 -0.3229 0.844 0.395 0.363 39 35 32 0 0
-0.0200 0.0193 -0.3243 0.834 0.450 0.318 41 37 34 0 0
-0.0190 0.0217 -0.3453 0.175 0.843 0.508 27 23 20 0 0
-0.0187 0.0220 -0.3519 0.094 0.818 0.567 49 44 38 0 0
-0.0184 0.0239 -0.3530 0.609 0.619 0.495 78 74 63 0 0
-0.0178 0.0204 -0.3798 0.552 0.633 -0.543 79 76 71 0 0
-0.0120 0.0711 -0.3831 0.093 0.945 0.314 165 165 162 0 0
-0.0119 0.0717 -0.3846 -0.543 0.830 0.128 174 174 171 0 0
-0.0118 0.0722 -0.3861 -0.690 0.710 0.138 179 179 176 0 0
-0.0117 0.0726 -0.3876 -0.582 0.798 0.157 180 181 182 0 0
-0.0116 0.0729 -0.3891 -0.608 0.770 0.195 182 183 185 0 0
-0.0040 0.0544 -0.6404 -0.865 0.152 0.478 92 85 68 0 0
0.0025 0.0894 -0.7088 -0.293 0.945 0.148 19 18 16 0 0
0.0026 0.0896 -0.7107 -0.207 0.890 0.407 26 25 23 0 0
0.0058 0.1162 -0.7181 -0.388 0.424 0.819 53 48 44 0 0
0.0081 0.1337 -0.7275 0.041 0.994 0.099 162 144 101 0 0
0.0080 0.1190 -0.7658 0.101 0.833 -0.544 74 62 40 0 0
0.0099 0.1251 -0.7969 0.066 0.786 0.614 70 55 34 0 0
0.0111 0.1291 -0.8173 0.235 0.920 0.315 82 65 38 0 0
0.0119 0.1326 -0.8273 0.255 0.829 0.498 109 93 66 0 0
0.0137 0.1430 -0.8467 -0.227 0.758 0.611 98 85 52 0 0
0.0138 0.1429 -0.8489 -0.054 0.981 0.185 137 123 87 0 0
0.0139 0.1432 -0.8509 -0.095 0.990 -0.104 141 125 90 0 0
0.0141 0.1439 -0.8524 0.040 0.997 0.066 131 115 78 0 0
-0.0263 -0.0099 -0.2044 -0.172 0.858 0.484 80 69 48 0 0
-0.0213 -0.0017 -0.3105 0.898 0.401 0.183 10 8 9 0 0
-0.0212 -0.0017 -0.3122 0.888 0.313 0.336 15 13 14 0 0
-0.0203 0.0051 -0.3152 0.820 0.210 0.533 22 20 18 0 0
-0.0201 0.0069 -0.3163 0.820 0.210 0.533 24 23 20 0 0
-0.0199 0.0085 -0.3175 0.830 0.233 0.507 26 25 22 0 0
-0.0196 0.0102 -0.3187 0.830 0.233 0.507 31 29 26 0 0
-0.0162 0.0208 -0.3778 0.557 0.700 -0.447 79 76 69 0 0
-0.0162 0.0195 -0.3800 0.557 0.700 -0.447 86 83 75 0 0
-0.0105 0.0710 -0.3831 0.093 0.945 0.314 184 187 187 0 0
0.0063 0.1057 -0.7153 0.020 0.730 0.683 53 48 45 0 0
0.0064 0.1065 -0.7168 -0.106 0.655 0.748 51 46 43 0 0
0.0066 0.1079 -0.7179 -0.111 0.597 0.795 50 45 42 0 0
0.0074 0.1144 -0.7193 0.132 0.376 0.917 56 51 47 0 0
0.0095 0.1341 -0.7188 0.375 0.822 0.428 105 91 70 0 0
0.0099 0.1337 -0.7293 0.333 0.937 -0.102 135 118 82 0 0
0.0116 0.1249 -0.7969 0.117 0.873 0.474 81 67 43 0 0
0.0151 0.1419 -0.8386 0.030 0.908 0.418 98 86 59 0 0
0.0156 0.1424 -0.8514 0.376 0.736 0.563 129 113 79 0 0
0.0169 0.1500 -0.8620 0.610 0.653 0.449 105 99 88 0 0
-0.0302 -0.0465 -0.1669 -0.086 0.875 -0.476 180 178 178 0 0
-0.0198 -0.0032 -0.3091 0.921 0.349 0.173 9 7 8 0 0
-0.0200 -0.0058 -0.3115 0.818 0.461 0.344 9 7 9 0 0
-0.0198 -0.0047 -0.3129 0.812 0.338 0.476 13 11 13 0 0
-0.0192 0.0003 -0.3165 0.823 0.225 0.521 22 20 20 0 0
-0.0189 0.0021 -0.3176 0.823 0.225 0.521 23 21 21 0 0
-0.0186 0.0043 -0.3203 0.874 0.391 0.288 24 22 21 0 0
-0.0156 0.0196 -0.3542 0.805 0.513 0.300 78 74 64 0 0
0.0006 0.0669 -0.6343 0.017 0.900 -0.435 45 36 29 0 0
0.0071 0.0981 -0.7124 -0.620 0.546 0.563 30 26 24 0 0
0.0074 0.1008 -0.7125 -0.234 0.803 0.548 30 25 22 0 0
0.0076 0.1024 -0.7135 0.105 0.772 0.627 38 33 30 0 0
0.0080 0.1056 -0.7152 0.385 0.569 0.726 55 50 46 0 0
0.0082 0.1069 -0.7163 0.337 0.589 0.734 54 49 45 0 0
0.0115 0.1331 -0.7275 0.316 0.948 -0.028 117 98 65 0 0
0.0133 0.1245 -0.7970 0.241 0.949 0.204 69 54 34 0 0
0.0138 0.1254 -0.8070 0.223 0.913 0.342 58 41 25 0 0
0.0167 0.1400 -0.8400 0.183 0.934 0.307 88 75 48 0 0
0.0173 0.1420 -0.8515 0.248 0.913 0.325 141 126 88 0 0
-0.0193 -0.0010 -0.2755 -0.851 0.498 0.166 16 15 13 0 0
-0.0173 0.0011 -0.3195 0.829 0.320 0.459 21 20 19 0 0
-0.0175 -0.0012 -0.3218 0.851 0.329 0.410 24 22 20 0 0
-0.0139 0.0194 -0.3558 0.653 0.628 0.423 81 76 69 0 0
-0.0137 0.0211 -0.3569 0.666 0.595 0.449 72 66 60 0 0
-0.0134 0.0227 -0.3598 0.656 0.591 0.468 50 45 39 0 0
0.0001 0.0563 -0.6070 -0.871 0.484 0.082 214 215 214 0 0
0.0002 0.0566 -0.6087 -0.826 0.559 0.064 207 208 207 0 0
0.0096 0.1048 -0.7136 -0.564 0.789 0.244 24 20 17 0 0
0.0103 0.1102 -0.7178 -0.565 0.551 0.615 61 56 52 0 0
0.0106 0.1135 -0.7174 -0.067 0.324 0.944 56 52 48 0 0
0.0130 0.1094 -0.7876 0.132 0.691 0.710 80 67 43 0 0
0.0180 0.1395 -0.8315 0.065 0.899 0.434 88 72 49 0 0
0.0180 0.1375 -0.8377 0.295 0.870 0.396 108 93 64 0 0
0.0199 0.1445 -0.8666 0.493 0.861 -0.127 114 111 100 0 0
-0.0183 0.0051 -0.2466 -0.205 0.979 -0.011 68 57 43 0 0
-0.0169 -0.0098 -0.3175 0.072 0.962 0.265 10 8 9 0 0
-0.0161 -0.0031 -0.3206 0.717 0.399 0.571 16 15 13 0 0
-0.0160 -0.0033 -0.3240 0.855 0.333 0.397 20 19 17 0 0
-0.0158 -0.0021 -0.3254 0.866 0.317 0.387 30 29 27 0 0
-0.0148 0.0025 -0.3375 0.601 0.691 0.402 48 47 43 0 0
-0.0147 0.0034 -0.3389 0.476 0.524 0.706 47 46 43 0 0
-0.0140 0.0084 -0.3423 0.422 0.461 0.781 55 54 49 0 0
-0.0140 0.0079 -0.3442 0.788 0.384 0.481 59 56 50 0 0
-0.0126 0.0168 -0.3549 0.620 0.647 0.443 67 60 54 0 0
-0.0125 0.0177 -0.3563 0.620 0.647 0.443 75 68 63 0 0
-0.0123 0.0189 -0.3576 0.693 0.672 0.260 72 66 61 0 0
-0.0121 0.0197 -0.3590 0.586 0.670 0.456 66 61 56 0 0
-0.0120 0.0205 -0.3604 0.586 0.670 0.456 51 46 40 0 0
-0.0119 0.0204 -0.3622 0.452 0.591 0.668 40 35 29 0 0
-0.0117 0.0217 -0.3634 0.650 0.586 0.483 44 37 31 0 0
0.0014 0.0595 -0.5893 -0.820 0.572 0.039 203 203 204 0 0
0.0015 0.0588 -0.5936 -0.773 0.623 -0.119 149 148 149 0 0
0.0019 0.0605 -0.5985 -0.646 0.763 -0.030 123 121 124 0 0
0.0021 0.0595 -0.6049 -0.871 0.484 0.082 85 84 81 0 0
0.0148 0.1248 -0.7479 0.200 0.931 -0.306 141 126 89 0 0
0.0148 0.1234 -0.7510 0.150 0.912 -0.381 119 104 73 0 0
0.0148 0.1100 -0.7869 -0.054 0.876 0.480 78 66 42 0 0
0.0180 0.1294 -0.8161 0.246 0.889 0.386 94 82 51 0 0
0.0184 0.1319 -0.8183 0.133 0.837 0.530 109 98 67 0 0
0.0186 0.1321 -0.8225 0.272 0.820 0.504 73 61 35 0 0
0.0196 0.1363 -0.8363 0.295 0.870 0.396 80 63 41 0 0
-0.0213 -0.0169 -0.1898 -0.278 0.935 0.222 125 112 85 0 0
-0.0211 -0.0165 -0.1929 -0.107 0.979 0.174 126 110 85 0 0
-0.0163 0.0120 -0.2386 -0.096 0.774 0.626 129 116 87 0 0
-0.0155 -0.0117 -0.3180 0.022 0.968 0.252 9 7 8 0 0
0.0037 0.0629 -0.5930 -0.440 0.852 -0.284 40 35 35 0 0
0.0137 0.1111 -0.7147 -0.753 0.500 0.427 14 11 9 0 0
0.0164 0.1088 -0.7855 0.167 0.849 0.501 50 38 18 0 0
0.0165 0.1100 -0.7867 -0.029 0.880 0.474 78 67 42 0 0
0.0181 0.1212 -0.7947 0.049 0.981 0.189 56 42 23 0 0
0.0182 0.1217 -0.7965 0.146 0.967 0.210 64 49 31 0 0
0.0197 0.1289 -0.8163 0.246 0.889 0.386 99 90 61 0 0
0.0221 0.1386 -0.8493 0.269 0.962 0.044 98 85 52 0 0
0.0236 0.1431 -0.8740 0.400 0.662 0.634 180 180 181 0 0
-0.0228 -0.0307 -0.1489 0.091 0.978 0.190 179 179 179 0 0
-0.0208 -0.0216 -0.1751 -0.421 0.811 0.407 178 161 125 0 0
-0.0207 -0.0208 -0.1765 -0.389 0.779 0.492 181 167 131 0 0
-0.0139 -0.0100 -0.3123 -0.643 0.694 0.324 16 14 13 0 0
-0.0137 -0.0091 -0.3137 -0.607 0.727 0.320 14 12 13 0 0
-0.0139 -0.0120 -0.3179 0.073 0.982 0.173 10 8 9 0 0
-0.0090 0.0170 -0.3631 0.660 0.558 0.503 46 41 38 0 0
-0.0088 0.0180 -0.3644 0.622 0.619 0.479 51 44 38 0 0
-0.0086 0.0192 -0.3674 0.796 0.592 0.126 60 52 41 0 0
0.0178 0.1299 -0.7250 0.332 0.907 0.260 104 88 62 0 0
0.0213 0.1272 -0.8153 0.126 0.938 0.321 90 76 49 0 0
0.0214 0.1278 -0.8170 0.126 0.938 0.321 84 71 46 0 0
0.0237 0.1376 -0.8478 0.160 0.983 0.091 98 83 54 0 0
-0.0195 -0.0231 -0.1722 -0.035 0.933 0.359 125 108 80 0 0
-0.0191 -0.0205 -0.1748 -0.292 0.837 0.463 135 118 91 0 0
-0.0162 -0.0021 -0.2009 -0.189 0.857 0.479 180 167 133 0 0
-0.0161 -0.0031 -0.2042 -0.434 0.875 -0.214 97 81 54 0 0
-0.0161 -0.0035 -0.2058 -0.626 0.754 0.200 103 92 64 0 0
-0.0121 0.0042 -0.2819 -0.549 0.828 -0.110 19 18 13 0 0
-0.0125 -0.0088 -0.3035 -0.352 0.936 0.025 24 20 19 0 0
-0.0123 -0.0086 -0.3068 -0.333 0.941 -0.058 26 22 19 0 0
-0.0121 -0.0119 -0.3195 0.073 0.982 0.173 9 7 8 0 0
-0.0071 0.0076 -0.3904 0.472 0.743 -0.474 117 106 83 0 0
0.0215 0.1196 -0.7977 0.184 0.779 0.600 83 67 41 0 0
0.0238 0.1314 -0.8245 0.024 0.925 0.380 102 92 64 0 0
0.0247 0.1371 -0.8327 0.263 0.780 0.567 105 92 60 0 0
0.0254 0.1373 -0.8478 0.160 0.983 0.091 112 98 64 0 0
0.0261 0.1433 -0.8490 0.068 0.896 0.439 143 121 77 0 0
0.0273 0.1468 -0.8701 0.419 0.566 0.710 183 183 184 0 0
-0.0202 -0.0361 -0.1495 -0.027 0.763 0.646 180 179 179 0 0
-0.0179 -0.0231 -0.1721 -0.024 0.943 0.331 126 111 83 0 0
-0.0105 -0.0094 -0.3136 -0.233 0.915 0.329 9 7 8 0 0
-0.0104 -0.0140 -0.3268 0.695 0.472 0.541 15 14 12 0 0
-0.0096 -0.0095 -0.3339 0.446 0.863 -0.237 14 12 14 0 0
0.0214 0.1260 -0.7398 0.318 0.942 -0.109 133 116 82 0 0
0.0230 0.1181 -0.7966 0.300 0.813 0.498 84 69 41 0 0
0.0232 0.1193 -0.7978 0.292 0.772 0.564 101 85 55 0 0
0.0256 0.1322 -0.8236 0.136 0.954 0.269 86 74 49 0 0
0.0269 0.1400 -0.8364 -0.142 0.900 0.413 80 67 37 0 0
0.0270 0.1362 -0.8464 0.049 0.989 0.141 111 97 63 0 0
0.0271 0.1368 -0.8480 0.283 0.885 0.370 115 101 65 0 0
-0.0183 -0.0318 -0.1473 -0.096 0.961 -0.259 179 179 179 0 0
-0.0181 -0.0323 -0.1520 -0.324 0.809 0.491 177 162 136 0 0
-0.0097 0.0087 -0.2532 -0.202 0.978 -0.051 49 40 30 0 0
-0.0087 -0.0149 -0.3303 0.392 0.812 0.433 29 26 24 0 0
-0.0084 -0.0126 -0.3314 0.539 0.835 -0.114 21 19 17 0 0
-0.0083 -0.0122 -0.3329 0.444 0.845 -0.298 17 16 15 0 0
-0.0081 -0.0110 -0.3343 0.339 0.788 -0.513 18 16 17 0 0
-0.0080 -0.0109 -0.3359 0.621 0.655 -0.430 21 18 19 0 0
-0.0080 -0.0113 -0.3378 0.763 0.563 -0.318 30 27 25 0 0
-0.0074 -0.0102 -0.3494 0.917 0.154 0.367 68 63 60 0 0
0.0241 0.1133 -0.7917 0.242 0.740 0.627 79 64 45 0 0
0.0246 0.1168 -0.7953 0.290 0.725 0.625 94 79 49 0 0
0.0252 0.1203 -0.8010 -0.137 0.962 0.237 117 103 71 0 0
0.0270 0.1299 -0.8210 0.066 0.790 0.609 96 81 57 0 0
0.0272 0.1306 -0.8225 -0.056 0.962 0.269 80 65 44 0 0
0.0273 0.1312 -0.8243 -0.104 0.891 0.441 78 64 42 0 0
0.0277 0.1335 -0.8287 0.088 0.860 0.503 84 69 40 0 0
0.0279 0.1344 -0.8302 0.088 0.860 0.503 93 78 46 0 0
0.0280 0.1354 -0.8315 -0.028 0.877 0.480 126 112 79 0 0
0.0284 0.1376 -0.8361 0.170 0.848 0.501 97 83 54 0 0
0.0298 0.1432 -0.8553 0.730 0.653 0.201 77 72 49 0 0
-0.0170 -0.0339 -0.1460 0.131 0.803 0.581 179 179 179 0 0
-0.0170 -0.0348 -0.1476 -0.481 0.802 0.354 179 179 176 0 0
-0.0068 0.0115 -0.2764 -0.007 0.723 0.691 122 114 100 0 0
-0.0066 0.0125 -0.2794 -0.050 0.891 0.451 49 45 42 0 0
-0.0070 -0.0024 -0.3030 -0.784 0.487 0.384 14 11 10 0 0
-0.0073 -0.0153 -0.3235 0.136 0.881 0.453 14 11 11 0 0
-0.0072 -0.0165 -0.3290 0.037 0.846 0.532 56 53 51 0 0
-0.0070 -0.0145 -0.3301 0.224 0.969 0.103 48 44 42 0 0
-0.0068 -0.0128 -0.3313 0.303 0.888 -0.345 32 30 29 0 0
-0.0067 -0.0129 -0.3330 0.375 0.758 -0.534 26 24 23 0 0
-0.0066 -0.0126 -0.3346 0.663 0.581 -0.472 28 27 26 0 0
-0.0065 -0.0130 -0.3365 0.692 0.553 -0.463 30 28 28 0 0
-0.0066 -0.0144 -0.3386 0.815 0.481 -0.323 37 33 32 0 0
0.0131 0.0779 -0.5816 0.110 0.979 0.171 30 26 20 0 0
0.0132 0.0782 -0.5833 0.110 0.979 0.171 29 25 19 0 0
0.0221 0.1268 -0.6764 -0.264 0.904 0.336 99 87 64 0 0
0.0264 0.1169 -0.7971 0.270 0.846 0.460 103 87 54 0 0
0.0269 0.1196 -0.8014 0.005 0.954 0.299 129 114 81 0 0
0.0271 0.1208 -0.8025 0.114 0.973 0.199 92 77 50 0 0
0.0283 0.1273 -0.8165 0.020 0.943 0.331 82 68 43 0 0
0.0285 0.1283 -0.8200 0.416 0.864 0.283 108 95 68 0 0
0.0287 0.1284 -0.8221 0.303 0.920 0.250 84 69 44 0 0
0.0289 0.1300 -0.8250 0.082 0.837 0.541 79 63 42 0 0
0.0291 0.1310 -0.8263 0.276 0.795 0.540 80 65 39 0 0
0.0294 0.1328 -0.8291 0.276 0.795 0.540 94 80 49 0 0
0.0296 0.1342 -0.8301 0.125 0.891 0.436 109 95 63 0 0
0.0297 0.1346 -0.8319 0.268 0.923 0.276 83 70 38 0 0
0.0299 0.1356 -0.8332 0.383 0.812 0.441 86 72 43 0 0
0.0311 0.1393 -0.8541 0.710 0.644 0.285 132 119 82 0 0
-0.0154 -0.0335 -0.1459 -0.208 0.809 0.550 180 179 179 0 0
-0.0152 -0.0338 -0.1505 -0.085 0.756 0.649 165 150 128 0 0
-0.0095 0.0012 -0.2030 -0.428 0.771 0.472 145 128 93 0 0
-0.0081 0.0113 -0.2133 0.064 0.894 0.443 169 151 112 0 0
-0.0055 0.0096 -0.2736 -0.194 0.715 0.671 122 114 96 0 0
-0.0054 0.0105 -0.2749 -0.070 0.819 0.569 147 140 122 0 0
-0.0052 -0.0000 -0.3006 -0.745 0.564 0.356 12 10 10 0 0
-0.0050 -0.0115 -0.3308 -0.088 0.877 -0.472 41 37 36 0 0
-0.0051 -0.0138 -0.3332 0.375 0.758 -0.534 40 37 37 0 0
-0.0051 -0.0144 -0.3351 0.650 0.579 -0.492 44 43 41 0 0
-0.0046 -0.0155 -0.3492 -0.657 0.463 0.595 171 172 174 0 0
0.0155 0.0911 -0.5682 -0.788 0.591 0.175 17 16 12 0 0
0.0263 0.1202 -0.7478 0.152 0.934 -0.323 154 138 99 0 0
0.0263 0.1192 -0.7506 0.152 0.934 -0.323 156 137 98 0 0
0.0264 0.1187 -0.7531 0.044 0.989 -0.139 157 139 99 0 0
0.0262 0.1083 -0.7717 0.485 0.779 -0.397 87 73 46 0 0
0.0264 0.1048 -0.7830 -0.028 0.981 0.193 89 72 41 0 0
0.0286 0.1194 -0.8013 0.260 0.944 0.201 128 115 78 0 0
0.0291 0.1205 -0.8112 0.068 0.969 0.236 83 72 43 0 0
0.0300 0.1266 -0.8168 0.246 0.946 0.209 93 80 55 0 0
0.0301 0.1271 -0.8185 0.328 0.883 0.335 99 90 61 0 0
0.0304 0.1279 -0.8223 0.303 0.920 0.250 84 68 47 0 0
0.0314 0.1342 -0.8321 0.257 0.951 0.173 100 86 58 0 0
0.0321 0.1360 -0.8435 0.322 0.947 0.010 121 107 71 0 0
0.0323 0.1366 -0.8474 -0.069 0.943 0.325 131 116 75 0 0
0.0325 0.1375 -0.8488 0.226 0.660 0.716 132 117 74 0 0
0.0326 0.1377 -0.8508 0.567 0.796 0.214 145 129 85 0 0
0.0327 0.1377 -0.8531 0.577 0.719 0.386 148 135 92 0 0
-0.0137 -0.0334 -0.1488 -0.252 0.891 0.379 173 167 154 0 0
-0.0077 0.0030 -0.2041 -0.481 0.736 0.477 182 167 126 0 0
-0.0065 0.0109 -0.2133 -0.342 0.921 0.186 132 116 85 0 0
-0.0064 0.0118 -0.2147 0.258 0.855 0.451 166 150 116 0 0
-0.0063 0.0117 -0.2162 0.284 0.951 0.121 175 162 120 0 0
-0.0064 0.0093 -0.2198 -0.069 0.971 0.228 144 131 96 0 0
-0.0021 0.0144 -0.3047 -0.804 0.354 0.478 8 6 7 0 0
-0.0020 0.0150 -0.3061 -0.871 0.341 0.354 8 6 7 0 0
-0.0040 -0.0224 -0.3391 0.708 0.576 -0.409 101 98 97 0 0
-0.0033 -0.0188 -0.3466 -0.333 0.454 0.826 178 182 184 0 0
0.0263 0.1281 -0.6929 -0.122 0.993 -0.003 105 95 75 0 0
0.0279 0.1201 -0.7456 0.190 0.960 -0.205 150 132 89 0 0
0.0280 0.1191 -0.7505 0.341 0.886 -0.315 147 130 88 0 0
0.0280 0.1178 -0.7536 0.309 0.920 -0.242 161 146 102 0 0
0.0276 0.1008 -0.7795 0.002 0.997 -0.071 95 82 55 0 0
0.0277 0.1012 -0.7814 -0.142 0.768 0.625 77 62 37 0 0
0.0282 0.1048 -0.7849 0.178 0.964 0.199 111 98 59 0 0
0.0286 0.1066 -0.7900 0.130 0.945 0.300 67 55 31 0 0
0.0301 0.1169 -0.8010 0.402 0.805 0.436 155 140 101 0 0
0.0309 0.1201 -0.8113 0.194 0.950 0.245 110 98 68 0 0
0.0317 0.1260 -0.8171 0.359 0.878 0.316 99 87 62 0 0
0.0318 0.1264 -0.8189 0.510 0.793 0.332 84 74 50 0 0
0.0343 0.1369 -0.8514 0.144 0.989 -0.031 135 118 75 0 0
0.0343 0.1361 -0.8543 0.295 0.954 0.058 142 128 89 0 0
0.0344 0.1362 -0.8563 0.337 0.940 0.061 102 92 67 0 0
0.0346 0.1372 -0.8576 0.303 0.672 0.676 86 82 66 0 0
-0.0051 0.0109 -0.2117 -0.308 0.942 0.136 111 95 71 0 0
-0.0048 0.0096 -0.2197 -0.228 0.898 0.375 132 115 83 0 0
-0.0039 0.0132 -0.2313 -0.054 0.706 0.706 108 91 67 0 0
-0.0032 0.0174 -0.2397 -0.224 0.974 0.019 80 61 38 0 0
-0.0002 -0.0098 -0.3592 0.317 0.759 0.569 179 183 183 0 0
0.0149 0.0798 -0.5077 -0.939 0.343 0.004 196 196 197 0 0
0.0284 0.1266 -0.7058 0.257 0.966 -0.031 112 97 70 0 0
0.0296 0.1203 -0.7452 0.385 0.872 -0.302 153 134 92 0 0
0.0297 0.1147 -0.7579 0.354 0.826 -0.440 137 122 83 0 0
0.0318 0.1166 -0.8010 0.641 0.758 0.124 134 118 85 0 0
0.0327 0.1198 -0.8134 0.441 0.825 0.353 100 86 58 0 0
0.0328 0.1204 -0.8151 0.441 0.825 0.353 104 90 66 0 0
0.0358 0.1374 -0.8462 0.337 0.723 0.603 139 122 81 0 0
-0.0104 -0.0333 -0.1517 -0.100 0.933 0.345 212 197 157 0 0
-0.0102 -0.0327 -0.1532 -0.111 0.929 0.354 197 183 139 0 0
-0.0045 0.0076 -0.1969 -0.102 0.921 0.376 109 96 63 0 0
-0.0041 0.0080 -0.2045 -0.342 0.788 0.512 136 120 89 0 0
-0.0009 0.0149 -0.2607 -0.757 0.639 -0.134 68 55 40 0 0
0.0033 -0.0030 -0.3864 0.765 0.626 0.148 183 184 188 0 0
0.0034 -0.0028 -0.3881 0.495 0.854 0.158 183 184 188 0 0
0.0208 0.0965 -0.5665 -0.881 0.461 0.108 51 44 34 0 0
0.0222 0.1051 -0.5783 -0.940 0.166 0.298 75 66 51 0 0
0.0299 0.1229 -0.7103 0.460 0.885 0.067 108 94 67 0 0
0.0312 0.1225 -0.7392 0.336 0.936 -0.102 163 143 100 0 0
0.0316 0.1042 -0.7829 0.203 0.966 0.162 166 153 109 0 0
