ply
format ascii 1.0
element vertex 664
property float x
property float y
property float z
property uchar diffuse_red
property uchar diffuse_green
property uchar diffuse_blue
end_header
-0.22234601110255375 -0.05452342838671381 -0.804490548733142 108 97 68
-0.22283410582628127 -0.055849971091859574 -0.8055192950759217 119 107 74
-0.2232951803091131 -0.05704762459984594 -0.8066513881832269 125 112 80
-0.22394595336388962 -0.05916247058993762 -0.8070223352260726 124 110 78
-0.2245547345631586 -0.06107744424508327 -0.8075526408752542 118 103 73
-0.22560978875813897 -0.06515458255432441 -0.806279501935355 116 101 69
-0.22642913590519018 -0.06809721655455758 -0.8059372579678481 117 102 70
-0.2271514595786438 -0.07057425988192773 -0.8059741421361504 119 105 71
-0.22768506792547888 -0.07213915298965534 -0.8067673939066384 114 100 66
-0.22745373619126447 -0.06998891856314576 -0.8106779974073921 115 100 66
-0.2277951068470519 -0.07061871619247981 -0.812258846988601 117 103 69
-0.22845905114212894 -0.07281936126895885 -0.8125130158861973 116 101 68
-0.22880954755220084 -0.0734953414255686 -0.8140512960032009 116 101 64
-0.22916004632434678 -0.07417144360195274 -0.8155892469399331 123 107 68
-0.22951048935578988 -0.07484738455285561 -0.8171271085293924 128 111 74
-0.22918281547388242 -0.07220703875709128 -0.8214945093907982 123 106 70
-0.22964478091857718 -0.07342562849069165 -0.8225749607573143 140 122 83
-0.23018133060573387 -0.07501104629518432 -0.8233381900569797 154 133 94
-0.23087877463537657 -0.07738796300182715 -0.8234166072522624 155 133 93
-0.2313980002849036 -0.07889331063615262 -0.8242386765464826 166 144 99
-0.2321081594849922 -0.08133941944938594 -0.8242437762353841 162 141 98
-0.23270370430484996 -0.08322531434124611 -0.8247262527679999 134 116 84
-0.23351037558500914 -0.08615437390694772 -0.8242969470682013 112 97 66
-0.23240900400427852 -0.07967560703868912 -0.8320508376163069 115 102 66
-0.23289845811231583 -0.08103783274098408 -0.8329899818575845 130 116 81
-0.23322571279330737 -0.08159974873231332 -0.8346264034274437 137 122 88
-0.23355796425829678 -0.08218625907717161 -0.8362415187561842 143 128 90
-0.23402621820973968 -0.0834465847881174 -0.8372639841071892 150 135 94
-0.23432392620396802 -0.08386232026978893 -0.8390285623025194 154 139 99
-0.23439873602138867 -0.08317066814438098 -0.8417732765730611 156 140 102
-0.2342335464619054 -0.08128290610667385 -0.8455841974723204 147 131 95
-0.23464666397245296 -0.08226784761188874 -0.8468533284894022 131 118 86
-0.23494775220288838 -0.08269538178843969 -0.8486174810710106 115 105 82
-0.23512607304038186 -0.08251006857822527 -0.8509299195841442 86 79 63
-0.23498876899429239 -0.08074672449991752 -0.8546590399278385 61 58 47
-0.23547801318666559 -0.08211044752517485 -0.8555917643718647 44 41 29
-0.2358922440714601 -0.08310037611185953 -0.8568575730217786 41 41 29
-0.23619050290428498 -0.0835100036713794 -0.8586452955210999 50 50 38
-0.23692448190226406 -0.08610495408595226 -0.858457484390417 77 73 64
-0.23756798473273985 -0.08824998808158815 -0.8586687291683267 106 100 94
-0.23806011020649487 -0.08963736171714817 -0.8595617968213989 126 121 117
-0.23859521856442953 -0.09124284452977718 -0.8602526641341015 144 141 138
-0.2391007071227883 -0.0927013064520007 -0.861073388827361 158 156 153
-0.24070524675823385 -0.09970676933802072 -0.8568105047105685 169 167 165
-0.24067059137855795 -0.09844712106748599 -0.8601063972053777 174 173 174
-0.24151458038225304 -0.10162642571914793 -0.8593255508382793 180 180 180
-0.2416874432272737 -0.10141384694725253 -0.8616624216852765 184 184 184
-0.1467894031037253 0.04159300534413571 -0.31272324109049104 177 177 179
-0.1478867100995016 0.037999388425323674 -0.31331546185205633 177 177 178
-0.14897792579741392 0.034425720555595445 -0.3139043962643675 177 177 176
-0.15031294624008812 0.0299058876329207 -0.31420227987756894 175 173 171
-0.15115044563012606 0.027306002075316534 -0.31506306095019054 156 151 146
-0.15162839860796085 0.026095431988554303 -0.31633583014209626 128 120 108
-0.15235108270275904 0.023936225777468186 -0.3173196585507799 129 119 105
-0.1529511478313294 0.022250323274124267 -0.31844254405932665 123 112 94
-0.15379182569474234 0.019630038087561225 -0.31927645759383494 96 84 62
-0.1544497496144185 0.017716396865916438 -0.3203211208807963 85 71 49
-0.15521026964193954 0.015402811111888216 -0.32123819542865284 79 64 45
-0.15574377399314213 0.013969036551769592 -0.32242284974041263 82 68 46
-0.15620817622162045 0.012802830954416838 -0.32368826711527954 105 93 69
-0.15672701569763414 0.01142416863408588 -0.32488527919085575 117 105 84
-0.15708805681486446 0.010658661614101117 -0.3262728618485479 98 88 70
-0.15749035391837746 0.00973225630121928 -0.32760893120632145 102 93 76
-0.15789235460514714 0.008806573026660103 -0.3289441290122413 69 62 46
-0.15839704650397524 0.007480060220100379 -0.3301501484730965 65 57 41
-0.15859452056405313 0.007351208480180199 -0.3317383716329642 58 50 35
-0.1592464380232393 0.005448836739703158 -0.3327557564283541 77 71 54
-0.15908481927674425 0.006722673514486119 -0.334798723929589 51 42 29
-0.15925748545012172 0.006692188904282165 -0.33642254750612016 41 29 17
-0.15939280379390888 0.006808439326353499 -0.33809609034891824 34 23 13
-0.15929989944420098 0.007818674910591614 -0.34006580467141034 42 32 23
-0.15909382494273389 0.009274026300495078 -0.3421875619582871 58 49 40
-0.15848423154971863 0.012312993588529123 -0.3448414672778416 71 63 53
-0.15775828634819816 0.01581262836317364 -0.3476603812410107 97 91 84
-0.15725334342895123 0.01845030454205998 -0.3502032029914415 148 146 141
-0.15677042186375428 0.027698237507579382 -0.37187664611845606 106 99 86
-0.15773787884501342 0.024552020821251547 -0.3724621559995621 105 97 79
-0.15753764226605188 0.026021214011683017 -0.3746813667506554 106 95 76
-0.15834490330712367 0.02350546051306135 -0.3754832073456394 104 92 72
-0.15928337773245882 0.02046758753186491 -0.37609149226607813 107 94 73
-0.16010773637599918 0.017878816616268098 -0.3768538543575712 107 92 69
-0.1602301204012455 0.01807115117000231 -0.3786169060094341 107 93 67
-0.16117302815267218 0.015008620280550541 -0.3791985751731168 111 95 69
-0.161615885462785 0.013928395565248303 -0.3804964895683782 111 98 72
-0.16258821398613124 0.010743871252678575 -0.3810206734279284 85 75 58
-0.16325469351090602 0.008771955535457454 -0.3819833914704341 55 45 30
-0.1638201073120756 0.007200310538754279 -0.3830897969007759 109 94 73
-0.16458693176646616 0.004825600540072333 -0.38389446473778127 105 90 64
-0.1650576488703383 0.0036280845891582814 -0.38513287853754746 108 94 65
-0.16621989575498136 -0.0003266754595648014 -0.3853353682814275 100 87 61
-0.1660419218453004 0.0010597763108006059 -0.38753846291651184 82 70 49
-0.16621011646611222 0.0010671605862780792 -0.3892263209593243 67 55 40
-0.1661957363674488 0.0018044774836255967 -0.39119333523579064 69 56 42
-0.16647422341495507 0.0013730972471868719 -0.3927188048748416 113 98 77
-0.16670196350333027 0.0011448501020514673 -0.39432257331699644 117 102 76
-0.16695523596375306 0.0008148925379510008 -0.3958883552773581 102 88 61
-0.16723979281590212 0.00035999198120785503 -0.39740668062483686 82 69 46
-0.16762624780350321 -0.0005030418871158626 -0.39876707198745465 78 64 45
-0.1678826362240427 -0.0008449380952339075 -0.40032957439276795 69 58 40
-0.16785681275038028 -5.422355689010949e-05 -0.402335964428974 59 51 33
-0.16803409862359042 -7.71524642336624e-05 -0.404027184486519 65 55 35
-0.16776274374032107 0.0017030904701036687 -0.4064315803804308 128 115 91
-0.16829328450619924 0.00026268414973047716 -0.4075678930055935 143 129 99
-0.16940754540897474 -0.003527102868365675 -0.40776686300224235 105 89 63
-0.1697479373405585 -0.0042059065897242925 -0.4091978858620446 77 62 40
-0.17019504259888912 -0.005314710578846804 -0.410456128194371 66 50 28
-0.17028100084361725 -0.004968455725577942 -0.41229859373804034 78 62 41
-0.1704326219492115 -0.00488582027867851 -0.4140375146726061 73 57 38
-0.17017842399201888 -0.003164260726846016 -0.4164440305924274 60 47 27
-0.17042163907905944 -0.0034486938041353027 -0.41804039731299003 59 46 27
-0.17061295727342318 -0.0035229685958750867 -0.41972376709012194 59 46 27
-0.17129537260717193 -0.005582815215272693 -0.4205928252831653 69 55 37
-0.17151790169302678 -0.0057833778095102845 -0.42222416250036954 70 55 35
-0.17175173674153724 -0.006029213025614544 -0.42383800850418385 75 59 36
-0.17197741688076407 -0.006241541952918123 -0.42546690691781425 81 64 42
-0.17209097910272422 -0.005998671723704815 -0.42728712461559243 78 61 39
-0.1722342778573154 -0.005875356085322692 -0.42905996371939725 74 58 33
-0.17241973840332508 -0.005922297570606916 -0.4307634893750547 88 72 43
-0.17242973286122498 -0.005255441636736066 -0.43277045059655356 97 81 49
-0.17220574846260128 -0.0036353712404633004 -0.4351860014839202 94 79 48
-0.17266696704727877 -0.004800642085418 -0.43642254480798076 109 94 64
-0.17346406855534047 -0.007334493099464198 -0.43707193087833396 121 106 76
-0.17390209592157507 -0.008407799495063775 -0.43834177654643003 117 102 73
-0.17369541529528462 -0.006852779049955071 -0.44074268744698414 116 102 74
-0.1734936667464283 -0.005314927270469519 -0.4431433522255208 101 88 62
-0.17334291750659775 -0.003982388686550223 -0.4454619814435886 95 83 59
-0.17324729526528404 -0.002872452659024624 -0.44769001254833996 88 76 56
-0.1727972491759331 -0.0003108688625319267 -0.4505591310185244 71 59 44
-0.17251920555481198 0.00155127052157647 -0.4531315559881142 56 46 34
-0.17227683447122996 0.0032707583367579535 -0.4556493433897103 54 44 34
-0.17207746779482605 0.004817257452966919 -0.4580983520516549 62 52 41
-0.17182914228864984 0.0065675119246146885 -0.46064515939452405 66 56 45
-0.17167189347780198 0.007947326965380572 -0.46303464206032524 57 47 35
-0.17117746074571602 0.010714508214769963 -0.46605213784400573 43 35 25
-0.1706741983278257 0.013522709605674685 -0.4690994969634784 38 30 21
-0.17076111984562903 0.01390880752729691 -0.4710655018616138 32 25 17
-0.17224513085842214 0.029291528225051378 -0.5297823899055194 195 196 200
-0.17259274230226984 0.028628527229525524 -0.5313301674892099 195 196 200
-0.20027226005572624 -0.07895321496751338 -0.4978226492694632 93 78 48
-0.20088644911563686 -0.08082369664659786 -0.4985574026900018 102 86 59
-0.20132719757101844 -0.08196006912385448 -0.4996737766936251 102 86 61
-0.20177494603680424 -0.08312705705905674 -0.5007719246383352 97 79 55
-0.20201438873648725 -0.08340953316809135 -0.5023365077609343 118 101 75
-0.20255715102398617 -0.08498189442530356 -0.5032163978668676 114 97 70
-0.20239796302593008 -0.08356744134311139 -0.5056857659038124 111 95 69
-0.2030475020239214 -0.08559554969845676 -0.5063198401310885 111 100 74
-0.20347757977328482 -0.0866901841028974 -0.5074498878601444 88 77 51
-0.2043617942510617 -0.08972351456301618 -0.5075334781902175 80 68 44
-0.20486047252654957 -0.09111427452117864 -0.5084960898917816 73 60 39
-0.20452969477581084 -0.08896141685414583 -0.5113777089866315 61 46 30
-0.2050972071566215 -0.09064642289363789 -0.512180576622788 56 40 25
-0.20534064608790473 -0.09094600609330741 -0.5137358159930436 65 48 32
-0.20572738164098905 -0.09185904034089823 -0.5149559331016027 68 50 30
-0.20607734094663846 -0.09261496526587562 -0.5162611151511128 88 72 47
-0.20624349751370633 -0.09258258732595005 -0.5180002856165541 147 133 104
-0.20637107866913657 -0.09238363931240826 -0.5198337599956386 82 66 40
-0.20680082132980593 -0.09348197928510651 -0.5209498852642902 64 48 23
-0.20689501229295532 -0.09313806074238845 -0.5228672489052569 72 58 35
-0.2073045408175677 -0.09414996378511102 -0.5240303634177551 78 67 45
-0.20773766379323083 -0.0952642203356805 -0.5251344476235569 61 49 27
-0.20820224875590038 -0.09651499268596217 -0.5261597245057522 74 61 37
-0.20863974946797192 -0.09765001670924711 -0.5272477728906889 136 121 92
-0.20938810545788117 -0.10012818977966761 -0.5275734117884732 164 146 114
-0.20979784155331344 -0.10114615658199756 -0.5287212343982194 98 81 52
-0.21013050469042305 -0.10183154060838598 -0.5300568417633711 54 38 16
-0.21023512276010636 -0.10153009654566589 -0.5319560108086988 59 40 20
-0.21033799298082387 -0.10121970033652139 -0.5338634721843228 73 48 29
-0.21065133434739775 -0.10182034572909149 -0.535250052781817 79 56 34
-0.21077438331446446 -0.10159543355647242 -0.5371129005116987 105 84 60
-0.2108453236291959 -0.10114298585322526 -0.5391103703525353 90 70 46
-0.21091911149656126 -0.10070127346966273 -0.5411053436377453 86 64 40
-0.21117419906582263 -0.10104646275661876 -0.5426455334814865 99 79 54
-0.21132059333753925 -0.10091817831428243 -0.5444632638226877 91 73 47
-0.2115628141042129 -0.10120623073813476 -0.546039422087207 99 83 55
-0.21154462041058733 -0.10035844029303569 -0.5482847178248157 107 90 62
-0.2117361872602035 -0.10042364180393548 -0.5499965109421802 120 103 74
-0.21172892817522804 -0.09961973156344264 -0.5522246193211483 123 108 77
-0.21149948961816747 -0.09784249006312232 -0.5550357993668553 119 103 71
-0.21159798540119476 -0.09749588316523769 -0.5570035133567393 136 118 82
-0.21155975596905308 -0.0965491978650663 -0.5593332091572267 111 96 63
-0.21113066165171956 -0.0938874101165741 -0.5626966404330024 88 77 46
-0.2107238296546303 -0.09131789315966642 -0.5660166879457795 91 81 54
-0.20924684255621578 -0.0840464099886663 -0.5721846411144084 76 68 47
-0.2088797012209489 -0.081636869481836 -0.575440301139575 70 64 48
-0.20901265588966791 -0.08142085893251029 -0.5773758416470987 50 42 28
-0.20947695736255822 -0.08266140297618094 -0.5784275731659615 31 23 12
-0.2098198667540812 -0.08336850783642864 -0.5798025713852704 34 26 14
-0.20998548700850747 -0.08329447946011072 -0.5816555920067552 43 35 20
-0.21021189348065578 -0.08348748429491225 -0.5833469756041537 50 41 22
-0.2105477336543665 -0.08416295868716406 -0.5847424180825367 53 41 21
-0.21049211510445737 -0.08310898071630839 -0.5872067674657416 47 34 17
-0.21116765616146838 -0.08528553649949618 -0.5876737917913327 39 26 12
-0.2113725099537231 -0.0853815955601837 -0.5894289668073058 44 30 17
-0.21211489339407186 -0.0878579138720362 -0.5897007270854422 38 25 9
-0.21294817039081998 -0.09074044272511538 -0.5897110042539395 62 47 24
-0.21320455685206546 -0.09106712282975343 -0.5913170215635397 66 48 27
-0.21353313511670677 -0.09171398679692253 -0.5927223582687415 75 56 35
-0.21378545029731688 -0.09202200133730683 -0.594341434529715 77 63 38
-0.2137106603765112 -0.0908743861309122 -0.5968837070486919 73 58 31
-0.21447506086284013 -0.09346028250029335 -0.5970601357291754 85 64 36
-0.2148477758015219 -0.09430417538639821 -0.5983391332121776 79 57 29
-0.21536541894410155 -0.09579494123165114 -0.5992035542698062 114 96 62
-0.21516134670609272 -0.09406553581727779 -0.6021292405021967 125 107 69
-0.215300346979294 -0.0938649509402194 -0.6040805562512302 137 117 77
-0.21555956958194877 -0.09420062881819505 -0.6056889351649948 138 118 78
-0.2155273928665346 -0.0932316765519669 -0.608142317920194 141 122 83
-0.21569521766179817 -0.09315595580779434 -0.6100220265056444 130 111 73
-0.2159350842349674 -0.09340209671485854 -0.6116947675342427 133 115 77
-0.21599962220364105 -0.09286087953025775 -0.613882768678056 129 111 71
-0.21602944592108841 -0.09216178268067028 -0.616178472196853 135 117 78
-0.21628846444410565 -0.09249075209279252 -0.6178040221583473 136 119 78
-0.21618355777883363 -0.09118186343052974 -0.6205092660934041 142 124 83
-0.2159351901323984 -0.08922358786359227 -0.6236508185257486 139 122 84
-0.21587046258305959 -0.08808853603238197 -0.6262568598236294 120 105 73
-0.215815483912634 -0.08699441694457798 -0.6288423966175115 115 100 71
-0.21574831525549035 -0.08584227323952068 -0.6314731486910584 117 104 73
-0.21583022957710896 -0.0853607936011805 -0.6336624282447418 121 106 75
-0.2155835524760368 -0.08339106185460207 -0.6368535101209055 125 111 81
-0.21501608584422047 -0.07996439685550245 -0.6410341020674344 124 109 80
-0.21510637120457846 -0.07951113800212829 -0.6432255931450128 120 107 80
-0.2146772075025919 -0.07669999819968004 -0.6470156433631009 120 107 84
-0.21460830981627818 -0.07551821949777456 -0.6497140493219289 115 103 83
-0.2068535372363529 -0.03668256110066445 -0.6839793227798088 102 89 72
-0.20759370196455385 -0.039143143118643864 -0.6842741192643407 102 89 72
-0.2083885115775942 -0.04185651827122369 -0.6843871627878909 100 87 70
-0.20889224157646819 -0.0432438900501835 -0.6854095285524363 107 93 77
-0.21018060930666138 -0.048220708914847116 -0.6839376370482508 129 115 93
-0.21076906502250334 -0.05000201502034271 -0.6846725223546469 101 89 67
-0.21106670998938654 -0.05045319458105002 -0.6863311909089211 69 59 39
-0.2116422831329044 -0.05217851870997531 -0.6870985841553722 72 64 45
-0.21228047249853135 -0.05419329744075743 -0.6876583257341695 103 89 65
-0.2129200571559437 -0.056217091049850315 -0.6882061018233616 100 85 61
-0.21354915110528322 -0.0581952745312955 -0.6887804135501527 79 65 40
-0.21408895332440578 -0.05976503995921231 -0.6896383975900261 60 44 26
-0.214555602420452 -0.06099959661755236 -0.6907305232934392 48 33 18
-0.21451600098948664 -0.0599009298416652 -0.693481452687306 46 34 17
-0.21514146479498159 -0.06186865712027784 -0.6940497072792136 68 57 38
-0.2153837363714067 -0.06206866505317499 -0.6958782703971714 82 69 50
-0.21580942332969213 -0.0631160489025962 -0.6970999945036956 87 74 54
-0.21625438294482371 -0.06425346770232879 -0.6982551055576209 87 75 53
-0.2168888342614816 -0.06626978571011213 -0.6987734008175852 95 84 60
-0.2172377059218984 -0.06696446102269027 -0.7002430441637812 89 77 52
-0.21765883857854934 -0.06799471898897144 -0.7014686355726387 77 63 39
-0.21770457013647854 -0.06728163116114139 -0.7039620076063398 60 45 25
-0.21809199551999953 -0.06815508958306102 -0.7053021897792086 57 41 23
-0.21813700267648375 -0.06743510706259209 -0.707808109519155 55 39 22
-0.2186939020517456 -0.06909771861705033 -0.7085698793289502 52 37 21
-0.2188937491918742 -0.06909709472259998 -0.7105520573245772 52 35 21
-0.21925883897789888 -0.0698667235801092 -0.7119679675617772 61 45 28
-0.21941855042045952 -0.06967695252326847 -0.7140935823629334 85 73 50
-0.21999295719016726 -0.07142535030649283 -0.7147834020688196 97 85 56
-0.22041625154722563 -0.07246845779368752 -0.7159936515674762 110 97 64
-0.22114544137898196 -0.0749459948173069 -0.7161311824509591 143 127 90
-0.22174933960568974 -0.07683942340441247 -0.7166983057763164 134 114 75
-0.2224253442209204 -0.07907395153789698 -0.7170040608633274 146 124 87
-0.22314829789430532 -0.08153233889884137 -0.7171345827971685 141 120 80
-0.22392118879723705 -0.08422930823187427 -0.7170773601918802 147 126 85
-0.22445230362131896 -0.08579175871213952 -0.7178701847224749 174 153 108
-0.2250034561976635 -0.08745056246346479 -0.7185859007923873 164 145 105
-0.2249558225522468 -0.08628594043652445 -0.7214459371610323 132 118 85
-0.22533842418360542 -0.08715000582147901 -0.7227651923003057 88 75 46
-0.22603420250029552 -0.08949531875708157 -0.7229499327006992 105 90 59
-0.2255671158032341 -0.08634051905793333 -0.7273474181596711 128 112 77
-0.22434454311697383 -0.0786408209203795 -0.7372616533291007 148 133 95
-0.21420507140649847 -0.02238787239654852 -0.7977277247879401 77 70 50
-0.2144483859186266 -0.022515864412721354 -0.7997726654151949 59 50 33
-0.21511579389391514 -0.024674344082642324 -0.8002108116567899 46 37 21
-0.215882697535055 -0.02731302106191308 -0.8002610364871257 50 40 25
-0.2166411507506844 -0.029915222048384538 -0.8003318818254229 78 66 48
-0.21752970496650215 -0.03314659129014755 -0.7998918743648367 106 92 68
-0.21841732195483746 -0.036378784308475826 -0.7994402225306565 119 103 75
-0.219311947630065 -0.03965007326716671 -0.7989461673733128 117 103 75
-0.21994582555266523 -0.04167001427791872 -0.7994484149016021 96 83 58
-0.22055057547409346 -0.043552280849748715 -0.8000559134232741 78 63 43
-0.22141777681216096 -0.046704769910325517 -0.7996299904228147 61 47 31
-0.22196114625663899 -0.04829677368956495 -0.8004596985660964 46 32 20
-0.22264349188497948 -0.05056342969068489 -0.8007363701266507 45 32 18
-0.22310666744107416 -0.05177159901811143 -0.8018695706221501 51 38 20
-0.2231764411514005 -0.051072898101689274 -0.8045600273536799 63 49 29
-0.22367767941048228 -0.05246628851461077 -0.80554048139979 86 72 48
-0.22417813310603163 -0.05385746833135788 -0.8065194854510265 110 96 69
-0.22467784261958185 -0.055246630110277195 -0.8074968887470703 124 110 82
-0.22514908472499526 -0.05649873890615478 -0.8085843111807421 127 113 84
-0.22600367300345034 -0.059621312247101876 -0.8081189895107267 127 111 84
-0.22645466971530664 -0.06077923165774349 -0.8092752717492441 131 116 88
-0.22704020245941448 -0.06259565658285135 -0.8098807143922692 132 117 88
-0.22769379205470552 -0.06474751861321257 -0.8102008603835612 130 115 86
-0.2282200533669734 -0.06627915285612793 -0.8110337562278498 127 112 84
-0.22851442823135476 -0.06667602468655376 -0.8128153977309799 127 112 82
-0.22888299236677673 -0.06743646759412555 -0.8142920188037692 130 115 83
-0.229295668525649 -0.0684139012495106 -0.8155849442111922 134 119 81
-0.2296860051272487 -0.06928222992351091 -0.8169686517746705 135 119 76
-0.23007615283123195 -0.07015015243635928 -0.818351649504916 131 114 70
-0.2301152919478083 -0.06928863494845755 -0.821204360964992 137 118 75
-0.23052088357531447 -0.0702319239175472 -0.8225247722329414 145 126 83
-0.23098265036502685 -0.07145336923606338 -0.8236060289784819 160 138 93
-0.23151711546373088 -0.07303558782907707 -0.8243754952534582 177 154 107
-0.2323545007598105 -0.07611940029823483 -0.823850597485638 188 164 117
-0.23281212042011312 -0.07732665775766515 -0.824931350533314 189 166 119
-0.23335958882069374 -0.0789809437076861 -0.8256234838611928 161 142 100
-0.23386530739483669 -0.08043015446669097 -0.826488629908786 130 115 82
-0.2335781297277541 -0.07793888989398806 -0.8307705111877878 124 109 77
-0.23383654178251778 -0.07815641028770776 -0.8327089146457167 131 119 82
-0.2341152597313665 -0.07847420964960508 -0.834561635114943 136 122 86
-0.23464617084763822 -0.08004942672062892 -0.835315914899693 139 123 90
-0.23500487292600397 -0.08076671644910041 -0.836818271752723 148 132 96
-0.2349690196645577 -0.07951150350074213 -0.8400542331586487 153 138 101
-0.2355118847316477 -0.08114881027605053 -0.8407493281628657 154 140 106
-0.23539193153783386 -0.07946695426537806 -0.8443725532094324 146 134 102
-0.23543191385610637 -0.07858224305926895 -0.8472999792345778 136 124 95
-0.23523611614416276 -0.07650992097357118 -0.8512887704174072 127 116 93
-0.23604371978015315 -0.07947670043695326 -0.8508035896227569 101 92 75
-0.236241411345812 -0.07937859281995455 -0.8530433145134246 74 67 53
-0.23645115263625144 -0.07933955442380464 -0.855233445510486 55 49 39
-0.23675254189584044 -0.07976138564228497 -0.857013185906962 53 50 39
-0.23703905205698522 -0.08010758564161949 -0.8588618674266766 71 70 58
-0.23716152035755578 -0.07962358624398896 -0.8614602274134389 94 92 81
-0.23810340056142598 -0.08328550841167484 -0.8603168143277123 113 109 102
-0.23895054699523333 -0.08647426336898323 -0.8595883972470337 130 126 122
-0.239463834038317 -0.08797478568625383 -0.8603817374292895 143 140 137
-0.24004675557985453 -0.08983110476723746 -0.8608471643316438 156 155 153
-0.24065289614387675 -0.0918083845618872 -0.8611966041060332 166 166 164
-0.2411953913657523 -0.09346472314693105 -0.8618335827963733 173 173 173
-0.24198331180489452 -0.09637469014388661 -0.8613158949778168 178 178 178
-0.2429029300250921 -0.099962218310966 -0.8601647222601972 183 183 183
-0.1493031374423055 0.03955937456084522 -0.3151675760778065 177 177 177
-0.15153007576020117 0.031549923936784026 -0.3144344495118606 176 177 176
-0.15201214652977618 0.030321773062544223 -0.31570773900505944 174 174 175
-0.15259731608075303 0.02869137728719351 -0.3168580606475122 172 169 169
-0.15269561624559325 0.028956689539384413 -0.31857821611373427 155 149 142
-0.15344812512834244 0.026672492586255855 -0.3195263475208125 121 112 98
-0.15408392683729957 0.0248414980184807 -0.3206076280401118 120 110 91
-0.1547635629231532 0.022837872494490687 -0.3216320700198976 126 114 94
-0.15573959419922706 0.01967484844741184 -0.32229450518216735 108 95 77
-0.1562254642848895 0.01842429688415298 -0.32354180493782414 98 86 67
-0.15663019323107727 0.01749022565800369 -0.3248856120811138 88 76 55
-0.15706921189310113 0.0164215385559541 -0.3261861626371344 74 63 42
-0.1574541964337366 0.015563807581979713 -0.32755155540617464 83 72 50
-0.15793349587217284 0.014336221711873695 -0.3287991310552202 67 56 37
-0.15835599015786472 0.013330517201182446 -0.3301151765763033 59 49 34
-0.1586779413412121 0.01271867153015381 -0.33155563034065444 42 33 21
-0.15886639455414897 0.01263076465200691 -0.3331640599803952 36 28 14
-0.15935017081512307 0.011383582683685209 -0.3344002654636557 61 51 37
-0.15928982339358233 0.012273928941430229 -0.3363268116309933 56 43 31
-0.15943734578042515 0.012348675269473308 -0.33799244136354906 37 24 13
-0.1593693839447879 0.01327212158765037 -0.3399376751540559 43 33 22
-0.15910021729006082 0.014989636561082667 -0.34214854135821937 74 66 57
-0.15871501957150336 0.017167150570671433 -0.34451846737442504 91 84 76
-0.1582416087568828 0.019695868554686247 -0.34701353250258155 119 114 108
-0.15776956716690207 0.022223083796748228 -0.349517836984185 164 160 158
-0.1579743343270211 0.030903893522644235 -0.37611869318600116 95 85 70
-0.1587475986355297 0.028514287339982833 -0.37697288462674083 101 90 72
-0.1589158405727596 0.028533410159375203 -0.37868520621158963 112 100 81
-0.1603167709914467 0.023637808494260393 -0.37862899748545586 104 92 71
-0.1610554339457082 0.021379222478197804 -0.3795131915610934 105 91 67
-0.161799112425224 0.019098443163912737 -0.38038396998315394 121 106 80
-0.16313046259026948 0.014467480740099653 -0.3803914051978816 120 106 80
-0.16316138329944133 0.015030367050613724 -0.38229016162667473 102 92 72
-0.16405240131323345 0.012153839335931615 -0.38292603105416056 62 52 34
-0.16470060516040008 0.010246355110106117 -0.3839129385049483 122 108 86
-0.16536758337971252 0.00826193060856778 -0.3848670006447791 116 100 74
-0.16593360820602687 0.006680335740211582 -0.3859668311501506 111 97 68
-0.16669535828243717 0.004312355341093352 -0.3867687807957288 108 93 68
-0.16724434601444302 0.002795994811640376 -0.38788542958835026 73 60 41
-0.16793930929769746 0.0006921075470435745 -0.38877700863701703 60 50 35
-0.16745687370693985 0.0033182044643194353 -0.39145888880795143 76 66 50
-0.16775524467800634 0.0028083821745772813 -0.39295585364769026 119 106 82
-0.16800890868472063 0.0024785694520137597 -0.39452195200449214 114 98 72
-0.1682133260983322 0.002347405953151485 -0.39616522654120123 108 92 65
-0.16853591661551806 0.0017406381425702222 -0.3976263611987317 98 83 59
-0.16890299580577023 0.0009544403579454935 -0.3990178522085711 78 64 44
-0.16893244384297587 0.0015303329162734969 -0.4009389258571964 65 55 37
-0.16910938913180917 0.0015122118976268611 -0.4026315577006751 58 49 29
-0.16891995002252855 0.002975209100005871 -0.40490745266307526 86 74 50
-0.16936728546923974 0.0018663559821457676 -0.4061762283769117 150 135 104
-0.1695506863697939 0.0018246469426019818 -0.4078656882181621 160 144 110
-0.1705130327620727 -0.0013699867089524975 -0.40830373362826916 100 84 56
-0.17090265909126903 -0.002247854970744201 -0.40965784954872353 70 57 36
-0.17119174793579167 -0.0027185366985891524 -0.41117417103218373 76 63 42
-0.1715387315841211 -0.0034239384003610235 -0.4125964051352935 78 64 45
-0.17191116881119026 -0.004232839521557355 -0.41397641188797824 67 53 35
-0.1716303696271518 -0.002388385079396066 -0.4164321023171338 54 41 24
-0.1718487779116949 -0.0025699581631840607 -0.4180705168122444 58 45 28
-0.17206735091778838 -0.002751655174622697 -0.4197102038358717 57 44 28
-0.17228608894411657 -0.002933476662337467 -0.4213511647781839 49 36 20
-0.17270306419922019 -0.003922255681346257 -0.4226607458684698 64 51 31
-0.17294951261697297 -0.004216485494594607 -0.4242564936535953 78 62 39
-0.17317900891142485 -0.004441171191788357 -0.4258821018053147 90 74 52
-0.17335045359268894 -0.004428407553722896 -0.427607980972157 77 61 38
-0.1733560399114772 -0.003737351065113151 -0.4296200031979802 76 60 35
-0.17371282608815883 -0.004480050605726232 -0.4310332279684597 80 63 36
-0.17393404188785266 -0.0046684478055358525 -0.43267998810299674 89 72 43
-0.17355380272326595 -0.0023944689506371353 -0.4353719583314487 106 89 57
-0.1740218825977707 -0.0035912049550030356 -0.4365963175560984 110 94 62
-0.174509908898796 -0.004870547210467424 -0.43778333791284746 126 109 78
-0.17498835918418218 -0.006111578614496113 -0.43898446877325953 120 103 73
-0.17517373950899673 -0.006150611736804826 -0.44070101532059996 113 97 68
-0.17539887104399643 -0.006352155857962671 -0.4423491383565679 103 88 59
-0.17510790682328498 -0.004431867289639568 -0.4449193940464875 94 80 53
-0.17463375996544556 -0.0017546028369468947 -0.44782786528149676 75 63 41
-0.17443609338088886 -0.0002107559985454338 -0.4502516249779207 69 57 40
-0.17399283843169266 0.002347660847456523 -0.4531280045990113 63 52 40
-0.17381273705654463 0.003825839203569284 -0.45553892160953163 52 42 33
-0.17366530103868694 0.005172206683367583 -0.4578985159062676 63 53 42
-0.17343503176229527 0.006863230915788873 -0.4604177315212395 61 52 38
-0.17300499509408612 0.009382660785387367 -0.4633139836103397 52 42 31
-0.17293593050095518 0.010414419946617293 -0.46555507386728234 42 33 24
-0.17299112266631056 0.010934510609462642 -0.46757185573236676 39 30 21
-0.1728225233075814 0.012382570727741307 -0.4700108448352433 30 23 15
-0.17080702318608465 0.03867966673167178 -0.5246156375071408 194 195 197
-0.1709738728197837 0.038782208647380745 -0.5265504666231662 195 196 198
-0.1711173001538262 0.03898457845890099 -0.5285371459064268 195 196 198
-0.20003221184592554 -0.07491685920946789 -0.4909673093083874 87 74 52
-0.20013168418131722 -0.07460124112779212 -0.4928414757895191 93 78 50
-0.20029738907086164 -0.07456626383695635 -0.4945736899829854 93 78 49
-0.20111156971389405 -0.07729337939231302 -0.49487537309607077 85 70 41
-0.2019278119201056 -0.08003261790007199 -0.49516304437276193 87 72 42
-0.20267037660527243 -0.082460808586438 -0.49560539936712994 97 82 52
-0.2030610189491916 -0.08338895291285114 -0.49682715500674557 93 77 50
-0.20310229014656078 -0.0828244759886507 -0.4988324287535021 93 77 52
-0.20340397834026339 -0.08337212870250316 -0.5002549578061393 106 90 66
-0.2036996310397754 -0.08389392829070395 -0.5016912139035643 110 94 67
-0.20398394408476728 -0.08436709174330764 -0.503153437924548 105 88 61
-0.2042000060164882 -0.08454751089814322 -0.5047719948449826 125 110 84
-0.20460961441526732 -0.08555777070520679 -0.5059481389976624 87 75 54
-0.20485402914154496 -0.08585939987799517 -0.5075028891743593 64 51 34
-0.20583663264069876 -0.08933287432572715 -0.5073509520944481 58 45 27
-0.20638916602454685 -0.0909613202880804 -0.5081851378554681 59 45 27
-0.20608253746317554 -0.08889352721161967 -0.5110187177939405 54 38 23
-0.2066963153195525 -0.09078624691117934 -0.5117081383848983 54 36 22
-0.2068444069700039 -0.09067354443202175 -0.5134868646026469 68 50 33
-0.20696540856765985 -0.09044290406344149 -0.515332576810403 68 50 30
-0.2075176090788858 -0.09207282266743172 -0.5161593115343643 88 70 46
-0.20773259431744462 -0.09224727464945384 -0.5177841548225348 142 126 100
-0.20787133089985807 -0.09209136767870929 -0.5195930271983739 94 76 51
-0.20813256497506658 -0.09246450024052626 -0.5211110600473999 68 50 27
-0.20840623389933202 -0.09289119828960915 -0.5225999598997747 91 75 53
-0.20897229809771892 -0.09458522632630863 -0.5233817852434104 69 56 34
-0.209273601147335 -0.09513240978348014 -0.5248018472321717 81 69 46
-0.20977337792490633 -0.09654134948673049 -0.525737678852815 91 79 54
-0.21009269397141367 -0.09716746876788093 -0.5271117404421468 157 144 118
-0.21080044329475922 -0.09948300277755537 -0.5275299863020027 122 109 82
-0.21136608856081915 -0.10118287077801627 -0.5282911448407952 68 56 32
-0.21159934063826003 -0.1014366652981469 -0.5298713378092812 58 42 22
-0.2114808499418976 -0.10015650508646123 -0.5323287244380295 67 46 26
-0.21166624480610471 -0.10019925668625021 -0.5340348841349573 71 46 26
-0.21210851579658213 -0.10136287747127058 -0.5350986517878235 81 58 34
-0.21223522032445133 -0.10114836903324691 -0.5369548881564865 76 54 29
-0.21238185637555232 -0.10101977397506737 -0.5387642734994303 87 65 41
-0.2124292366983807 -0.10045556211245094 -0.54082900730969 99 80 54
-0.21252777731721212 -0.1001136406857494 -0.5427684778972629 111 94 68
-0.21265573969684165 -0.09989923952515128 -0.5446368076820469 97 80 54
-0.21280721339223985 -0.09978673519622083 -0.5464483057259565 87 70 44
-0.21306531829870073 -0.10014143705677891 -0.5479876908034168 79 63 36
-0.2133263254949752 -0.10050855568387984 -0.5495205180914516 93 77 48
-0.21331667152132683 -0.09968464749718373 -0.5517585494510787 111 95 64
-0.2131191028600376 -0.09803106100823766 -0.5544940398501375 133 117 83
-0.21316184385430764 -0.0974327233717884 -0.5566096879663716 128 110 74
-0.21354303724333012 -0.09832511247618006 -0.5578395692582142 123 107 71
-0.21153995468751347 -0.0886939261449039 -0.5653714892942527 112 99 66
-0.2107886779390727 -0.0845756933731165 -0.5696292051881979 85 75 47
-0.2102256128195456 -0.08128172985745798 -0.573407706229388 80 72 50
-0.2096731184137137 -0.07802802335131834 -0.577176389153953 71 63 45
-0.20997666666735532 -0.07855914516231037 -0.5786640636344641 51 43 26
-0.21065861982253337 -0.08076751370207327 -0.5791315420153298 40 31 18
-0.21112089647809404 -0.08200408421717219 -0.5801859004095176 41 33 18
-0.21174609606825937 -0.08396518102252325 -0.5807942586880944 44 35 16
-0.2121249821459842 -0.0848340395577148 -0.5820680343502458 53 42 19
-0.21213351052560453 -0.0840561523272763 -0.5843549442377574 70 56 34
-0.21213317669140447 -0.08323650178579362 -0.5866727765861744 52 36 18
-0.2122352202547244 -0.08287058725136842 -0.5887147164404175 45 29 13
-0.21283290472387284 -0.08471320357767212 -0.589387407825964 57 42 23
-0.2133840269407048 -0.08635019235705621 -0.59018349339821 42 27 7
-0.2137947180587096 -0.08736172637432862 -0.5913667003137681 77 60 42
-0.2142354836051288 -0.08850846985469812 -0.5924634244189264 72 54 32
-0.21487544774810935 -0.09054753747295516 -0.5929964988535832 80 62 37
-0.21522937893222494 -0.0913081558306997 -0.594330841924042 57 43 21
-0.21516801611524627 -0.09020759758088341 -0.5968426680924517 60 44 22
-0.21587389908880372 -0.09254620085720822 -0.597177190905479 78 59 30
-0.21634920628885718 -0.09385255539118906 -0.5981623590395054 85 66 36
-0.21654404500770927 -0.09389973233247152 -0.5999490641549806 90 75 42
-0.2167137901314669 -0.09383311485007689 -0.6018106984160994 111 97 62
-0.21665390739134155 -0.09273158344485918 -0.6043398678370739 128 111 75
-0.21708301111869804 -0.09383046856354428 -0.6054571821231337 139 122 85
-0.21712997410376128 -0.09320683860208323 -0.6076860655055758 145 127 90
-0.21733457803816406 -0.09329267391858623 -0.6094595407117718 132 115 78
-0.2173939717465046 -0.09272158960622426 -0.6116621384571852 127 110 72
-0.217422235292081 -0.09200769990364398 -0.6139623243261432 133 115 77
-0.21717909070736766 -0.09006312412270712 -0.6170726611863271 135 116 79
-0.217337547715505 -0.08993331717547522 -0.6190019840910324 141 123 85
-0.21737282657479093 -0.08924374583500742 -0.6213024460889317 140 123 86
-0.21732313393312525 -0.08816629070038008 -0.6238638674338309 122 107 74
-0.21717065548083386 -0.0866189868498355 -0.626742784691026 116 102 73
-0.21697014277753654 -0.08484947775922018 -0.629777533766972 115 101 73
-0.21714740783458142 -0.08479476751501493 -0.6316795639846029 117 102 72
-0.2171775768346718 -0.084068955687884 -0.6340322913421638 123 108 79
-0.21639720589951333 -0.07964582523132376 -0.6388666817638149 130 114 86
-0.21572453643235318 -0.07570502619880067 -0.6433966752134136 126 111 84
-0.21492322385896073 -0.07028547484945348 -0.6508463764621667 119 111 92
-0.20862187802366455 -0.03689352162129908 -0.6833020096234899 101 89 72
-0.20922006006180197 -0.038716866232574476 -0.6840341794716238 106 94 77
-0.20981286686490852 -0.040517714096273916 -0.6847770790459143 106 93 76
-0.21060040031052943 -0.04321743906554884 -0.684893697019973 103 88 72
-0.2112671375216449 -0.04536427563673465 -0.6853854581517115 114 98 75
-0.21193837970062565 -0.047534749498598705 -0.6858546824868951 133 117 90
-0.21243682966592844 -0.04891022931449915 -0.6868721904188941 88 74 50
-0.21283319532875733 -0.049815303064090294 -0.6882156865577613 61 53 31
-0.21339726982220078 -0.051496804235819066 -0.689013375779834 78 69 42
-0.21409293366312743 -0.05378966318517303 -0.6893767210704311 106 93 69
-0.21461050621311847 -0.055260229018020246 -0.6903134297143272 112 97 72
-0.21523899957495266 -0.05724702559841571 -0.6908814731836841 78 63 39
-0.2159288254333005 -0.059521241853426915 -0.6912400733480357 55 40 23
-0.2164124862495335 -0.06084032040404286 -0.6922715411100201 47 34 18
-0.2164138819499134 -0.05991696394735191 -0.6949000984934626 68 56 41
-0.21681284246131077 -0.06084216646649204 -0.6962121675550597 80 67 50
-0.21723110888941677 -0.061857968627455184 -0.6974579489380599 90 77 60
-0.2176447636911868 -0.06285303391109381 -0.6987170023882934 75 62 44
-0.2187219446191527 -0.06694776684083142 -0.6977378998890535 97 86 63
-0.21918173685022596 -0.0681629823413365 -0.6988282462194663 91 80 57
-0.2195042026047675 -0.06873677140182297 -0.7003815419137491 88 75 51
-0.21973828391892525 -0.0688965198260828 -0.7022362316061918 93 78 55
-0.2199355814417151 -0.06888295212495732 -0.7042191897043361 71 56 35
-0.21997535356314146 -0.06812892996228981 -0.7067464513407161 62 47 28
-0.22008640170902205 -0.06770708921089108 -0.7090355134162901 57 41 24
-0.22042738962105107 -0.06836444109669018 -0.7105347239794289 55 38 23
-0.22085125373401385 -0.06941196121834217 -0.7117458550321122 58 43 24
-0.2211135704755061 -0.06969925399661156 -0.7135176433737198 91 76 51
-0.2215801326787927 -0.07094911480492097 -0.7145766034814878 112 94 64
-0.22191519848732538 -0.07157951185852068 -0.7160937785132765 121 101 67
-0.2224404068098197 -0.07310840439129745 -0.7169405721285669 138 121 81
-0.2229712844834341 -0.07466593110806552 -0.7177621545210217 143 124 83
-0.2239841548538783 -0.07850731191987972 -0.7168666699683414 149 128 90
-0.2246325431917768 -0.08062776914434053 -0.7172522893985587 152 130 90
-0.22520548088139897 -0.08239331216871647 -0.7178993396020257 153 131 90
-0.225654086608253 -0.08357077179787036 -0.7189863520713139 157 137 93
-0.22610272708534807 -0.08474954569522758 -0.7200699852313719 144 126 87
-0.22633564208809603 -0.0849030432458191 -0.7219308814233747 125 111 77
-0.22721656898527867 -0.08814200251592735 -0.7214409445613834 101 87 59
-0.2279413204579882 -0.09064167698853767 -0.7215053041126975 114 98 70
-0.22670880032899163 -0.08380432518416375 -0.7287200745635367 130 112 80
-0.22568607164639104 -0.0779541976771781 -0.7352068545146208 137 121 86
-0.22568339364388834 -0.07696893475710626 -0.7379705715132152 145 129 95
-0.2135610677351799 -0.009566305304883393 -0.8093683819346115 97 86 67
-0.21610623567804435 -0.020796802676437742 -0.8026501792385854 80 71 52
-0.21688902572909352 -0.023526042641365486 -0.8026364651194797 62 53 36
-0.21764542387687363 -0.026131838987207168 -0.8027122092215879 62 53 34
-0.21850772606101374 -0.02925495246375548 -0.8023667670516873 77 66 46
-0.21946322481595354 -0.0328353623697237 -0.8016448648966286 99 87 64
-0.2204010117513121 -0.03633590103889742 -0.8009745804452628 117 103 79
-0.22145584105913796 -0.040411431253882246 -0.7998295626337912 124 109 85
-0.22204478445555262 -0.04222691659944619 -0.800492933951043 115 101 75
-0.2228374493325137 -0.04503735255460997 -0.8003466103316718 99 85 62
-0.2234976464211267 -0.04720635483879257 -0.8007111430967663 70 57 39
-0.224011278340564 -0.04866307303081441 -0.8016482278035231 52 39 22
-0.22447994845210956 -0.04990180039599815 -0.8027594913325126 49 36 16
-0.22446660690601408 -0.04878363703623326 -0.8057944632829193 54 38 16
-0.2249625100065337 -0.050155808280332864 -0.8067962390354045 64 48 25
-0.22547679549770766 -0.05161968142774076 -0.8077195035343915 83 68 44
-0.22605572266671792 -0.05340259725470203 -0.8083763881307446 100 86 60
-0.22666911182059846 -0.05535730355206289 -0.8088864413420058 111 97 71
-0.2271851642040334 -0.056836092901386 -0.8097848797224767 121 105 80
-0.22762705956302598 -0.057951566597616216 -0.8109812902551119 129 113 88
-0.22799887458918963 -0.05872264532025381 -0.8124622718208434 129 113 87
-0.22839829004603698 -0.05963022462944462 -0.8138287309440299 129 113 86
-0.2289078847276328 -0.06108268306251305 -0.8147380881789246 128 113 86
-0.22913725317008293 -0.06115112680547424 -0.8168048890996878 135 120 89
-0.2296456647209879 -0.06259980434850729 -0.8177132924570446 144 130 90
-0.2300578660754371 -0.06357344334886147 -0.8190186968304821 166 152 106
-0.23054269585285775 -0.06490818570292192 -0.8200173282588505 180 165 118
-0.23085177422867045 -0.06537152127019591 -0.8217514669175077 186 169 122
-0.23126125264152525 -0.06633372792383438 -0.8230624089875513 194 176 129
-0.2317943575991519 -0.06791207779298591 -0.8238469752544981 186 167 118
-0.23230637661877934 -0.06938744812501352 -0.8247153434957123 182 162 112
-0.23281999063397046 -0.07087265534181969 -0.8255715752632662 185 164 114
-0.2332856324864725 -0.0721201706513569 -0.826628106610775 189 167 119
-0.23394485186891636 -0.07433697781301427 -0.8268476272806708 172 152 105
-0.23443836478953933 -0.07572786210086394 -0.8277728533350867 151 136 96
-0.2348603041811658 -0.0767617838259057 -0.8290035231460283 129 116 82
-0.23526538421250898 -0.07771204109461605 -0.8303049541854137 126 113 78
-0.2356635056869424 -0.07862808074287275 -0.8316347016394339 139 127 90
-0.23586243732400336 -0.07854320280887028 -0.8338357048008238 143 129 95
-0.23630169814077318 -0.07966652037978925 -0.8349839370274202 147 132 100
-0.2366193352618396 -0.08017802857475193 -0.8366660120962034 149 133 99
-0.23551383245822793 -0.0735090198569339 -0.8446559259628625 149 135 102
-0.23506987452139252 -0.07016492942126953 -0.8497502821768543 141 130 101
-0.2354618980855371 -0.07103922195195306 -0.8511381508190831 124 115 88
-0.23563051226697926 -0.07078302088523389 -0.8535255098322873 111 103 80
-0.23598646127843295 -0.07147428425578198 -0.8550761428367202 103 96 77
-0.23628687940381726 -0.07188390172689299 -0.8568770485669284 76 70 53
-0.23710191107474693 -0.07490732672292594 -0.8563480171416289 67 61 44
-0.23761794213975482 -0.0764155515410456 -0.8571628887512974 60 56 39
-0.23768406412499332 -0.0756349026790713 -0.8600252535811136 82 78 66
-0.23790542890077318 -0.07564237899629037 -0.8621858217414796 106 101 93
-0.23817491837738317 -0.07589402005278384 -0.8641292636649469 122 119 113
-0.23940065027932567 -0.08103093002834447 -0.8616629756123738 137 134 130
-0.24032478130932844 -0.08463547834064591 -0.8605635613920823 148 147 144
-0.24074117959009667 -0.0856465390914754 -0.8618043575135435 157 157 155
-0.24134943799614472 -0.0876423150994379 -0.862147539781029 165 165 165
-0.24150804545038151 -0.08733289995315327 -0.8645869678846432 172 172 172
-0.24250873735716527 -0.09134948058915798 -0.8630753155233957 177 177 177
-0.24331090325295454 -0.09435248904889607 -0.8624772972861267 182 182 182
-0.24388967491239533 -0.09621020510179495 -0.8629208266217252 186 186 186
-0.24505645904405232 -0.09885627728831192 -0.8669272220425837 191 191 191
-0.24497153204840438 -0.09728651294122656 -0.8705355215287296 191 191 191
-0.1523739094456357 0.034666688634561335 -0.3151042024234716 177 177 177
-0.1527831817095791 0.03372116827051839 -0.3164659618821162 176 177 178
-0.15339779858397634 0.031970806443134464 -0.3175847346217907 176 176 179
-0.1538302724572412 0.0309329548692873 -0.318915134074832 176 174 174
-0.15396335053135243 0.031068800714848264 -0.3206004439462607 172 167 164
-0.15441927116752996 0.029938527011935903 -0.3219016317443155 153 147 139
-0.1551077346809334 0.02789439564918697 -0.3229208838896195 133 126 114
-0.15615954466586804 0.024420740251649843 -0.32349504934613027 103 94 83
-0.15661910534603274 0.023272100618025156 -0.3247804407783736 110 102 89
-0.15705962340875715 0.022197670991706345 -0.3260871689618325 125 116 102
-0.1574947986942027 0.02114365674713524 -0.32739874647645756 99 89 73
-0.15787624238127032 0.02030070344731598 -0.32877519938023975 82 71 53
-0.15838009675738798 0.018974929884133587 -0.32999829363104644 73 62 43
-0.15882702754862466 0.017872728871999366 -0.3312900424045159 58 48 30
-0.1590865461565866 0.017509487682942373 -0.33281590226643193 47 38 22
-0.15935744875805521 0.017101557271260087 -0.3343280950119436 44 34 20
-0.1594134057861011 0.017543176784633116 -0.3361144742278477 50 38 23
-0.1594967586283984 0.017877753219097695 -0.33786937160575564 50 39 26
-0.15956499649945033 0.018273275757211438 -0.3396469294715067 53 44 33
-0.159507558269803 0.019167559355485073 -0.3415905172449458 86 79 71
-0.15901995969848123 0.02176772642433547 -0.34409885333039336 123 120 116
-0.1586618396434668 0.023858674115176795 -0.346449119586275 158 157 156
-0.15814465156045135 0.026583929507955295 -0.34901801326495974 175 174 176
-0.15899386077863306 0.03420465426494698 -0.37870325853847564 107 101 86
-0.1599945875134252 0.030892632105712886 -0.3792297166073261 109 100 84
-0.16095169969209305 0.027752064065630563 -0.3798092090377993 114 104 85
-0.1614249808387685 0.02655084975210402 -0.38108173470864076 117 106 84
-0.16216084607771122 0.024293807426950365 -0.38196887539671565 121 108 82
-0.16343208501898399 0.019882105314540044 -0.3820647509081138 127 113 88
-0.16408327114487342 0.017959933151041926 -0.38306042704455334 100 90 68
-0.16488491410231876 0.015430291401071758 -0.3838282880837871 67 58 39
-0.16520411150986314 0.014841591391504733 -0.3853072151242741 110 95 74
-0.16600653444578853 0.012304946571219444 -0.386063092797278 125 108 78
-0.16662124479487322 0.010522907344916982 -0.38709399127598737 126 111 80
-0.16740541926351912 0.00805524033424139 -0.3878643249466009 115 100 73
-0.1678924993407539 0.006785075191305265 -0.3890788522838268 90 76 53
-0.16870094394177806 0.00421508813191937 -0.38980030213136824 59 45 28
-0.1695121200899882 0.0016313987141831632 -0.3905101216126345 87 73 55
-0.1692891089116443 0.0032306371404384887 -0.3928065915877671 123 108 82
-0.16915813482537773 0.004460047169579345 -0.3949686683418968 120 104 77
-0.1694012018898064 0.0041760198586889286 -0.39655529042337817 115 100 71
-0.16937563269813968 0.004981817786571099 -0.3985632622470797 101 87 61
-0.16965619680367947 0.004547156537043295 -0.40009523932768476 80 65 44
-0.17012402314373568 0.0033522480522271136 -0.4013319675730183 66 53 34
-0.16992273565745236 0.0048755263827591905 -0.40362847742750557 81 68 46
-0.1703704408501377 0.003762618944159385 -0.40489780779408946 134 116 90
-0.17073308929745978 0.0029950983761973665 -0.4063014496970999 158 141 104
-0.1711299811701436 0.0020878915672306875 -0.40764923801494374 160 142 104
-0.17163831408976699 0.000726159575431165 -0.4088154444311035 93 78 49
-0.17212909081056052 -0.0005650510220731597 -0.4100072196312417 63 50 29
-0.17257901329910907 -0.0016905365480966161 -0.41126302981358914 70 58 37
-0.17279834480881268 -0.0018752622167976934 -0.41289531559935594 81 68 49
-0.17328445769400838 -0.003149460801531112 -0.41408905614942576 76 63 46
-0.17337128897640097 -0.0027921038616558758 -0.41594190492533384 69 56 37
-0.17302871770218703 -0.0006765878455006064 -0.4185134570218196 69 56 39
-0.17322121481107683 -0.000748054133772727 -0.42020015213736656 63 50 33
-0.17344070995156258 -0.0009294266573869753 -0.4218434407059502 64 51 34
-0.17368035385112346 -0.001192850944598492 -0.42345425566661943 71 59 39
-0.174179612334084 -0.002520964157127381 -0.424625739302225 75 61 38
-0.17441227338317494 -0.002755569854331383 -0.426248880150533 80 64 43
