ply
format ascii 1.0
element vertex 829
property float x
property float y
property float z
property float nx
property float ny
property float nz
property uchar diffuse_red
property uchar diffuse_green
property uchar diffuse_blue
property uchar class
property uchar detection
end_header
-0.1658 -0.1568 -0.8582 -0.285 -0.881 0.378 160 158 160 0 0
-0.1660 -0.1575 -0.8597 -0.253 -0.881 0.400 171 169 172 0 0
-0.1672 -0.1592 -0.8710 0.440 -0.276 0.855 188 188 186 0 0
-0.0962 -0.0325 -0.2690 -0.313 -0.808 0.499 182 163 121 0 0
-0.0964 -0.0332 -0.2704 -0.313 -0.808 0.499 154 133 97 0 0
-0.0966 -0.0336 -0.2718 -0.369 -0.809 0.456 145 129 100 0 0
-0.0980 -0.0372 -0.2798 -0.358 -0.816 0.454 56 45 25 0 0
-0.0991 -0.0399 -0.2867 -0.050 -0.873 0.484 211 204 183 0 0
-0.0993 -0.0406 -0.2880 -0.050 -0.873 0.484 241 233 204 0 0
-0.1002 -0.0424 -0.2950 -0.092 -0.918 0.385 58 43 30 0 0
-0.1012 -0.0455 -0.2988 -0.420 -0.802 0.424 109 97 79 0 0
-0.1016 -0.0466 -0.3015 -0.253 -0.813 0.525 71 57 44 0 0
-0.1018 -0.0467 -0.3029 -0.236 -0.786 0.571 70 56 43 0 0
-0.1022 -0.0483 -0.3040 -0.414 -0.795 0.443 149 135 120 0 0
-0.1028 -0.0500 -0.3081 -0.138 -0.764 0.630 78 66 53 0 0
-0.1030 -0.0504 -0.3095 -0.158 -0.826 0.541 67 53 41 0 0
-0.1042 -0.0537 -0.3161 -0.205 -0.894 0.399 89 81 65 0 0
-0.1045 -0.0545 -0.3174 -0.315 -0.872 0.376 79 69 52 0 0
-0.1047 -0.0550 -0.3188 -0.315 -0.872 0.376 60 49 30 0 0
-0.1055 -0.0554 -0.3279 0.017 -0.808 0.589 75 62 53 0 0
-0.1058 -0.0564 -0.3291 -0.015 -0.779 0.627 33 22 14 0 0
-0.1063 -0.0577 -0.3318 -0.019 -0.881 0.473 62 52 40 0 0
-0.1064 -0.0580 -0.3332 -0.095 -0.928 0.360 61 49 34 0 0
-0.1067 -0.0587 -0.3345 -0.035 -0.867 0.497 52 40 26 0 0
-0.1072 -0.0596 -0.3389 -0.381 -0.716 0.585 81 69 50 0 0
-0.1083 -0.0620 -0.3474 -0.238 -0.826 0.511 131 122 109 0 0
-0.1092 -0.0587 -0.3673 0.089 -0.892 0.443 26 18 10 0 0
-0.1149 -0.0844 -0.3723 0.371 -0.300 0.879 130 120 102 0 0
-0.1157 -0.0881 -0.3725 0.160 -0.265 0.951 125 110 88 0 0
-0.1207 -0.1072 -0.3855 -0.280 -0.954 -0.107 80 67 48 0 0
-0.1207 -0.1055 -0.3908 -0.240 -0.940 -0.243 91 77 54 0 0
-0.1207 -0.1002 -0.4038 -0.445 -0.885 -0.134 104 89 64 0 0
-0.1209 -0.0951 -0.4202 -0.127 -0.990 0.062 110 95 70 0 0
-0.1210 -0.0951 -0.4218 -0.234 -0.971 0.055 76 62 36 0 0
-0.1211 -0.0948 -0.4236 -0.216 -0.974 0.073 102 87 64 0 0
-0.1213 -0.0954 -0.4249 -0.227 -0.957 0.180 65 50 27 0 0
-0.1223 -0.0957 -0.4377 -0.416 -0.814 0.404 72 54 34 0 0
-0.1230 -0.0974 -0.4419 -0.416 -0.814 0.404 65 47 29 0 0
-0.1238 -0.0975 -0.4516 -0.076 -0.982 0.173 78 61 42 0 0
-0.1241 -0.0981 -0.4546 -0.117 -0.972 0.203 78 62 40 0 0
-0.1243 -0.0984 -0.4561 -0.117 -0.972 0.203 108 93 68 0 0
-0.1269 -0.1006 -0.4833 -0.133 -0.875 0.466 129 113 85 0 0
-0.1271 -0.1013 -0.4846 -0.133 -0.875 0.466 106 92 64 0 0
-0.1273 -0.1019 -0.4860 -0.239 -0.785 0.571 88 76 50 0 0
-0.1276 -0.1027 -0.4873 -0.239 -0.785 0.571 128 116 93 0 0
-0.1278 -0.1031 -0.4888 -0.276 -0.775 0.568 78 66 43 0 0
-0.1295 -0.1088 -0.4961 0.295 -0.761 0.577 108 94 66 0 0
-0.1300 -0.1104 -0.4969 0.095 -0.833 0.544 80 67 41 0 0
-0.1310 -0.1126 -0.5043 -0.260 -0.922 0.287 69 57 31 0 0
-0.1312 -0.1129 -0.5058 -0.277 -0.886 0.371 69 57 32 0 0
-0.1315 -0.1136 -0.5088 -0.287 -0.864 0.414 65 49 31 0 0
-0.1318 -0.1144 -0.5101 -0.165 -0.892 0.421 65 50 30 0 0
-0.1321 -0.1147 -0.5133 -0.235 -0.929 0.286 62 48 27 0 0
-0.1324 -0.1158 -0.5145 -0.162 -0.870 0.467 65 51 30 0 0
-0.1341 -0.1172 -0.5325 0.389 -0.884 -0.258 70 55 36 0 0
-0.1395 -0.1124 -0.6153 -0.050 -0.970 0.240 87 75 58 0 0
-0.1397 -0.1128 -0.6169 -0.050 -0.970 0.240 75 63 45 0 0
-0.1396 -0.1113 -0.6197 -0.057 -0.994 -0.092 76 64 45 0 0
-0.1366 -0.0719 -0.6875 -0.180 -0.974 -0.137 8 7 5 0 0
-0.1379 -0.0762 -0.6925 -0.302 -0.931 0.207 8 7 5 0 0
-0.1436 -0.1001 -0.7015 -0.332 -0.938 0.097 33 28 23 0 0
-0.1506 -0.1286 -0.7159 -0.484 -0.718 0.499 142 127 97 0 0
-0.1508 -0.1290 -0.7176 -0.432 -0.851 0.298 96 85 59 0 0
-0.1510 -0.1291 -0.7195 -0.177 -0.912 0.369 89 77 49 0 0
-0.1512 -0.1296 -0.7211 -0.187 -0.903 0.386 106 88 58 0 0
-0.1519 -0.1299 -0.7287 -0.087 -0.990 -0.113 132 114 78 0 0
-0.1504 -0.1127 -0.7560 -0.362 -0.916 -0.174 97 85 57 0 0
-0.1503 -0.1079 -0.7679 -0.310 -0.894 -0.323 82 70 44 0 0
-0.1503 -0.1067 -0.7709 -0.433 -0.877 -0.208 84 73 45 0 0
-0.1577 -0.1271 -0.8123 0.259 -0.851 0.458 165 148 103 0 0
-0.1581 -0.1285 -0.8132 -0.302 -0.892 0.337 186 168 123 0 0
-0.1584 -0.1294 -0.8145 -0.577 -0.654 0.489 169 151 110 0 0
-0.1588 -0.1312 -0.8151 -0.220 -0.528 0.820 135 118 82 0 0
-0.1633 -0.1413 -0.8463 0.023 -0.890 0.456 119 104 71 0 0
-0.1634 -0.1407 -0.8490 -0.301 -0.943 0.142 121 107 74 0 0
-0.1676 -0.1570 -0.8596 -0.253 -0.881 0.400 172 170 173 0 0
-0.1691 -0.1605 -0.8693 0.576 -0.323 0.751 188 188 186 0 0
-0.0977 -0.0325 -0.2689 -0.046 -0.908 0.416 173 154 120 0 0
-0.0978 -0.0327 -0.2703 -0.219 -0.893 0.392 130 110 84 0 0
-0.0980 -0.0329 -0.2718 -0.311 -0.894 0.324 89 78 57 0 0
-0.1025 -0.0447 -0.2988 -0.420 -0.802 0.424 104 89 69 0 0
-0.1030 -0.0461 -0.3014 -0.253 -0.813 0.525 86 72 59 0 0
-0.1033 -0.0469 -0.3027 -0.253 -0.813 0.525 85 71 58 0 0
-0.1035 -0.0476 -0.3040 -0.253 -0.813 0.525 146 133 118 0 0
-0.1037 -0.0480 -0.3054 -0.246 -0.927 0.283 84 72 54 0 0
-0.1039 -0.0485 -0.3068 -0.323 -0.897 0.300 62 51 35 0 0
-0.1057 -0.0535 -0.3160 -0.340 -0.863 0.373 63 54 39 0 0
-0.1060 -0.0543 -0.3173 -0.192 -0.817 0.543 106 96 80 0 0
-0.1062 -0.0548 -0.3187 -0.116 -0.830 0.545 78 66 48 0 0
-0.1070 -0.0554 -0.3277 0.010 -0.830 0.558 82 70 58 0 0
-0.1079 -0.0579 -0.3331 -0.169 -0.938 0.302 70 58 45 0 0
-0.1081 -0.0583 -0.3345 -0.259 -0.884 0.389 60 48 34 0 0
-0.1083 -0.0589 -0.3358 -0.259 -0.884 0.389 69 54 41 0 0
-0.1086 -0.0590 -0.3389 -0.205 -0.832 0.516 95 82 64 0 0
-0.1091 -0.0604 -0.3415 -0.254 -0.930 0.264 56 48 32 0 0
-0.1100 -0.0607 -0.3523 -0.573 -0.780 0.251 26 17 10 0 0
-0.1102 -0.0575 -0.3628 -0.608 -0.772 0.185 28 19 13 0 0
-0.1105 -0.0577 -0.3674 -0.140 -0.744 0.654 28 21 13 0 0
-0.1109 -0.0587 -0.3687 -0.140 -0.744 0.654 38 33 21 0 0
-0.1112 -0.0598 -0.3699 -0.063 -0.835 0.547 62 55 46 0 0
-0.1131 -0.0686 -0.3715 0.335 -0.150 0.930 103 94 85 0 0
-0.1166 -0.0851 -0.3718 0.371 -0.300 0.879 127 114 97 0 0
-0.1172 -0.0880 -0.3723 0.222 -0.450 0.865 125 109 86 0 0
-0.1224 -0.1087 -0.3847 -0.444 -0.597 0.668 75 62 43 0 0
-0.1222 -0.1048 -0.3924 -0.361 -0.888 -0.286 90 75 50 0 0
-0.1222 -0.1002 -0.4036 -0.398 -0.905 -0.153 101 86 63 0 0
-0.1221 -0.0941 -0.4188 -0.054 -0.990 0.133 99 84 63 0 0
-0.1222 -0.0943 -0.4203 -0.054 -0.990 0.133 110 95 72 0 0
-0.1224 -0.0943 -0.4219 -0.344 -0.914 0.215 97 83 57 0 0
-0.1225 -0.0944 -0.4235 -0.168 -0.977 0.132 119 103 80 0 0
-0.1226 -0.0944 -0.4251 -0.298 -0.953 0.052 91 75 52 0 0
-0.1233 -0.0945 -0.4331 -0.209 -0.938 0.277 53 37 21 0 0
-0.1234 -0.0948 -0.4346 -0.377 -0.920 0.106 60 41 27 0 0
-0.1236 -0.0950 -0.4362 -0.152 -0.963 0.224 55 36 21 0 0
-0.1245 -0.0968 -0.4435 -0.115 -0.910 0.399 68 50 30 0 0
-0.1246 -0.0963 -0.4453 -0.279 -0.935 0.220 67 48 30 0 0
-0.1248 -0.0962 -0.4487 -0.211 -0.903 0.374 81 63 44 0 0
-0.1252 -0.0970 -0.4516 -0.296 -0.918 0.262 63 45 30 0 0
-0.1254 -0.0972 -0.4531 -0.291 -0.893 0.344 64 47 30 0 0
-0.1256 -0.0975 -0.4546 -0.331 -0.902 0.275 66 49 31 0 0
-0.1257 -0.0979 -0.4561 -0.331 -0.902 0.275 85 70 47 0 0
-0.1260 -0.0987 -0.4574 -0.175 -0.915 0.363 66 51 30 0 0
-0.1263 -0.0997 -0.4586 0.017 -0.876 0.482 85 70 51 0 0
-0.1262 -0.0937 -0.4730 -0.344 -0.909 -0.233 50 38 26 0 0
-0.1263 -0.0937 -0.4746 -0.119 -0.991 0.065 37 27 18 0 0
-0.1291 -0.1022 -0.4873 -0.239 -0.785 0.571 129 118 97 0 0
-0.1296 -0.1041 -0.4897 -0.188 -0.893 0.409 80 68 48 0 0
-0.1298 -0.1045 -0.4912 -0.167 -0.971 0.170 75 60 38 0 0
-0.1302 -0.1058 -0.4923 -0.271 -0.602 0.751 152 137 109 0 0
-0.1315 -0.1103 -0.4967 -0.113 -0.702 0.703 63 48 26 0 0
-0.1316 -0.1100 -0.4985 0.016 -0.892 0.451 75 63 39 0 0
-0.1318 -0.1108 -0.4998 -0.265 -0.829 0.493 76 63 45 0 0
-0.1320 -0.1111 -0.5014 -0.348 -0.867 0.357 71 58 39 0 0
-0.1322 -0.1118 -0.5027 -0.260 -0.922 0.287 60 48 27 0 0
-0.1324 -0.1122 -0.5042 -0.260 -0.922 0.287 69 57 35 0 0
-0.1327 -0.1129 -0.5055 -0.181 -0.845 0.503 68 56 35 0 0
-0.1328 -0.1131 -0.5071 -0.102 -0.846 0.523 52 39 23 0 0
-0.1333 -0.1141 -0.5100 -0.165 -0.892 0.421 49 35 21 0 0
-0.1336 -0.1144 -0.5132 -0.224 -0.899 0.375 50 37 22 0 0
-0.1355 -0.1185 -0.5264 -0.412 -0.911 -0.011 57 41 27 0 0
-0.1357 -0.1169 -0.5341 0.243 -0.960 -0.137 79 63 42 0 0
-0.1358 -0.1166 -0.5360 0.243 -0.960 -0.137 74 58 37 0 0
-0.1359 -0.1161 -0.5380 0.334 -0.936 -0.110 78 62 40 0 0
-0.1386 -0.1091 -0.5915 0.166 -0.942 0.292 88 76 56 0 0
-0.1408 -0.1127 -0.6111 0.036 -0.997 -0.071 81 69 50 0 0
-0.1410 -0.1119 -0.6153 -0.468 -0.869 0.163 75 63 45 0 0
-0.1410 -0.1112 -0.6176 -0.357 -0.932 -0.054 70 57 39 0 0
-0.1412 -0.1110 -0.6195 -0.524 -0.849 0.074 76 63 44 0 0
-0.1378 -0.0810 -0.6557 -0.452 -0.756 -0.473 25 20 15 0 0
-0.1394 -0.0806 -0.6773 -0.119 -0.974 0.193 9 8 6 0 0
-0.1394 -0.0800 -0.6797 -0.162 -0.890 0.426 8 7 5 0 0
-0.1390 -0.0725 -0.6946 -0.309 -0.865 0.396 8 7 5 0 0
-0.1399 -0.0764 -0.6959 -0.082 -0.971 0.224 9 8 6 0 0
-0.1402 -0.0772 -0.6973 -0.116 -0.714 0.691 10 9 7 0 0
-0.1405 -0.0780 -0.6988 -0.068 -0.837 0.543 9 8 7 0 0
-0.1522 -0.1284 -0.7157 -0.483 -0.735 0.476 121 107 80 0 0
-0.1524 -0.1285 -0.7176 -0.058 -0.958 0.281 93 82 60 0 0
-0.1526 -0.1287 -0.7194 -0.177 -0.912 0.369 84 71 46 0 0
-0.1528 -0.1292 -0.7210 -0.187 -0.903 0.386 100 82 54 0 0
-0.1535 -0.1301 -0.7282 -0.379 -0.906 -0.190 133 114 79 0 0
-0.1517 -0.1078 -0.7634 0.098 -0.911 -0.400 79 67 41 0 0
-0.1519 -0.1085 -0.7650 -0.305 -0.870 -0.387 77 65 39 0 0
-0.1520 -0.1079 -0.7674 -0.304 -0.865 -0.398 79 68 41 0 0
-0.1597 -0.1278 -0.8133 -0.376 -0.826 0.419 150 136 98 0 0
-0.1600 -0.1293 -0.8142 -0.188 -0.521 0.833 127 115 80 0 0
-0.1630 -0.1365 -0.8332 -0.195 -0.811 0.552 96 80 47 0 0
-0.0966 -0.0234 -0.2589 -0.478 -0.874 0.092 48 35 25 0 0
-0.0990 -0.0313 -0.2690 -0.389 -0.769 0.507 156 141 107 0 0
-0.0993 -0.0323 -0.2703 -0.379 -0.849 0.368 137 122 93 0 0
-0.1014 -0.0368 -0.2856 -0.144 -0.981 0.129 202 195 173 0 0
-0.1031 -0.0426 -0.2916 -0.194 -0.836 0.513 74 61 43 0 0
-0.1032 -0.0419 -0.2948 -0.394 -0.857 0.331 81 66 48 0 0
-0.1049 -0.0467 -0.3041 -0.147 -0.914 0.377 153 140 125 0 0
-0.1052 -0.0476 -0.3054 -0.144 -0.892 0.428 63 52 35 0 0
-0.1054 -0.0482 -0.3067 -0.144 -0.892 0.428 54 44 28 0 0
-0.1057 -0.0491 -0.3080 -0.261 -0.829 0.494 74 62 49 0 0
-0.1064 -0.0515 -0.3103 -0.166 -0.940 0.298 67 52 36 0 0
-0.1065 -0.0519 -0.3117 -0.166 -0.940 0.298 74 61 46 0 0
-0.1071 -0.0528 -0.3160 -0.294 -0.927 0.233 36 26 14 0 0
-0.1074 -0.0537 -0.3173 -0.386 -0.835 0.393 55 44 31 0 0
-0.1076 -0.0545 -0.3186 -0.274 -0.797 0.539 89 78 63 0 0
-0.1078 -0.0547 -0.3201 0.088 -0.907 0.413 105 95 79 0 0
-0.1096 -0.0588 -0.3326 -0.096 -0.811 0.578 94 82 69 0 0
-0.1099 -0.0597 -0.3338 -0.096 -0.811 0.578 56 44 30 0 0
-0.1100 -0.0599 -0.3353 -0.263 -0.914 0.310 57 41 29 0 0
-0.1103 -0.0606 -0.3366 -0.229 -0.913 0.339 60 44 30 0 0
-0.1105 -0.0602 -0.3398 -0.483 -0.824 0.296 53 41 26 0 0
-0.1118 -0.0622 -0.3516 0.186 -0.723 0.665 27 18 11 0 0
-0.1114 -0.0565 -0.3613 -0.488 -0.869 -0.081 27 18 13 0 0
-0.1115 -0.0565 -0.3629 -0.608 -0.772 0.185 27 18 12 0 0
-0.1147 -0.0689 -0.3711 0.057 -0.049 0.997 106 97 88 0 0
-0.1154 -0.0723 -0.3715 0.210 -0.030 0.977 108 100 90 0 0
-0.1228 -0.1059 -0.3778 -0.565 -0.737 0.372 45 30 14 0 0
-0.1238 -0.1082 -0.3847 -0.512 -0.575 0.638 89 76 57 0 0
-0.1235 -0.1046 -0.3907 -0.443 -0.876 -0.192 89 75 53 0 0
-0.1236 -0.1042 -0.3924 -0.485 -0.856 -0.179 90 76 51 0 0
-0.1235 -0.0999 -0.4019 -0.509 -0.851 -0.131 111 97 75 0 0
-0.1235 -0.0936 -0.4188 -0.303 -0.944 0.132 75 61 42 0 0
-0.1236 -0.0936 -0.4204 -0.407 -0.862 0.301 83 70 46 0 0
-0.1239 -0.0945 -0.4216 -0.260 -0.919 0.298 83 70 45 0 0
-0.1249 -0.0944 -0.4346 -0.152 -0.963 0.224 53 35 20 0 0
-0.1251 -0.0947 -0.4360 -0.152 -0.963 0.224 41 22 9 0 0
-0.1257 -0.0954 -0.4422 -0.261 -0.954 0.149 68 51 32 0 0
-0.1259 -0.0956 -0.4438 -0.342 -0.902 0.264 64 46 27 0 0
-0.1260 -0.0959 -0.4453 -0.342 -0.902 0.264 64 46 25 0 0
-0.1262 -0.0962 -0.4468 -0.279 -0.935 0.220 78 60 40 0 0
-0.1272 -0.0975 -0.4560 -0.474 -0.809 0.348 73 57 37 0 0
-0.1274 -0.0978 -0.4575 -0.445 -0.813 0.376 69 54 33 0 0
-0.1277 -0.0928 -0.4748 0.010 -0.895 0.446 32 21 14 0 0
-0.1292 -0.0984 -0.4788 -0.133 -0.924 0.360 147 133 104 0 0
-0.1294 -0.0989 -0.4803 -0.125 -0.935 0.333 138 125 91 0 0
-0.1297 -0.0997 -0.4815 -0.158 -0.884 0.439 129 116 83 0 0
-0.1304 -0.1027 -0.4835 -0.183 -0.766 0.616 96 84 57 0 0
-0.1311 -0.1046 -0.4875 -0.285 -0.859 0.425 113 101 80 0 0
-0.1332 -0.1109 -0.4978 0.006 -0.941 0.339 69 57 36 0 0
-0.1361 -0.1181 -0.5161 -0.123 -0.857 0.501 54 38 23 0 0
-0.1363 -0.1185 -0.5176 -0.148 -0.902 0.405 54 37 22 0 0
-0.1374 -0.1177 -0.5334 -0.058 -0.998 0.013 85 68 46 0 0
-0.1374 -0.1169 -0.5355 -0.294 -0.947 0.128 103 86 63 0 0
-0.1376 -0.1173 -0.5370 -0.105 -0.986 0.127 94 78 54 0 0
-0.1378 -0.1174 -0.5387 0.080 -0.982 0.172 87 70 47 0 0
-0.1379 -0.1172 -0.5405 0.046 -0.997 0.062 91 75 53 0 0
-0.1387 -0.1132 -0.5620 0.408 -0.903 -0.134 46 38 28 0 0
-0.1404 -0.1099 -0.5925 -0.015 -0.989 0.150 103 88 63 0 0
-0.1406 -0.1102 -0.5942 -0.140 -0.979 0.148 80 65 39 0 0
-0.1424 -0.1122 -0.6111 -0.436 -0.899 -0.037 95 83 64 0 0
-0.1425 -0.1112 -0.6154 -0.405 -0.914 -0.000 73 60 41 0 0
-0.1425 -0.1106 -0.6176 -0.406 -0.910 -0.085 73 60 41 0 0
-0.1431 -0.1117 -0.6224 -0.488 -0.841 0.232 76 63 44 0 0
-0.1386 -0.0715 -0.6693 -0.486 -0.754 0.442 14 10 8 0 0
-0.1388 -0.0723 -0.6707 -0.687 -0.648 0.329 15 11 10 0 0
-0.1395 -0.0759 -0.6703 -0.567 -0.751 0.338 16 12 11 0 0
-0.1421 -0.0774 -0.6988 -0.299 -0.781 0.548 12 10 9 0 0
-0.1473 -0.1010 -0.7040 0.098 -0.449 0.888 49 40 35 0 0
-0.1520 -0.1213 -0.7108 -0.251 -0.772 0.585 145 125 92 0 0
-0.1535 -0.1269 -0.7144 -0.296 -0.768 0.568 128 108 75 0 0
-0.1537 -0.1277 -0.7158 -0.387 -0.759 0.524 98 85 59 0 0
-0.1539 -0.1280 -0.7176 -0.298 -0.905 0.304 78 69 47 0 0
-0.1541 -0.1284 -0.7193 -0.177 -0.912 0.369 79 66 44 0 0
-0.1544 -0.1288 -0.7209 -0.187 -0.903 0.386 90 73 47 0 0
-0.1547 -0.1291 -0.7246 -0.238 -0.914 0.329 114 95 63 0 0
-0.1544 -0.1198 -0.7456 -0.573 -0.746 -0.341 87 75 48 0 0
-0.1544 -0.1187 -0.7485 -0.534 -0.784 -0.318 79 69 42 0 0
-0.1545 -0.1178 -0.7512 -0.483 -0.707 0.516 77 68 41 0 0
-0.1539 -0.1125 -0.7573 0.237 -0.947 -0.217 79 68 42 0 0
-0.1536 -0.1076 -0.7673 -0.168 -0.885 -0.435 84 72 45 0 0
-0.1546 -0.1074 -0.7798 -0.385 -0.818 0.428 58 44 27 0 0
-0.1621 -0.1305 -0.8148 0.086 -0.580 0.810 84 72 44 0 0
-0.1624 -0.1319 -0.8156 0.109 -0.589 0.801 75 60 35 0 0
-0.1628 -0.1337 -0.8162 -0.357 -0.698 0.621 72 52 29 0 0
-0.1631 -0.1342 -0.8179 -0.591 -0.807 0.001 82 62 37 0 0
-0.1646 -0.1360 -0.8331 -0.195 -0.811 0.552 98 80 48 0 0
-0.1651 -0.1367 -0.8368 -0.266 -0.874 0.407 94 79 50 0 0
-0.1653 -0.1376 -0.8380 -0.272 -0.767 0.581 80 67 40 0 0
-0.1656 -0.1386 -0.8393 -0.207 -0.780 0.591 95 81 56 0 0
-0.1674 -0.1393 -0.8600 -0.419 -0.841 0.342 72 67 50 0 0
-0.1676 -0.1398 -0.8617 -0.420 -0.837 0.351 65 63 51 0 0
-0.1008 -0.0318 -0.2717 -0.311 -0.894 0.324 115 104 87 0 0
-0.1022 -0.0355 -0.2798 -0.181 -0.895 0.408 105 93 74 0 0
-0.1026 -0.0366 -0.2825 -0.239 -0.843 0.481 92 81 64 0 0
-0.1037 -0.0391 -0.2894 -0.143 -0.684 0.715 127 113 87 0 0
-0.1041 -0.0404 -0.2905 -0.340 -0.771 0.538 81 66 43 0 0
-0.1052 -0.0430 -0.2989 -0.470 -0.740 0.481 91 78 53 0 0
-0.1061 -0.0459 -0.3026 -0.253 -0.813 0.525 113 101 88 0 0
-0.1063 -0.0464 -0.3040 -0.147 -0.914 0.377 122 110 96 0 0
-0.1066 -0.0473 -0.3053 -0.144 -0.892 0.428 48 38 20 0 0
-0.1068 -0.0477 -0.3067 -0.097 -0.948 0.302 62 53 39 0 0
-0.1071 -0.0486 -0.3079 -0.261 -0.829 0.494 100 89 79 0 0
-0.1077 -0.0505 -0.3104 -0.318 -0.848 0.423 70 57 41 0 0
-0.1083 -0.0521 -0.3146 -0.294 -0.927 0.233 65 55 39 0 0
-0.1085 -0.0523 -0.3160 -0.456 -0.853 0.255 49 38 23 0 0
-0.1087 -0.0529 -0.3173 -0.340 -0.863 0.373 41 29 17 0 0
-0.1096 -0.0551 -0.3228 -0.277 -0.918 0.285 46 38 22 0 0
-0.1101 -0.0559 -0.3271 -0.029 -0.929 0.368 60 47 32 0 0
-0.1116 -0.0603 -0.3350 -0.136 -0.874 0.467 60 43 32 0 0
-0.1120 -0.0589 -0.3432 -0.411 -0.833 0.371 46 37 23 0 0
-0.1121 -0.0590 -0.3447 -0.490 -0.733 0.472 68 59 43 0 0
-0.1125 -0.0602 -0.3458 0.113 -0.915 0.388 134 126 112 0 0
-0.1130 -0.0614 -0.3501 -0.371 -0.635 0.678 30 21 14 0 0
-0.1130 -0.0561 -0.3628 -0.125 -0.970 0.210 27 18 13 0 0
-0.1131 -0.0563 -0.3643 -0.118 -0.991 0.059 24 17 11 0 0
-0.1196 -0.0855 -0.3713 0.308 -0.243 0.920 110 96 79 0 0
-0.1251 -0.1071 -0.3849 -0.616 -0.546 0.567 90 77 58 0 0
-0.1250 -0.0937 -0.4185 -0.169 -0.984 0.063 73 61 41 0 0
-0.1253 -0.0938 -0.4217 -0.205 -0.951 0.233 78 66 45 0 0
-0.1264 -0.0941 -0.4344 -0.152 -0.963 0.224 55 37 23 0 0
-0.1284 -0.0960 -0.4548 -0.380 -0.861 0.338 49 33 19 0 0
-0.1284 -0.0915 -0.4668 -0.294 -0.938 0.183 77 65 48 0 0
-0.1286 -0.0921 -0.4682 -0.187 -0.781 0.596 40 29 16 0 0
-0.1292 -0.0934 -0.4726 -0.417 -0.726 0.547 53 40 31 0 0
-0.1307 -0.0980 -0.4787 -0.479 -0.813 0.331 145 129 99 0 0
-0.1309 -0.0985 -0.4802 -0.479 -0.813 0.331 159 145 113 0 0
-0.1322 -0.1034 -0.4845 -0.261 -0.757 0.600 152 145 115 0 0
-0.1328 -0.1047 -0.4889 -0.394 -0.779 0.487 89 77 53 0 0
-0.1331 -0.1054 -0.4902 -0.394 -0.779 0.487 106 91 68 0 0
-0.1335 -0.1068 -0.4929 -0.074 -0.811 0.580 100 85 63 0 0
-0.1338 -0.1076 -0.4942 -0.074 -0.811 0.580 99 84 61 0 0
-0.1350 -0.1113 -0.4991 0.033 -0.899 0.436 50 40 25 0 0
-0.1364 -0.1135 -0.5114 -0.143 -0.893 0.426 38 28 19 0 0
-0.1390 -0.1169 -0.5352 0.046 -0.997 0.062 104 88 60 0 0
-0.1393 -0.1172 -0.5385 0.046 -0.997 0.062 86 68 42 0 0
-0.1394 -0.1173 -0.5402 0.046 -0.997 0.062 107 87 61 0 0
-0.1397 -0.1164 -0.5459 0.285 -0.955 -0.077 92 80 54 0 0
-0.1416 -0.1088 -0.5892 -0.229 -0.964 0.132 89 74 54 0 0
-0.1418 -0.1093 -0.5907 -0.221 -0.914 0.340 76 61 39 0 0
-0.1429 -0.1126 -0.5960 -0.102 -0.984 0.147 98 86 62 0 0
-0.1430 -0.1128 -0.5977 -0.102 -0.984 0.147 74 62 40 0 0
-0.1437 -0.1118 -0.6092 -0.211 -0.973 0.094 90 76 52 0 0
-0.1439 -0.1119 -0.6109 -0.211 -0.973 0.094 88 75 55 0 0
-0.1412 -0.0757 -0.6700 -0.638 -0.690 0.341 17 13 12 0 0
-0.1434 -0.0761 -0.6973 -0.206 -0.880 0.429 16 12 11 0 0
-0.1441 -0.0785 -0.6996 -0.179 -0.763 0.621 18 14 13 0 0
-0.1444 -0.0797 -0.7008 -0.258 -0.937 0.235 19 15 14 0 0
-0.1447 -0.0802 -0.7024 -0.422 -0.679 0.600 18 14 12 0 0
-0.1448 -0.0800 -0.7045 -0.105 -0.773 0.626 28 26 21 0 0
-0.1536 -0.1209 -0.7107 -0.254 -0.634 0.730 137 119 86 0 0
-0.1540 -0.1223 -0.7116 -0.292 -0.657 0.695 142 123 90 0 0
-0.1543 -0.1232 -0.7129 -0.072 -0.694 0.717 149 128 94 0 0
-0.1551 -0.1070 -0.7653 -0.164 -0.874 -0.457 73 61 36 0 0
-0.1550 -0.1050 -0.7688 -0.225 -0.879 -0.420 82 69 42 0 0
-0.1562 -0.1068 -0.7798 -0.267 -0.753 0.601 61 44 27 0 0
-0.1564 -0.1070 -0.7817 -0.496 -0.722 0.482 55 41 24 0 0
-0.1661 -0.1354 -0.8311 -0.262 -0.927 0.267 95 78 48 0 0
-0.1663 -0.1359 -0.8327 -0.441 -0.768 0.464 103 86 55 0 0
-0.1665 -0.1360 -0.8348 -0.142 -0.953 0.269 100 85 55 0 0
-0.1667 -0.1361 -0.8368 -0.142 -0.924 0.354 82 66 39 0 0
-0.1669 -0.1367 -0.8384 -0.142 -0.924 0.354 87 71 45 0 0
-0.1671 -0.1373 -0.8400 -0.142 -0.924 0.354 105 91 63 0 0
-0.1675 -0.1384 -0.8411 -0.132 -0.850 0.510 91 77 49 0 0
-0.1673 -0.1361 -0.8453 -0.468 -0.719 0.513 100 86 55 0 0
-0.1690 -0.1388 -0.8600 -0.331 -0.912 0.243 73 67 50 0 0
-0.1692 -0.1391 -0.8619 -0.400 -0.854 0.333 63 57 48 0 0
-0.1030 -0.0328 -0.2773 -0.498 -0.810 0.309 85 73 56 0 0
-0.1042 -0.0363 -0.2839 0.090 -0.972 0.218 167 155 129 0 0
-0.1045 -0.0372 -0.2852 0.104 -0.886 0.452 200 187 158 0 0
-0.1046 -0.0370 -0.2867 -0.145 -0.734 0.664 132 119 88 0 0
-0.1049 -0.0381 -0.2880 -0.145 -0.734 0.664 136 123 93 0 0
-0.1052 -0.0393 -0.2892 -0.308 -0.618 0.724 99 84 59 0 0
-0.1066 -0.0424 -0.2989 -0.307 -0.909 0.280 87 74 50 0 0
-0.1083 -0.0476 -0.3065 -0.318 -0.808 0.495 76 66 54 0 0
-0.1085 -0.0481 -0.3079 -0.310 -0.868 0.389 123 111 102 0 0
-0.1093 -0.0509 -0.3101 -0.390 -0.847 0.362 77 64 49 0 0
-0.1095 -0.0515 -0.3115 -0.292 -0.940 0.175 51 37 24 0 0
-0.1101 -0.0524 -0.3173 -0.340 -0.863 0.373 44 33 18 0 0
-0.1103 -0.0529 -0.3187 -0.345 -0.793 0.503 39 30 14 0 0
-0.1111 -0.0551 -0.3226 -0.255 -0.845 0.470 50 39 24 0 0
-0.1122 -0.0573 -0.3311 -0.010 -0.896 0.445 53 45 26 0 0
-0.1128 -0.0590 -0.3337 -0.083 -0.833 0.547 50 37 23 0 0
-0.1128 -0.0585 -0.3354 -0.201 -0.956 0.216 77 64 49 0 0
-0.1133 -0.0580 -0.3432 -0.375 -0.864 0.337 52 42 30 0 0
-0.1144 -0.0562 -0.3610 -0.072 -0.997 0.016 30 21 14 0 0
-0.1144 -0.0559 -0.3627 -0.107 -0.964 0.242 32 24 17 0 0
-0.1176 -0.0685 -0.3709 0.199 -0.009 0.980 112 102 92 0 0
-0.1263 -0.1056 -0.3852 -0.518 -0.734 0.439 76 63 44 0 0
-0.1272 -0.0924 -0.4301 -0.383 -0.847 0.369 50 34 19 0 0
-0.1274 -0.0929 -0.4315 -0.160 -0.973 0.165 88 72 58 0 0
-0.1276 -0.0930 -0.4331 -0.191 -0.964 0.184 42 26 13 0 0
-0.1278 -0.0939 -0.4343 -0.152 -0.963 0.224 50 32 18 0 0
-0.1290 -0.0948 -0.4469 -0.458 -0.812 0.361 72 55 41 0 0
-0.1307 -0.0978 -0.4603 -0.484 -0.825 0.291 67 50 32 0 0
-0.1299 -0.0912 -0.4667 -0.180 -0.929 0.323 64 51 36 0 0
-0.1301 -0.0916 -0.4682 0.018 -0.733 0.680 49 38 27 0 0
-0.1304 -0.0918 -0.4714 -0.157 -0.863 0.480 59 49 34 0 0
-0.1306 -0.0925 -0.4728 -0.157 -0.863 0.480 53 41 31 0 0
-0.1309 -0.0934 -0.4740 -0.417 -0.726 0.547 34 20 14 0 0
-0.1319 -0.0963 -0.4793 0.032 -0.881 0.472 132 119 92 0 0
-0.1323 -0.0973 -0.4822 0.082 -0.740 0.668 159 148 118 0 0
-0.1330 -0.0999 -0.4843 -0.175 -0.961 0.215 83 72 50 0 0
-0.1331 -0.0994 -0.4862 -0.327 -0.894 0.307 146 139 110 0 0
-0.1340 -0.1035 -0.4875 -0.374 -0.798 0.473 120 109 81 0 0
-0.1343 -0.1042 -0.4889 -0.311 -0.916 0.252 76 64 40 0 0
-0.1345 -0.1047 -0.4903 -0.394 -0.779 0.487 106 92 67 0 0
-0.1376 -0.1146 -0.5038 0.093 -0.786 0.612 34 25 20 0 0
-0.1451 -0.1119 -0.6051 -0.418 -0.891 0.178 118 103 77 0 0
-0.1453 -0.1124 -0.6066 -0.152 -0.964 0.218 114 98 72 0 0
-0.1454 -0.1124 -0.6084 -0.144 -0.954 0.265 103 90 65 0 0
-0.1450 -0.0757 -0.6972 -0.206 -0.880 0.429 15 11 10 0 0
-0.1457 -0.0782 -0.6995 -0.327 -0.695 0.641 20 16 15 0 0
-0.1460 -0.0792 -0.7007 -0.258 -0.937 0.235 20 16 15 0 0
-0.1462 -0.0796 -0.7025 -0.462 -0.766 0.447 18 14 12 0 0
-0.1556 -0.1222 -0.7113 -0.108 -0.623 0.775 136 117 85 0 0
-0.1558 -0.1229 -0.7128 -0.072 -0.694 0.717 133 114 78 0 0
-0.1571 -0.1273 -0.7173 -0.211 -0.935 0.285 77 64 45 0 0
-0.1573 -0.1276 -0.7190 -0.249 -0.863 0.438 80 66 43 0 0
-0.1575 -0.1281 -0.7206 -0.187 -0.903 0.386 109 91 63 0 0
-0.1580 -0.1270 -0.7293 -0.596 -0.800 0.073 135 115 78 0 0
-0.1570 -0.1114 -0.7574 -0.700 -0.682 -0.213 58 46 28 0 0
-0.1568 -0.1088 -0.7614 -0.170 -0.887 -0.429 62 50 29 0 0
-0.1567 -0.1068 -0.7650 -0.191 -0.866 -0.463 67 55 32 0 0
-0.1567 -0.1051 -0.7684 -0.339 -0.862 -0.378 70 59 34 0 0
-0.1569 -0.1034 -0.7759 -0.302 -0.923 0.238 81 71 44 0 0
-0.1606 -0.1123 -0.7999 -0.111 -0.681 0.724 105 85 53 0 0
-0.1609 -0.1135 -0.8010 -0.220 -0.746 0.629 105 84 52 0 0
-0.1669 -0.1331 -0.8262 -0.131 -0.959 0.250 107 92 59 0 0
-0.1672 -0.1338 -0.8277 -0.196 -0.957 0.211 118 100 69 0 0
-0.1679 -0.1353 -0.8328 -0.264 -0.860 0.437 100 85 55 0 0
-0.1681 -0.1353 -0.8349 -0.002 -0.881 0.474 84 69 43 0 0
-0.1683 -0.1360 -0.8364 -0.002 -0.881 0.474 76 61 34 0 0
-0.1689 -0.1378 -0.8391 -0.037 -0.845 0.533 100 85 55 0 0
-0.1692 -0.1387 -0.8404 -0.136 -0.857 0.497 89 73 46 0 0
-0.1694 -0.1394 -0.8418 -0.136 -0.857 0.497 97 80 51 0 0
-0.1692 -0.1364 -0.8467 -0.333 -0.828 0.452 109 93 59 0 0
-0.1707 -0.1385 -0.8598 -0.289 -0.945 0.150 74 66 50 0 0
-0.1711 -0.1390 -0.8636 -0.298 -0.893 0.336 70 63 53 0 0
-0.1055 -0.0353 -0.2840 -0.229 -0.836 0.498 162 149 116 0 0
-0.1058 -0.0360 -0.2853 -0.098 -0.873 0.478 134 119 91 0 0
-0.1064 -0.0378 -0.2879 -0.292 -0.768 0.570 120 106 79 0 0
-0.1078 -0.0416 -0.2959 -0.281 -0.935 0.218 126 110 88 0 0
-0.1081 -0.0419 -0.2989 -0.307 -0.909 0.280 81 68 50 0 0
-0.1107 -0.0503 -0.3101 -0.301 -0.848 0.437 90 78 64 0 0
-0.1109 -0.0511 -0.3114 -0.244 -0.948 0.206 56 42 28 0 0
-0.1114 -0.0515 -0.3159 -0.126 -0.965 0.231 87 75 53 0 0
-0.1116 -0.0519 -0.3173 -0.243 -0.904 0.352 52 42 24 0 0
-0.1139 -0.0578 -0.3323 -0.163 -0.827 0.538 40 31 16 0 0
-0.1142 -0.0585 -0.3337 -0.137 -0.861 0.489 45 32 19 0 0
-0.1143 -0.0581 -0.3353 -0.201 -0.956 0.216 91 79 63 0 0
-0.1159 -0.0600 -0.3517 -0.573 -0.562 0.597 31 22 13 0 0
-0.1272 -0.1034 -0.3828 -0.233 -0.810 0.538 71 55 35 0 0
-0.1275 -0.1038 -0.3857 -0.520 -0.846 0.116 86 73 54 0 0
-0.1286 -0.0918 -0.4301 -0.383 -0.847 0.369 66 50 33 0 0
-0.1288 -0.0923 -0.4315 -0.383 -0.847 0.369 74 59 41 0 0
-0.1291 -0.0929 -0.4329 -0.454 -0.843 0.289 53 37 22 0 0
-0.1291 -0.0926 -0.4346 -0.387 -0.834 0.393 53 34 20 0 0
-0.1293 -0.0927 -0.4362 -0.398 -0.892 0.215 58 40 26 0 0
-0.1319 -0.0967 -0.4589 -0.366 -0.891 0.268 63 46 30 0 0
-0.1321 -0.0971 -0.4604 -0.484 -0.825 0.291 68 51 35 0 0
-0.1314 -0.0905 -0.4684 0.543 -0.775 0.323 48 36 27 0 0
-0.1335 -0.0966 -0.4789 -0.008 -0.948 0.319 123 113 88 0 0
-0.1339 -0.0975 -0.4818 -0.256 -0.856 0.449 144 134 106 0 0
-0.1341 -0.0982 -0.4832 -0.330 -0.839 0.433 103 91 64 0 0
-0.1346 -0.0993 -0.4860 -0.356 -0.878 0.320 144 137 106 0 0
-0.1354 -0.1027 -0.4876 -0.314 -0.868 0.386 125 112 85 0 0
-0.1357 -0.1037 -0.4889 -0.311 -0.916 0.252 76 64 39 0 0
-0.1373 -0.1094 -0.4944 -0.339 -0.783 0.522 110 96 70 0 0
-0.1376 -0.1103 -0.4956 -0.270 -0.689 0.672 82 69 46 0 0
-0.1397 -0.1160 -0.5079 -0.125 -0.901 0.416 37 27 17 0 0
-0.1396 -0.1146 -0.5103 -0.361 -0.706 0.609 35 24 14 0 0
-0.1432 -0.1175 -0.5481 0.090 -0.994 -0.058 91 77 52 0 0
-0.1434 -0.1174 -0.5499 0.090 -0.994 -0.058 79 65 44 0 0
-0.1440 -0.1131 -0.5682 0.544 -0.796 -0.266 59 47 32 0 0
-0.1439 -0.1084 -0.5798 -0.083 -0.994 0.075 85 70 50 0 0
-0.1441 -0.1082 -0.5818 0.019 -0.900 0.435 79 64 41 0 0
-0.1442 -0.1082 -0.5836 0.053 -0.988 0.142 82 68 46 0 0
-0.1464 -0.1111 -0.6035 -0.357 -0.921 0.156 77 65 40 0 0
-0.1466 -0.1117 -0.6049 -0.240 -0.934 0.265 83 70 44 0 0
-0.1468 -0.1121 -0.6065 -0.152 -0.964 0.218 92 78 53 0 0
-0.1468 -0.1113 -0.6088 -0.416 -0.867 0.273 90 76 54 0 0
-0.1470 -0.1117 -0.6104 -0.416 -0.867 0.273 83 70 52 0 0
-0.1470 -0.0767 -0.6981 0.134 -0.950 0.282 16 12 11 0 0
-0.1473 -0.0775 -0.6996 -0.327 -0.695 0.641 20 16 15 0 0
-0.1478 -0.0788 -0.7026 -0.434 -0.721 0.540 18 14 13 0 0
-0.1486 -0.0807 -0.7073 -0.393 -0.684 0.614 34 27 22 0 0
-0.1489 -0.0820 -0.7083 -0.501 -0.629 0.594 31 24 20 0 0
-0.1529 -0.1020 -0.7080 -0.204 -0.194 0.960 75 67 56 0 0
-0.1568 -0.1201 -0.7105 -0.321 -0.352 0.879 151 130 99 0 0
-0.1571 -0.1212 -0.7117 -0.518 -0.459 0.722 132 113 80 0 0
-0.1574 -0.1224 -0.7127 -0.518 -0.459 0.722 138 120 83 0 0
-0.1594 -0.1264 -0.7274 -0.317 -0.946 -0.068 127 108 69 0 0
-0.1596 -0.1272 -0.7288 -0.592 -0.803 0.068 132 112 75 0 0
-0.1588 -0.1143 -0.7506 -0.304 -0.820 -0.484 86 72 45 0 0
-0.1587 -0.1126 -0.7539 -0.357 -0.843 -0.402 62 50 27 0 0
-0.1587 -0.1111 -0.7571 -0.357 -0.843 -0.402 50 39 20 0 0
-0.1585 -0.1086 -0.7611 -0.170 -0.887 -0.429 48 38 19 0 0
-0.1584 -0.1065 -0.7648 -0.229 -0.852 -0.471 62 49 29 0 0
-0.1582 -0.1044 -0.7685 -0.247 -0.869 -0.430 66 54 32 0 0
-0.1595 -0.1030 -0.7882 0.177 -0.677 0.715 64 49 30 0 0
-0.1609 -0.1082 -0.7923 0.115 -0.912 0.393 115 97 64 0 0
-0.1621 -0.1121 -0.7974 -0.211 -0.934 0.289 105 88 60 0 0
-0.1624 -0.1127 -0.7990 -0.367 -0.818 0.443 102 82 52 0 0
-0.1626 -0.1135 -0.8005 -0.367 -0.818 0.443 117 98 65 0 0
-0.1640 -0.1185 -0.8047 -0.362 -0.584 0.727 136 121 87 0 0
-0.1686 -0.1327 -0.8262 -0.353 -0.890 0.290 114 99 66 0 0
-0.1688 -0.1332 -0.8278 -0.383 -0.865 0.326 120 103 72 0 0
-0.1695 -0.1348 -0.8327 -0.264 -0.860 0.437 88 74 47 0 0
-0.1710 -0.1386 -0.8421 -0.107 -0.894 0.435 100 84 52 0 0
-0.1728 -0.1389 -0.8632 -0.150 -0.878 0.455 70 63 53 0 0
-0.0995 -0.0091 -0.2556 -0.794 -0.114 0.598 99 88 70 0 0
-0.1070 -0.0349 -0.2839 -0.229 -0.836 0.498 185 169 133 0 0
-0.1073 -0.0357 -0.2852 -0.156 -0.839 0.521 141 124 90 0 0
-0.1075 -0.0365 -0.2865 -0.156 -0.839 0.521 128 113 82 0 0
-0.1105 -0.0450 -0.3024 -0.403 -0.784 0.473 60 50 34 0 0
-0.1109 -0.0460 -0.3051 -0.303 -0.873 0.382 47 36 28 0 0
-0.1118 -0.0492 -0.3088 -0.301 -0.848 0.437 94 82 66 0 0
-0.1124 -0.0505 -0.3129 -0.349 -0.879 0.325 83 68 51 0 0
-0.1128 -0.0511 -0.3158 -0.293 -0.920 0.261 77 64 44 0 0
-0.1130 -0.0514 -0.3172 -0.293 -0.920 0.261 66 55 38 0 0
-0.1132 -0.0518 -0.3187 -0.434 -0.865 0.250 54 44 28 0 0
-0.1135 -0.0525 -0.3215 -0.189 -0.829 0.527 54 45 30 0 0
-0.1139 -0.0542 -0.3225 -0.255 -0.845 0.470 48 38 23 0 0
-0.1144 -0.0552 -0.3253 -0.230 -0.959 0.167 91 79 62 0 0
-0.1146 -0.0556 -0.3267 -0.044 -0.947 0.317 93 80 60 0 0
-0.1156 -0.0580 -0.3336 -0.385 -0.852 0.355 38 25 16 0 0
-0.1157 -0.0578 -0.3352 -0.416 -0.885 0.211 64 51 41 0 0
-0.1173 -0.0589 -0.3519 -0.441 -0.633 0.637 40 31 22 0 0
-0.1177 -0.0599 -0.3547 -0.606 -0.768 0.209 33 25 15 0 0
-0.1287 -0.1029 -0.3843 -0.535 -0.804 0.259 75 62 43 0 0
-0.1288 -0.1030 -0.3858 -0.547 -0.817 0.182 73 60 43 0 0
-0.1306 -0.0920 -0.4346 -0.387 -0.834 0.393 59 40 25 0 0
-0.1307 -0.0920 -0.4362 -0.398 -0.892 0.215 68 50 35 0 0
-0.1310 -0.0930 -0.4374 -0.274 -0.936 0.220 66 50 34 0 0
-0.1321 -0.0940 -0.4484 -0.088 -0.885 0.457 53 38 23 0 0
-0.1332 -0.0938 -0.4633 -0.047 -0.977 0.210 66 52 36 0 0
-0.1326 -0.0893 -0.4671 -0.685 -0.726 -0.056 40 29 19 0 0
-0.1328 -0.0894 -0.4687 -0.749 -0.662 -0.031 42 31 20 0 0
-0.1373 -0.1041 -0.4884 -0.024 -0.902 0.432 92 82 57 0 0
-0.1384 -0.1073 -0.4935 -0.286 -0.817 0.501 76 61 36 0 0
-0.1411 -0.1153 -0.5079 -0.263 -0.818 0.511 33 22 16 0 0
-0.1417 -0.1179 -0.5083 0.030 -0.842 0.538 31 21 11 0 0
-0.1418 -0.1178 -0.5100 -0.302 -0.903 0.307 44 31 17 0 0
-0.1434 -0.1191 -0.5263 -0.230 -0.929 0.292 69 52 31 0 0
-0.1454 -0.1161 -0.5591 -0.057 -0.996 -0.066 74 60 45 0 0
-0.1455 -0.1159 -0.5610 -0.057 -0.996 -0.066 80 68 50 0 0
-0.1476 -0.1105 -0.5999 -0.165 -0.972 0.167 65 53 32 0 0
-0.1478 -0.1109 -0.6015 -0.080 -0.975 0.209 68 53 34 0 0
-0.1480 -0.1112 -0.6031 0.008 -0.926 0.378 74 60 37 0 0
-0.1484 -0.1119 -0.6063 -0.152 -0.964 0.218 92 78 57 0 0
-0.1484 -0.1110 -0.6087 -0.464 -0.848 0.255 84 71 52 0 0
-0.1485 -0.1107 -0.6107 -0.398 -0.915 0.060 77 64 45 0 0
-0.1449 -0.0701 -0.6668 0.094 -0.617 0.781 30 25 22 0 0
-0.1487 -0.0775 -0.6952 0.105 -0.979 0.176 13 10 9 0 0
-0.1486 -0.0759 -0.6983 -0.427 -0.715 0.554 15 11 10 0 0
-0.1489 -0.0768 -0.6997 -0.427 -0.715 0.554 16 12 11 0 0
-0.1492 -0.0775 -0.7011 -0.506 -0.805 0.310 17 13 12 0 0
-0.1494 -0.0779 -0.7028 -0.374 -0.832 0.409 17 14 11 0 0
-0.1496 -0.0784 -0.7045 -0.302 -0.754 0.584 23 18 14 0 0
-0.1498 -0.0785 -0.7064 -0.258 -0.948 0.188 38 29 25 0 0
-0.1500 -0.0788 -0.7082 -0.258 -0.948 0.188 32 26 21 0 0
-0.1502 -0.0793 -0.7099 0.105 -0.971 0.214 33 26 20 0 0
-0.1544 -0.1007 -0.7085 0.070 -0.227 0.971 77 69 57 0 0
-0.1548 -0.1028 -0.7089 0.053 -0.281 0.958 79 70 55 0 0
-0.1572 -0.1154 -0.7077 -0.434 -0.695 0.573 134 114 86 0 0
-0.1575 -0.1164 -0.7089 -0.530 -0.566 0.631 132 109 73 0 0
-0.1579 -0.1181 -0.7096 -0.428 -0.466 0.774 164 137 98 0 0
-0.1583 -0.1194 -0.7106 -0.428 -0.466 0.774 140 122 88 0 0
-0.1586 -0.1203 -0.7119 -0.556 -0.533 0.638 123 105 72 0 0
-0.1589 -0.1211 -0.7132 -0.564 -0.562 0.605 150 130 94 0 0
-0.1606 -0.1269 -0.7207 -0.169 -0.810 0.562 109 93 67 0 0
-0.1610 -0.1252 -0.7299 -0.409 -0.905 -0.117 139 119 84 0 0
-0.1613 -0.1265 -0.7308 -0.524 -0.840 -0.140 142 122 86 0 0
-0.1601 -0.1094 -0.7580 -0.478 -0.762 -0.438 65 54 31 0 0
-0.1600 -0.1075 -0.7615 -0.614 -0.702 -0.361 54 45 24 0 0
-0.1606 -0.1019 -0.7824 -0.346 -0.860 0.376 52 39 21 0 0
-0.1668 -0.1229 -0.8068 -0.230 -0.823 0.520 72 59 33 0 0
-0.1688 -0.1285 -0.8188 -0.125 -0.886 0.447 72 50 29 0 0
-0.1691 -0.1289 -0.8205 -0.181 -0.725 0.665 74 55 30 0 0
-0.1719 -0.1377 -0.8339 -0.057 -0.921 0.386 86 73 43 0 0
-0.1715 -0.1336 -0.8397 -0.027 -0.842 0.538 91 75 44 0 0
-0.1724 -0.1361 -0.8438 -0.243 -0.816 0.525 103 87 54 0 0
-0.1744 -0.1386 -0.8629 -0.415 -0.903 0.113 69 64 52 0 0
-0.1102 -0.0405 -0.2913 -0.450 -0.862 0.233 123 108 88 0 0
-0.1114 -0.0430 -0.2997 -0.471 -0.811 0.349 98 81 58 0 0
-0.1116 -0.0435 -0.3011 -0.471 -0.811 0.349 69 53 33 0 0
-0.1130 -0.0470 -0.3092 -0.121 -0.942 0.313 80 69 54 0 0
-0.1134 -0.0488 -0.3102 -0.209 -0.817 0.538 84 72 62 0 0
-0.1138 -0.0501 -0.3114 -0.162 -0.941 0.298 55 42 30 0 0
-0.1139 -0.0501 -0.3129 -0.041 -0.908 0.416 57 43 30 0 0
-0.1141 -0.0506 -0.3143 -0.153 -0.968 0.200 82 67 51 0 0
-0.1143 -0.0508 -0.3157 -0.153 -0.968 0.200 66 53 37 0 0
-0.1148 -0.0519 -0.3200 -0.337 -0.708 0.620 48 39 25 0 0
-0.1156 -0.0545 -0.3238 -0.275 -0.913 0.300 80 72 57 0 0
-0.1158 -0.0549 -0.3252 -0.275 -0.913 0.300 82 73 55 0 0
-0.1160 -0.0553 -0.3266 -0.275 -0.913 0.300 95 85 62 0 0
-0.1162 -0.0557 -0.3280 -0.279 -0.919 0.280 86 75 48 0 0
-0.1181 -0.0584 -0.3441 -0.028 -0.886 0.464 137 129 112 0 0
-0.1183 -0.0592 -0.3454 -0.010 -0.969 0.247 89 82 68 0 0
-0.1184 -0.0590 -0.3470 -0.207 -0.960 0.188 31 22 14 0 0
-0.1187 -0.0582 -0.3519 -0.271 -0.933 0.237 44 35 26 0 0
-0.1190 -0.0586 -0.3549 -0.527 -0.834 0.161 31 22 13 0 0
-0.1213 -0.0640 -0.3703 0.090 0.028 0.996 89 79 69 0 0
-0.1223 -0.0692 -0.3700 0.130 0.007 0.991 104 94 83 0 0
-0.1233 -0.0744 -0.3697 0.140 -0.012 0.990 131 122 109 0 0
-0.1300 -0.1023 -0.3843 -0.397 -0.824 0.403 85 73 52 0 0
-0.1302 -0.1026 -0.3857 -0.406 -0.878 0.254 70 57 38 0 0
-0.1301 -0.0979 -0.3953 -0.381 -0.900 -0.210 93 79 53 0 0
-0.1320 -0.0913 -0.4347 -0.302 -0.834 0.463 78 61 46 0 0
-0.1324 -0.0926 -0.4374 -0.274 -0.936 0.220 55 41 25 0 0
-0.1336 -0.0939 -0.4482 -0.061 -0.905 0.420 57 41 26 0 0
-0.1347 -0.0936 -0.4632 -0.308 -0.944 0.120 49 35 22 0 0
-0.1339 -0.0879 -0.4674 -0.771 -0.633 0.076 41 30 20 0 0
-0.1342 -0.0887 -0.4687 -0.800 -0.578 0.161 53 42 31 0 0
-0.1355 -0.0918 -0.4773 -0.311 -0.776 0.548 166 155 120 0 0
-0.1374 -0.0983 -0.4842 -0.385 -0.780 0.494 108 99 71 0 0
-0.1430 -0.1169 -0.5085 -0.408 -0.758 0.509 36 26 17 0 0
-0.1433 -0.1175 -0.5099 -0.230 -0.847 0.479 50 38 23 0 0
-0.1472 -0.1090 -0.5788 0.207 -0.974 -0.090 81 71 53 0 0
-0.1485 -0.1102 -0.5925 -0.006 -0.983 0.184 120 106 77 0 0
-0.1494 -0.1104 -0.6032 -0.120 -0.992 0.049 56 41 22 0 0
-0.1496 -0.1105 -0.6050 -0.120 -0.992 0.049 76 61 41 0 0
-0.1497 -0.1103 -0.6069 -0.373 -0.926 -0.061 91 76 59 0 0
-0.1498 -0.1097 -0.6091 -0.377 -0.925 0.051 91 78 59 0 0
-0.1499 -0.1097 -0.6110 -0.296 -0.955 0.023 75 62 43 0 0
-0.1502 -0.1102 -0.6125 -0.569 -0.810 -0.143 84 71 53 0 0
-0.1464 -0.0700 -0.6646 -0.235 -0.967 0.103 20 16 13 0 0
-0.1465 -0.0699 -0.6665 0.094 -0.617 0.781 26 21 18 0 0
-0.1468 -0.0708 -0.6679 -0.181 -0.508 0.842 34 29 25 0 0
-0.1470 -0.0711 -0.6697 -0.452 -0.890 -0.057 35 30 26 0 0
-0.1517 -0.0789 -0.7077 0.174 -0.979 -0.110 32 27 21 0 0
-0.1561 -0.1010 -0.7079 0.118 -0.388 0.914 72 63 52 0 0
-0.1589 -0.1152 -0.7074 -0.583 -0.757 0.294 133 113 85 0 0
-0.1591 -0.1156 -0.7091 -0.525 -0.667 0.528 120 100 65 0 0
-0.1598 -0.1185 -0.7109 -0.428 -0.466 0.774 137 118 83 0 0
-0.1617 -0.1256 -0.7174 -0.274 -0.935 0.227 88 72 42 0 0
-0.1619 -0.1258 -0.7191 -0.385 -0.800 0.460 91 77 47 0 0
-0.1621 -0.1258 -0.7211 -0.234 -0.913 0.334 93 78 53 0 0
-0.1628 -0.1255 -0.7312 -0.524 -0.840 -0.140 139 120 83 0 0
-0.1616 -0.1070 -0.7615 -0.588 -0.688 -0.424 76 64 37 0 0
-0.1608 -0.0961 -0.7783 -0.547 -0.802 0.239 57 44 26 0 0
-0.1612 -0.0967 -0.7819 -0.454 -0.844 0.287 67 54 34 0 0
-0.1732 -0.1360 -0.8329 -0.350 -0.873 0.340 89 77 47 0 0
-0.1737 -0.1351 -0.8422 -0.027 -0.842 0.538 113 95 62 0 0
-0.1739 -0.1352 -0.8442 -0.190 -0.914 0.358 119 103 69 0 0
-0.1742 -0.1357 -0.8458 -0.190 -0.914 0.358 124 108 75 0 0
-0.1744 -0.1364 -0.8474 -0.257 -0.941 0.219 122 106 72 0 0
-0.1747 -0.1367 -0.8492 -0.257 -0.941 0.219 131 115 80 0 0
-0.1749 -0.1371 -0.8510 -0.257 -0.941 0.219 129 113 79 0 0
-0.1750 -0.1366 -0.8535 -0.199 -0.955 0.219 126 110 77 0 0
-0.1030 -0.0087 -0.2614 -0.785 -0.211 0.583 151 139 123 0 0
-0.1035 -0.0106 -0.2625 -0.656 -0.268 0.705 147 137 123 0 0
-0.1039 -0.0121 -0.2636 -0.479 -0.262 0.838 132 123 106 0 0
-0.1096 -0.0332 -0.2825 -0.382 -0.684 0.622 174 158 128 0 0
-0.1098 -0.0335 -0.2840 -0.336 -0.714 0.615 202 185 149 0 0
-0.1100 -0.0344 -0.2852 -0.336 -0.714 0.615 213 196 161 0 0
-0.1103 -0.0355 -0.2865 -0.266 -0.739 0.619 184 167 131 0 0
-0.1127 -0.0419 -0.2999 -0.196 -0.848 0.492 135 116 87 0 0
-0.1130 -0.0429 -0.3011 -0.166 -0.833 0.528 115 96 71 0 0
-0.1132 -0.0434 -0.3025 -0.077 -0.869 0.489 110 93 72 0 0
-0.1135 -0.0443 -0.3037 -0.072 -0.928 0.365 115 103 85 0 0
-0.1141 -0.0461 -0.3063 -0.115 -0.919 0.376 32 23 10 0 0
-0.1142 -0.0462 -0.3077 -0.191 -0.894 0.407 36 27 12 0 0
-0.1159 -0.0514 -0.3154 -0.281 -0.830 0.482 58 46 33 0 0
-0.1180 -0.0561 -0.3308 -0.295 -0.906 0.303 33 24 10 0 0
-0.1197 -0.0585 -0.3454 -0.144 -0.974 0.176 49 40 30 0 0
-0.1199 -0.0587 -0.3469 -0.207 -0.960 0.188 32 23 14 0 0
-0.1196 -0.0562 -0.3493 -0.323 -0.897 0.302 37 28 19 0 0
-0.1201 -0.0578 -0.3519 -0.300 -0.942 0.150 40 31 22 0 0
-0.1283 -0.0913 -0.3712 -0.366 -0.310 0.877 169 155 124 0 0
-0.1302 -0.0998 -0.3743 -0.112 -0.715 0.690 125 107 74 0 0
-0.1312 -0.1018 -0.3812 -0.410 -0.910 0.066 55 41 21 0 0
-0.1314 -0.1016 -0.3844 -0.509 -0.743 0.435 86 73 52 0 0
-0.1316 -0.1019 -0.3858 -0.552 -0.799 0.239 82 69 49 0 0
-0.1339 -0.0912 -0.4394 -0.241 -0.898 0.368 47 34 21 0 0
-0.1349 -0.0936 -0.4465 -0.064 -0.959 0.276 50 34 20 0 0
-0.1350 -0.0931 -0.4483 -0.277 -0.877 0.393 53 37 24 0 0
-0.1359 -0.0941 -0.4577 -0.378 -0.877 0.295 61 47 35 0 0
-0.1363 -0.0946 -0.4608 -0.312 -0.950 0.032 42 28 18 0 0
-0.1361 -0.0929 -0.4632 0.243 -0.959 0.148 48 33 21 0 0
-0.1353 -0.0866 -0.4678 -0.644 -0.762 0.069 48 38 27 0 0
-0.1355 -0.0871 -0.4692 -0.732 -0.672 0.113 52 40 31 0 0
-0.1367 -0.0904 -0.4760 -0.357 -0.789 0.499 173 158 121 0 0
-0.1369 -0.0911 -0.4774 -0.357 -0.789 0.499 179 167 129 0 0
-0.1445 -0.1162 -0.5086 -0.408 -0.758 0.509 34 24 15 0 0
-0.1447 -0.1168 -0.5100 -0.370 -0.841 0.396 56 43 28 0 0
-0.1461 -0.1181 -0.5246 -0.098 -0.939 0.329 66 45 26 0 0
-0.1492 -0.1077 -0.5865 -0.395 -0.767 0.506 75 55 33 0 0
-0.1514 -0.1096 -0.6089 -0.285 -0.947 -0.145 95 82 63 0 0
-0.1514 -0.1092 -0.6109 -0.285 -0.947 -0.145 86 73 54 0 0
-0.1482 -0.0711 -0.6635 -0.156 -0.987 -0.044 14 12 8 0 0
-0.1487 -0.0703 -0.6718 -0.517 -0.817 0.255 25 21 19 0 0
-0.1578 -0.1018 -0.7069 0.267 -0.453 0.851 75 66 55 0 0
-0.1606 -0.1146 -0.7094 0.085 -0.803 0.589 120 104 70 0 0
-0.1631 -0.1246 -0.7158 -0.334 -0.849 0.409 132 116 81 0 0
-0.1635 -0.1252 -0.7192 -0.183 -0.851 0.492 89 73 45 0 0
-0.1636 -0.1254 -0.7211 -0.234 -0.913 0.334 92 76 50 0 0
-0.1642 -0.1226 -0.7349 -0.251 -0.944 -0.214 128 110 71 0 0
-0.1627 -0.0963 -0.7797 -0.205 -0.829 0.520 71 59 38 0 0
-0.1630 -0.0974 -0.7810 -0.239 -0.778 0.581 63 50 31 0 0
-0.1656 -0.1066 -0.7902 0.278 -0.923 0.264 79 67 41 0 0
-0.1688 -0.1171 -0.8045 -0.153 -0.745 0.649 95 80 52 0 0
-0.1695 -0.1158 -0.8161 0.007 -0.874 0.486 52 38 22 0 0
-0.1723 -0.1281 -0.8203 -0.096 -0.901 0.423 79 62 38 0 0
-0.1729 -0.1300 -0.8228 -0.182 -0.781 0.597 97 79 53 0 0
-0.1746 -0.1352 -0.8310 -0.590 -0.744 0.314 91 79 48 0 0
-0.1752 -0.1336 -0.8430 -0.446 -0.695 0.564 123 105 71 0 0
-0.1755 -0.1345 -0.8443 -0.304 -0.841 0.447 131 114 80 0 0
-0.1758 -0.1351 -0.8459 -0.421 -0.831 0.364 127 111 77 0 0
-0.1040 -0.0055 -0.2620 -0.669 -0.216 0.711 167 154 136 0 0
-0.1050 -0.0097 -0.2640 -0.550 -0.199 0.811 152 141 122 0 0
-0.1142 -0.0418 -0.2997 -0.166 -0.833 0.528 154 138 109 0 0
-0.1145 -0.0425 -0.3010 -0.166 -0.833 0.528 125 108 79 0 0
-0.1147 -0.0432 -0.3024 -0.322 -0.775 0.544 98 81 56 0 0
-0.1149 -0.0435 -0.3038 -0.287 -0.798 0.530 95 81 58 0 0
-0.1154 -0.0454 -0.3063 -0.313 -0.881 0.354 48 38 22 0 0
-0.1167 -0.0481 -0.3146 -0.087 -0.900 0.427 62 51 37 0 0
-0.1172 -0.0497 -0.3172 -0.182 -0.854 0.487 48 39 26 0 0
-0.1194 -0.0555 -0.3308 -0.194 -0.938 0.287 38 29 12 0 0
-0.1197 -0.0555 -0.3338 -0.347 -0.823 0.449 73 62 48 0 0
-0.1200 -0.0563 -0.3351 -0.534 -0.814 0.228 49 38 27 0 0
-0.1204 -0.0564 -0.3397 -0.338 -0.899 0.280 109 100 85 0 0
-0.1209 -0.0579 -0.3423 -0.352 -0.755 0.554 115 105 92 0 0
-0.1211 -0.0583 -0.3437 -0.408 -0.817 0.408 109 100 89 0 0
-0.1212 -0.0583 -0.3453 -0.144 -0.974 0.176 29 20 11 0 0
-0.1213 -0.0584 -0.3468 -0.207 -0.960 0.188 29 20 11 0 0
-0.1216 -0.0513 -0.3664 -0.266 -0.950 0.163 36 29 19 0 0
-0.1272 -0.0789 -0.3693 0.251 -0.270 0.930 113 105 92 0 0
-0.1278 -0.0817 -0.3698 0.319 -0.286 0.904 97 88 78 0 0
-0.1295 -0.0895 -0.3716 0.187 -0.513 0.838 166 152 114 0 0
-0.1303 -0.0929 -0.3735 -0.089 -0.600 0.795 202 184 141 0 0
-0.1307 -0.0943 -0.3745 -0.365 -0.731 0.576 206 186 148 0 0
-0.1333 -0.0907 -0.4152 -0.113 -0.982 0.150 95 80 60 0 0
-0.1329 -0.0833 -0.4279 -0.476 -0.569 0.670 75 61 48 0 0
-0.1368 -0.0862 -0.4677 -0.632 -0.763 -0.136 46 35 23 0 0
-0.1369 -0.0860 -0.4694 -0.704 -0.709 -0.024 52 41 30 0 0
-0.1381 -0.0897 -0.4761 -0.357 -0.789 0.499 156 137 102 0 0
-0.1384 -0.0905 -0.4774 -0.357 -0.789 0.499 161 145 111 0 0
-0.1438 -0.1103 -0.4962 -0.541 -0.793 0.280 64 52 34 0 0
-0.1451 -0.1143 -0.5026 -0.320 -0.861 0.396 60 50 41 0 0
-0.1472 -0.1169 -0.5215 -0.243 -0.914 0.325 108 91 70 0 0
-0.1474 -0.1174 -0.5230 -0.243 -0.914 0.325 69 51 32 0 0
-0.1477 -0.1183 -0.5242 -0.236 -0.832 0.503 66 45 26 0 0
-0.1479 -0.1190 -0.5255 -0.236 -0.832 0.503 73 53 33 0 0
-0.1507 -0.1073 -0.5864 -0.259 -0.924 0.281 65 46 25 0 0
-0.1510 -0.1088 -0.5873 -0.367 -0.814 0.450 84 65 41 0 0
-0.1524 -0.1111 -0.5985 -0.265 -0.958 0.111 62 47 26 0 0
-0.1526 -0.1113 -0.6002 -0.244 -0.959 0.146 64 48 30 0 0
-0.1501 -0.0705 -0.6674 -0.372 -0.870 -0.323 21 16 13 0 0
-0.1501 -0.0690 -0.6703 -0.369 -0.886 -0.280 20 15 12 0 0
-0.1599 -0.1034 -0.7074 0.190 -0.685 0.704 84 75 60 0 0
-0.1646 -0.1239 -0.7158 -0.449 -0.790 0.418 114 98 68 0 0
-0.1652 -0.1249 -0.7210 -0.234 -0.913 0.334 116 99 70 0 0
-0.1656 -0.1231 -0.7303 -0.264 -0.956 -0.130 133 114 74 0 0
-0.1658 -0.1234 -0.7320 -0.457 -0.885 -0.090 136 117 81 0 0
-0.1660 -0.1220 -0.7370 -0.537 -0.828 -0.162 121 104 68 0 0
-0.1643 -0.0959 -0.7796 -0.205 -0.829 0.520 70 58 37 0 0
-0.1739 -0.1277 -0.8202 -0.217 -0.872 0.439 84 67 42 0 0
-0.1742 -0.1285 -0.8216 -0.398 -0.792 0.464 94 77 51 0 0
-0.1745 -0.1295 -0.8229 -0.153 -0.815 0.559 90 76 49 0 0
-0.1747 -0.1298 -0.8247 -0.173 -0.753 0.635 85 71 46 0 0
-0.1756 -0.1326 -0.8285 -0.274 -0.742 0.613 71 59 34 0 0
-0.1759 -0.1335 -0.8299 -0.443 -0.796 0.412 85 72 44 0 0
-0.1056 -0.0055 -0.2633 -0.613 -0.171 0.772 162 148 122 0 0
-0.1107 -0.0251 -0.2782 -0.543 -0.808 0.229 77 65 48 0 0
-0.1164 -0.0434 -0.3036 -0.322 -0.775 0.544 99 85 59 0 0
-0.1179 -0.0473 -0.3132 -0.223 -0.853 0.472 111 102 87 0 0
-0.1181 -0.0480 -0.3145 -0.223 -0.853 0.472 93 83 68 0 0
-0.1186 -0.0492 -0.3172 -0.279 -0.824 0.492 50 40 29 0 0
-0.1189 -0.0499 -0.3185 -0.386 -0.791 0.475 45 37 28 0 0
-0.1191 -0.0504 -0.3199 -0.441 -0.872 0.214 30 23 14 0 0
-0.1203 -0.0539 -0.3265 -0.295 -0.906 0.303 87 77 58 0 0
-0.1205 -0.0545 -0.3278 -0.235 -0.927 0.293 64 54 36 0 0
-0.1207 -0.0549 -0.3292 -0.235 -0.927 0.293 54 43 26 0 0
-0.1209 -0.0553 -0.3306 -0.235 -0.927 0.293 52 40 24 0 0
-0.1211 -0.0548 -0.3339 -0.439 -0.873 0.212 45 36 24 0 0
-0.1212 -0.0550 -0.3353 -0.439 -0.873 0.212 36 27 19 0 0
-0.1217 -0.0554 -0.3398 -0.299 -0.790 0.536 120 110 93 0 0
-0.1220 -0.0562 -0.3411 -0.318 -0.721 0.615 111 102 85 0 0
-0.1222 -0.0568 -0.3425 -0.420 -0.733 0.536 75 66 49 0 0
-0.1225 -0.0576 -0.3438 -0.408 -0.817 0.408 60 49 35 0 0
-0.1256 -0.0625 -0.3702 -0.100 0.107 0.989 75 67 57 0 0
-0.1287 -0.0791 -0.3690 0.261 -0.247 0.933 115 103 88 0 0
-0.1314 -0.0912 -0.3724 0.072 -0.688 0.723 195 181 144 0 0
-0.1317 -0.0923 -0.3735 0.103 -0.733 0.673 200 186 144 0 0
-0.1320 -0.0935 -0.3746 -0.024 -0.831 0.556 215 200 158 0 0
-0.1325 -0.0959 -0.3753 -0.115 -0.803 0.584 136 118 85 0 0
-0.1328 -0.0968 -0.3765 -0.350 -0.842 0.411 75 59 33 0 0
-0.1346 -0.0912 -0.4115 -0.424 -0.906 -0.010 90 77 57 0 0
-0.1346 -0.0903 -0.4135 -0.113 -0.982 0.150 85 73 54 0 0
-0.1348 -0.0907 -0.4149 -0.035 -0.988 0.147 72 59 42 0 0
-0.1350 -0.0909 -0.4164 -0.035 -0.988 0.147 82 70 53 0 0
-0.1390 -0.0919 -0.4632 -0.733 -0.647 0.211 50 38 29 0 0
-0.1417 -0.0967 -0.4842 -0.315 -0.835 0.452 104 91 64 0 0
-0.1421 -0.0984 -0.4851 -0.315 -0.893 0.321 143 128 101 0 0
-0.1468 -0.1126 -0.5083 -0.326 -0.884 0.335 31 22 13 0 0
-0.1475 -0.1161 -0.5081 -0.347 -0.902 0.257 38 27 17 0 0
-0.1487 -0.1165 -0.5214 -0.243 -0.914 0.325 65 49 30 0 0
-0.1489 -0.1170 -0.5229 -0.243 -0.914 0.325 55 38 22 0 0
-0.1491 -0.1174 -0.5244 -0.222 -0.912 0.346 57 38 23 0 0
-0.1494 -0.1186 -0.5255 -0.236 -0.832 0.503 76 55 36 0 0
-0.1499 -0.1206 -0.5260 -0.111 -0.989 0.097 81 59 36 0 0
-0.1524 -0.1075 -0.5878 -0.051 -0.902 0.428 75 58 34 0 0
-0.1535 -0.0972 -0.6251 -0.728 -0.680 -0.084 62 50 28 0 0
-0.1534 -0.0932 -0.6333 -0.324 -0.770 -0.549 50 42 28 0 0
-0.1518 -0.0705 -0.6670 -0.316 -0.819 -0.479 20 16 13 0 0
-0.1523 -0.0697 -0.6753 -0.195 -0.976 -0.097 12 11 9 0 0
-0.1562 -0.0766 -0.7062 -0.135 -0.732 0.667 36 28 25 0 0
-0.1565 -0.0776 -0.7074 -0.135 -0.732 0.667 36 28 25 0 0
-0.1572 -0.0812 -0.7070 -0.220 -0.283 0.934 36 28 24 0 0
-0.1583 -0.0879 -0.7042 0.681 -0.386 0.622 37 30 24 0 0
-0.1660 -0.0954 -0.7796 -0.265 -0.757 0.597 70 57 34 0 0
-0.1681 -0.1054 -0.7820 -0.116 -0.892 0.437 38 26 15 0 0
-0.1685 -0.1067 -0.7830 -0.317 -0.885 0.341 40 28 15 0 0
-0.1701 -0.1116 -0.7915 -0.154 -0.754 0.638 75 63 38 0 0
-0.1704 -0.1125 -0.7929 -0.218 -0.889 0.403 87 74 49 0 0
-0.1771 -0.1317 -0.8289 -0.397 -0.713 0.578 82 70 39 0 0
-0.1774 -0.1326 -0.8302 -0.475 -0.781 0.405 113 98 64 0 0
-0.1049 0.0053 -0.2611 -0.816 -0.312 0.488 173 175 174 0 0
-0.1054 0.0034 -0.2622 -0.734 -0.250 0.631 164 158 146 0 0
-0.1059 0.0012 -0.2632 -0.580 -0.086 0.810 160 146 123 0 0
-0.1065 -0.0019 -0.2640 -0.580 -0.086 0.810 165 149 122 0 0
-0.1071 -0.0046 -0.2649 -0.455 -0.105 0.884 160 145 119 0 0
-0.1116 -0.0222 -0.2773 -0.610 -0.650 0.453 62 53 37 0 0
-0.1137 -0.0309 -0.2826 -0.248 -0.758 0.603 204 191 157 0 0
-0.1151 -0.0353 -0.2890 -0.425 -0.810 0.405 69 51 37 0 0
-0.1172 -0.0409 -0.3011 -0.356 -0.799 0.484 160 144 121 0 0
-0.1203 -0.0505 -0.3166 -0.058 -0.895 0.442 56 46 36 0 0
-0.1220 -0.0541 -0.3277 -0.267 -0.909 0.320 58 45 28 0 0
-0.1222 -0.0545 -0.3291 -0.235 -0.927 0.293 81 68 52 0 0
-0.1224 -0.0549 -0.3306 -0.235 -0.927 0.293 63 51 36 0 0
-0.1232 -0.0554 -0.3396 -0.270 -0.850 0.453 147 138 118 0 0
-0.1234 -0.0557 -0.3411 -0.386 -0.736 0.556 80 71 53 0 0
-0.1236 -0.0564 -0.3424 -0.451 -0.822 0.347 90 80 64 0 0
-0.1241 -0.0495 -0.3634 -0.416 -0.788 0.454 36 28 19 0 0
-0.1332 -0.0924 -0.3733 0.261 -0.750 0.607 211 198 156 0 0
-0.1335 -0.0935 -0.3744 0.057 -0.775 0.630 215 201 159 0 0
-0.1482 -0.1120 -0.5083 -0.326 -0.884 0.335 31 22 11 0 0
-0.1501 -0.1161 -0.5214 -0.243 -0.914 0.325 55 40 22 0 0
-0.1503 -0.1165 -0.5228 -0.222 -0.912 0.346 49 34 20 0 0
-0.1509 -0.1182 -0.5254 -0.200 -0.806 0.557 70 50 34 0 0
-0.1513 -0.1181 -0.5305 -0.406 -0.840 0.360 73 51 28 0 0
-0.1517 -0.1187 -0.5336 -0.291 -0.910 0.296 83 61 36 0 0
-0.1519 -0.1175 -0.5395 -0.304 -0.909 0.285 79 57 33 0 0
-0.1521 -0.1179 -0.5410 -0.306 -0.919 0.247 87 67 40 0 0
-0.1529 -0.1182 -0.5494 -0.244 -0.956 0.165 88 70 46 0 0
-0.1549 -0.1095 -0.5935 -0.166 -0.943 0.289 88 69 43 0 0
-0.1551 -0.1099 -0.5950 -0.166 -0.943 0.289 75 54 29 0 0
-0.1554 -0.1016 -0.6184 -0.757 -0.644 -0.109 80 68 45 0 0
-0.1551 -0.0978 -0.6226 -0.589 -0.807 -0.046 77 65 41 0 0
-0.1551 -0.0972 -0.6248 -0.395 -0.898 -0.193 70 58 34 0 0
-0.1536 -0.0701 -0.6688 0.109 -0.984 -0.142 15 11 8 0 0
-0.1545 -0.0686 -0.6836 -0.349 -0.932 -0.101 14 10 9 0 0
-0.1556 -0.0733 -0.6863 0.167 -0.853 0.495 9 8 6 0 0
-0.1601 -0.0892 -0.7029 0.491 -0.640 0.591 38 31 25 0 0
-0.1672 -0.0933 -0.7787 0.220 -0.963 0.158 94 78 53 0 0
-0.1698 -0.1051 -0.7818 -0.116 -0.892 0.437 43 31 16 0 0
-0.1700 -0.1059 -0.7832 -0.488 -0.828 0.277 45 33 16 0 0
-0.1727 -0.1134 -0.7978 -0.249 -0.841 0.481 68 55 38 0 0
-0.1730 -0.1140 -0.7994 -0.204 -0.785 0.585 71 59 39 0 0
-0.1787 -0.1309 -0.8291 -0.626 -0.687 0.370 127 111 78 0 0
-0.1813 -0.1350 -0.8509 -0.440 -0.878 0.189 112 96 62 0 0
-0.1165 -0.0345 -0.2891 -0.425 -0.810 0.405 71 54 36 0 0
