ply
format ascii 1.0
element vertex 843
property float x
property float y
property float z
property float nx
property float ny
property float nz
property uchar diffuse_red
property uchar diffuse_green
property uchar diffuse_blue
property uchar class
property uchar detection
end_header
-0.2206 -0.0169 -0.8128 -0.916 -0.097 0.390 120 102 63 0 0
-0.2214 -0.0169 -0.8163 -0.956 -0.016 0.292 100 87 57 0 0
-0.2220 -0.0168 -0.8179 -0.978 0.032 0.207 83 75 48 0 0
-0.2238 -0.0169 -0.8206 -0.911 -0.111 0.396 56 45 25 0 0
-0.0204 -0.0252 -0.1750 -0.889 -0.320 0.328 143 126 83 0 0
-0.0350 -0.0254 -0.1968 -0.883 0.135 0.450 124 107 67 0 0
-0.0355 -0.0254 -0.1983 -0.901 0.109 0.419 98 84 54 0 0
-0.0410 -0.0252 -0.2126 -0.902 -0.345 0.260 153 137 96 0 0
-0.0417 -0.0252 -0.2139 -0.917 -0.263 0.301 164 152 110 0 0
-0.0447 -0.0250 -0.2242 -0.861 -0.301 0.411 104 92 56 0 0
-0.0485 -0.0248 -0.2389 -0.752 -0.359 0.553 56 50 34 0 0
-0.0495 -0.0248 -0.2402 -0.732 -0.354 0.583 48 43 30 0 0
-0.1107 -0.0276 -0.2816 -0.450 -0.209 0.868 117 104 89 0 0
-0.1257 -0.0281 -0.2957 -0.895 -0.224 0.385 145 127 92 0 0
-0.1264 -0.0281 -0.2970 -0.936 -0.200 0.290 169 150 117 0 0
-0.1518 -0.0277 -0.3556 -0.887 -0.149 -0.436 63 54 39 0 0
-0.1424 -0.0264 -0.3720 -0.774 -0.558 0.299 87 73 49 0 0
-0.1327 -0.0218 -0.4743 -0.887 -0.072 0.457 15 9 9 0 0
-0.1401 -0.0222 -0.4794 -0.946 -0.251 0.206 42 38 32 0 0
-0.1405 -0.0221 -0.4810 -0.946 -0.251 0.206 69 61 50 0 0
-0.1560 -0.0226 -0.4977 -0.855 -0.111 0.507 55 46 42 0 0
-0.1711 -0.0225 -0.5285 -0.983 0.155 -0.101 39 36 29 0 0
-0.1796 -0.0204 -0.6003 -0.610 -0.789 0.075 34 29 21 0 0
-0.1814 -0.0204 -0.6047 -0.651 -0.736 0.186 12 8 8 0 0
-0.1488 -0.0159 -0.6616 -0.769 -0.638 0.049 14 10 9 0 0
-0.1471 -0.0156 -0.6648 -0.815 -0.426 -0.393 13 9 8 0 0
-0.1537 -0.0161 -0.6642 -0.619 -0.590 0.519 11 7 6 0 0
-0.1537 -0.0160 -0.6682 -0.563 -0.796 0.221 7 4 3 0 0
-0.1563 -0.0154 -0.6885 -0.448 0.042 0.893 15 11 10 0 0
-0.1584 -0.0155 -0.6890 -0.511 -0.191 0.838 20 16 15 0 0
-0.1599 -0.0156 -0.6899 -0.511 -0.191 0.838 21 17 16 0 0
-0.1763 -0.0164 -0.6980 -0.098 -0.096 0.991 46 43 38 0 0
-0.2224 -0.0187 -0.7263 -0.813 0.350 0.465 119 104 75 0 0
-0.2160 -0.0175 -0.7457 -0.844 0.119 0.524 66 54 37 0 0
-0.2165 -0.0175 -0.7474 -0.946 0.074 0.316 89 76 56 0 0
-0.2037 -0.0149 -0.7896 -0.778 0.226 0.586 24 17 11 0 0
-0.2045 -0.0149 -0.7910 -0.855 0.092 0.511 29 21 15 0 0
-0.2053 -0.0149 -0.7924 -0.855 0.092 0.511 33 24 18 0 0
-0.2091 -0.0152 -0.7933 -0.932 -0.099 0.349 46 37 27 0 0
-0.2102 -0.0152 -0.7945 -0.956 -0.210 0.205 55 45 31 0 0
-0.2106 -0.0152 -0.7962 -0.895 -0.376 0.240 59 47 32 0 0
-0.2108 -0.0151 -0.7981 -0.922 -0.145 0.360 62 50 33 0 0
-0.2115 -0.0151 -0.7997 -0.922 -0.145 0.360 65 54 39 0 0
-0.2206 -0.0153 -0.8128 -0.922 -0.009 0.388 100 83 50 0 0
-0.2263 -0.0150 -0.8291 -0.812 -0.577 0.086 88 76 52 0 0
-0.0207 -0.0233 -0.1826 -0.852 -0.245 0.463 130 110 78 0 0
-0.0331 -0.0237 -0.1956 -0.839 0.185 0.511 164 148 98 0 0
-0.0338 -0.0237 -0.1970 -0.888 0.233 0.396 149 134 90 0 0
-0.0358 -0.0237 -0.2012 -0.924 0.162 0.346 160 143 104 0 0
-0.0365 -0.0237 -0.2026 -0.911 0.082 0.404 192 176 131 0 0
-0.0425 -0.0235 -0.2199 -0.968 0.164 0.188 124 109 76 0 0
-0.0490 -0.0232 -0.2387 -0.732 -0.354 0.583 35 26 18 0 0
-0.0501 -0.0233 -0.2401 -0.705 -0.257 0.661 29 20 13 0 0
-0.0504 -0.0232 -0.2416 -0.529 -0.166 0.832 48 39 29 0 0
-0.1267 -0.0267 -0.2969 -0.936 -0.200 0.290 129 115 86 0 0
-0.1537 -0.0267 -0.3485 -0.934 -0.191 0.302 52 42 34 0 0
-0.1542 -0.0266 -0.3499 -0.934 -0.191 0.302 48 39 29 0 0
-0.1546 -0.0266 -0.3513 -0.934 -0.191 0.302 53 44 29 0 0
-0.1502 -0.0239 -0.4131 -0.963 -0.163 0.215 79 67 43 0 0
-0.1507 -0.0239 -0.4146 -0.737 -0.369 0.566 79 68 41 0 0
-0.1431 -0.0207 -0.4814 -0.786 -0.398 0.473 63 54 47 0 0
-0.1564 -0.0210 -0.4992 -0.922 -0.176 0.345 43 36 33 0 0
-0.1678 -0.0205 -0.5340 -0.832 0.052 -0.552 36 33 27 0 0
-0.1807 -0.0189 -0.5996 -0.584 -0.809 0.064 36 29 19 0 0
-0.1819 -0.0186 -0.6101 -0.842 -0.522 -0.138 10 6 4 0 0
-0.1665 -0.0163 -0.6416 -0.728 -0.326 -0.604 7 5 4 0 0
-0.1626 -0.0158 -0.6462 -0.718 -0.309 -0.623 8 6 4 0 0
-0.1485 -0.0139 -0.6679 -0.345 -0.923 0.172 10 7 6 0 0
-0.2224 -0.0169 -0.7303 -0.994 0.106 0.023 101 90 58 0 0
-0.0082 -0.0219 -0.1556 -0.691 0.205 0.693 126 115 92 0 0
-0.0369 -0.0221 -0.2041 -0.854 -0.256 0.454 227 213 171 0 0
-0.1429 -0.0254 -0.3226 -0.948 -0.128 0.292 36 26 18 0 0
-0.1456 -0.0255 -0.3247 -0.732 -0.394 0.556 85 73 64 0 0
-0.1512 -0.0232 -0.3929 -0.959 -0.169 0.229 96 82 59 0 0
-0.1517 -0.0232 -0.3943 -0.941 -0.224 0.253 85 70 47 0 0
-0.1377 -0.0196 -0.4596 -0.991 -0.136 0.013 28 23 19 0 0
-0.1377 -0.0195 -0.4614 -0.990 0.129 0.056 26 21 17 0 0
-0.1428 -0.0192 -0.4799 -0.739 -0.068 0.670 48 40 35 0 0
-0.1542 -0.0195 -0.4934 -0.882 -0.109 0.459 70 63 56 0 0
-0.1654 -0.0200 -0.5033 -0.493 0.217 0.842 79 72 62 0 0
-0.1690 -0.0196 -0.5190 -0.964 -0.187 0.190 7 6 4 0 0
-0.1692 -0.0196 -0.5207 -0.895 -0.042 0.444 12 11 9 0 0
-0.1695 -0.0195 -0.5223 -0.871 -0.029 0.490 10 9 7 0 0
-0.1705 -0.0195 -0.5235 -0.912 0.039 0.409 15 14 12 0 0
-0.1638 -0.0124 -0.6931 -0.863 -0.000 0.505 23 19 17 0 0
-0.1817 -0.0135 -0.6980 -0.014 -0.270 0.963 44 38 31 0 0
-0.2180 -0.0157 -0.7119 -0.899 0.233 0.370 97 79 50 0 0
-0.2014 -0.0115 -0.7874 -0.995 0.068 0.080 18 14 10 0 0
-0.2075 -0.0121 -0.7842 -0.904 -0.341 0.259 21 16 12 0 0
-0.2092 -0.0119 -0.7912 -0.904 -0.023 0.427 32 25 17 0 0
-0.2117 -0.0118 -0.7996 -0.823 0.083 0.562 45 34 22 0 0
-0.2223 -0.0118 -0.8200 -0.959 0.040 0.282 115 100 66 0 0
-0.0077 -0.0203 -0.1556 -0.680 0.244 0.691 182 170 142 0 0
-0.0091 -0.0204 -0.1569 -0.680 0.244 0.691 219 204 171 0 0
-0.0385 -0.0205 -0.2083 -0.796 -0.075 0.601 216 200 156 0 0
-0.0945 -0.0230 -0.2537 -0.858 -0.315 0.405 121 103 79 0 0
-0.1206 -0.0237 -0.2848 -0.873 -0.299 0.384 151 133 102 0 0
-0.1422 -0.0240 -0.3197 -0.948 -0.128 0.292 54 46 36 0 0
-0.1426 -0.0239 -0.3211 -0.963 -0.090 0.255 48 39 31 0 0
-0.1431 -0.0239 -0.3225 -0.948 -0.128 0.292 32 22 17 0 0
-0.1506 -0.0231 -0.3576 -0.908 0.059 -0.416 79 67 46 0 0
-0.1489 -0.0218 -0.3856 -0.955 -0.262 0.139 94 82 56 0 0
-0.1502 -0.0219 -0.3868 -0.715 -0.563 0.415 94 80 54 0 0
-0.1399 -0.0182 -0.4603 -0.819 -0.187 0.543 24 19 16 0 0
-0.1435 -0.0176 -0.4812 -0.906 -0.044 0.422 42 36 30 0 0
-0.1689 -0.0186 -0.5049 -0.789 0.283 0.545 62 54 43 0 0
-0.1709 -0.0178 -0.5286 -0.980 -0.179 0.087 18 13 11 0 0
-0.1640 -0.0167 -0.5434 -0.799 -0.601 0.016 36 33 27 0 0
-0.1851 -0.0162 -0.5949 -0.916 -0.193 0.353 50 42 31 0 0
-0.1856 -0.0162 -0.5965 -0.909 -0.313 0.274 37 29 21 0 0
-0.1861 -0.0162 -0.5980 -0.860 -0.440 0.258 30 25 21 0 0
-0.1855 -0.0161 -0.6002 -0.803 -0.581 0.133 18 15 14 0 0
-0.1810 -0.0152 -0.6145 -0.842 -0.525 -0.125 75 63 48 0 0
-0.1627 -0.0125 -0.6462 -0.708 -0.356 -0.611 7 6 4 0 0
-0.1622 -0.0110 -0.6823 -0.768 -0.611 0.191 10 6 5 0 0
-0.2198 -0.0135 -0.7285 -0.969 0.111 0.220 136 118 80 0 0
-0.2084 -0.0103 -0.7877 -0.870 -0.164 0.464 27 19 15 0 0
-0.2129 -0.0101 -0.8007 -0.971 0.100 0.219 48 38 27 0 0
-0.2163 -0.0101 -0.8083 -0.906 0.373 0.199 75 63 39 0 0
-0.2200 -0.0101 -0.8157 -0.811 0.199 0.549 112 96 60 0 0
-0.2208 -0.0101 -0.8170 -0.811 0.199 0.549 121 107 67 0 0
-0.2210 -0.0100 -0.8190 -0.952 0.046 0.302 119 103 65 0 0
-0.2221 -0.0101 -0.8202 -0.766 0.027 0.642 119 102 67 0 0
-0.0086 -0.0187 -0.1570 -0.711 0.259 0.654 182 165 131 0 0
-0.0146 -0.0187 -0.1697 -0.793 0.113 0.599 126 111 88 0 0
-0.0394 -0.0190 -0.2096 -0.800 -0.037 0.599 182 164 114 0 0
-0.0379 -0.0188 -0.2115 -0.862 -0.281 0.422 134 117 74 0 0
-0.0425 -0.0189 -0.2183 -0.949 -0.017 0.313 83 66 39 0 0
-0.0937 -0.0215 -0.2524 -0.691 -0.583 0.427 120 102 80 0 0
-0.1262 -0.0223 -0.2923 -0.876 -0.230 0.424 42 32 21 0 0
-0.1271 -0.0224 -0.2936 -0.875 -0.289 0.387 40 30 20 0 0
-0.1430 -0.0225 -0.3194 -0.908 -0.332 0.255 42 37 29 0 0
-0.1434 -0.0225 -0.3208 -0.972 -0.204 0.121 33 24 17 0 0
-0.1444 -0.0225 -0.3236 -0.965 -0.093 0.244 51 40 31 0 0
-0.1518 -0.0205 -0.3861 -0.912 -0.141 0.384 95 81 56 0 0
-0.1528 -0.0206 -0.3873 -0.768 0.135 0.626 81 66 41 0 0
-0.1560 -0.0202 -0.4023 -0.861 -0.357 0.361 89 76 53 0 0
-0.1562 -0.0201 -0.4038 -0.826 -0.237 0.512 93 80 57 0 0
-0.1568 -0.0201 -0.4052 -0.981 -0.090 0.172 84 72 48 0 0
-0.1582 -0.0196 -0.4211 -0.662 -0.587 0.467 76 61 42 0 0
-0.1463 -0.0160 -0.4869 -0.799 -0.094 0.594 31 24 18 0 0
-0.1475 -0.0161 -0.4880 -0.513 -0.291 0.808 33 26 20 0 0
-0.1711 -0.0163 -0.5268 -0.966 -0.147 0.211 24 19 17 0 0
-0.1712 -0.0163 -0.5285 -0.980 -0.179 0.087 36 30 25 0 0
-0.1801 -0.0146 -0.5870 -0.382 -0.778 0.499 32 27 21 0 0
-0.1865 -0.0147 -0.5959 -0.953 -0.247 0.177 44 37 27 0 0
-0.1805 -0.0133 -0.6206 -0.982 -0.131 0.137 71 60 45 0 0
-0.1533 -0.0096 -0.6586 -0.706 -0.327 -0.628 14 10 9 0 0
-0.1481 -0.0090 -0.6642 -0.716 -0.296 -0.632 15 11 10 0 0
-0.1640 -0.0094 -0.6850 -0.802 -0.450 0.393 18 14 13 0 0
-0.1674 -0.0093 -0.6926 -0.816 -0.187 0.547 28 24 22 0 0
-0.1896 -0.0074 -0.7827 -0.735 -0.240 0.634 25 20 12 0 0
-0.1941 -0.0078 -0.7811 -0.972 -0.158 0.174 20 15 11 0 0
-0.2221 -0.0084 -0.8202 -0.890 0.101 0.444 121 107 69 0 0
-0.0792 -0.0192 -0.2437 -0.846 -0.338 0.412 120 105 78 0 0
-0.1429 -0.0211 -0.3194 -0.909 -0.340 0.242 38 33 25 0 0
-0.1434 -0.0210 -0.3208 -0.934 -0.314 0.170 32 25 18 0 0
-0.1505 -0.0213 -0.3277 -0.902 -0.243 0.357 194 176 142 0 0
-0.1533 -0.0204 -0.3549 -0.874 -0.064 -0.481 67 54 36 0 0
-0.1521 -0.0190 -0.3859 -0.868 0.076 0.491 84 69 46 0 0
-0.1536 -0.0191 -0.3869 -0.889 -0.028 0.458 87 72 50 0 0
-0.1557 -0.0187 -0.4008 -0.928 -0.319 0.195 107 93 67 0 0
-0.1561 -0.0187 -0.4023 -0.928 -0.319 0.195 90 75 53 0 0
-0.1568 -0.0187 -0.4036 -0.817 -0.282 0.502 80 67 45 0 0
-0.1570 -0.0186 -0.4052 -0.963 -0.249 0.104 80 68 43 0 0
-0.1581 -0.0187 -0.4063 -0.830 -0.315 0.460 85 73 49 0 0
-0.1589 -0.0187 -0.4076 -0.844 -0.154 0.514 82 70 46 0 0
-0.1444 -0.0145 -0.4808 -0.889 -0.045 0.456 30 24 21 0 0
-0.1450 -0.0145 -0.4823 -0.874 -0.013 0.486 37 30 25 0 0
-0.1466 -0.0146 -0.4832 -0.918 -0.055 0.393 41 34 28 0 0
-0.1616 -0.0150 -0.5036 -0.571 -0.161 0.805 66 58 55 0 0
-0.1641 -0.0151 -0.5040 -0.506 0.080 0.859 67 59 56 0 0
-0.1711 -0.0148 -0.5250 -0.993 -0.062 -0.098 30 26 23 0 0
-0.1713 -0.0148 -0.5266 -0.942 -0.282 0.183 60 54 50 0 0
-0.1714 -0.0147 -0.5284 -0.977 -0.207 0.050 46 39 33 0 0
-0.1791 -0.0130 -0.5839 -0.420 -0.749 0.512 35 29 22 0 0
-0.1799 -0.0130 -0.5852 -0.303 -0.763 0.571 34 29 23 0 0
-0.1844 -0.0133 -0.5879 -0.827 -0.510 0.238 43 35 27 0 0
-0.1862 -0.0129 -0.5998 -0.987 0.131 -0.091 55 49 40 0 0
-0.1859 -0.0128 -0.6019 -0.957 0.264 -0.123 27 23 18 0 0
-0.1819 -0.0119 -0.6159 -0.988 0.152 0.023 86 73 56 0 0
-0.1814 -0.0116 -0.6238 -0.979 0.175 0.105 68 61 49 0 0
-0.1542 -0.0081 -0.6580 -0.611 -0.562 -0.557 14 10 9 0 0
-0.1505 -0.0076 -0.6626 -0.666 -0.294 -0.686 16 12 11 0 0
-0.1490 -0.0073 -0.6656 -0.722 -0.065 -0.689 13 9 8 0 0
-0.1671 -0.0077 -0.6909 -0.787 0.109 0.607 29 25 24 0 0
-0.1725 -0.0080 -0.6949 -0.666 -0.189 0.722 30 27 22 0 0
-0.1894 -0.0057 -0.7829 -0.904 -0.208 0.373 20 14 8 0 0
-0.2222 -0.0068 -0.8180 -0.947 -0.019 0.321 127 112 74 0 0
-0.2217 -0.0067 -0.8206 -0.890 -0.277 0.361 124 109 71 0 0
-0.0078 -0.0155 -0.1585 -0.836 0.402 0.374 137 122 87 0 0
-0.0154 -0.0157 -0.1680 -0.969 -0.245 -0.041 189 176 140 0 0
-0.0129 -0.0154 -0.1699 -0.796 0.469 0.383 117 104 68 0 0
-0.0429 -0.0156 -0.2243 -0.842 -0.012 0.540 49 34 18 0 0
-0.0462 -0.0155 -0.2314 -0.917 0.049 0.395 54 42 26 0 0
-0.0802 -0.0177 -0.2450 -0.888 -0.351 0.297 75 65 39 0 0
-0.1429 -0.0196 -0.3178 -0.965 -0.240 0.107 80 71 60 0 0
-0.1435 -0.0196 -0.3192 -0.949 -0.181 0.258 50 41 31 0 0
-0.1439 -0.0196 -0.3206 -0.942 -0.228 0.248 27 20 14 0 0
-0.1443 -0.0196 -0.3220 -0.944 -0.155 0.290 41 32 24 0 0
-0.1532 -0.0189 -0.3549 -0.903 0.086 -0.422 65 52 34 0 0
-0.1517 -0.0180 -0.3731 -0.917 -0.362 0.168 88 73 50 0 0
-0.1539 -0.0177 -0.3852 -0.902 -0.297 0.315 95 81 55 0 0
-0.1544 -0.0177 -0.3866 -0.902 -0.297 0.315 93 79 53 0 0
-0.1565 -0.0173 -0.4004 -0.787 -0.499 0.363 77 63 37 0 0
-0.1572 -0.0173 -0.4017 -0.890 -0.385 0.244 80 65 44 0 0
-0.1577 -0.0173 -0.4032 -0.764 -0.555 0.329 76 62 40 0 0
-0.1581 -0.0172 -0.4047 -0.828 -0.513 0.225 77 65 40 0 0
-0.1585 -0.0172 -0.4061 -0.771 -0.489 0.408 79 67 43 0 0
-0.1548 -0.0149 -0.4548 -0.592 -0.778 0.211 24 18 15 0 0
-0.1557 -0.0149 -0.4561 -0.575 -0.750 0.328 26 21 17 0 0
-0.1534 -0.0146 -0.4589 -0.800 -0.187 -0.571 21 16 14 0 0
-0.1385 -0.0127 -0.4767 -0.797 0.418 0.436 15 11 10 0 0
-0.1569 -0.0133 -0.4972 -0.887 -0.260 0.381 23 17 14 0 0
-0.1575 -0.0132 -0.5005 -0.959 -0.217 0.185 21 15 15 0 0
-0.1656 -0.0137 -0.5049 -0.685 0.268 0.677 67 60 54 0 0
-0.1717 -0.0133 -0.5264 -0.942 -0.282 0.183 43 36 31 0 0
-0.1765 -0.0116 -0.5744 -0.838 -0.540 0.083 25 22 17 0 0
-0.1798 -0.0116 -0.5816 -0.395 -0.742 0.541 39 32 26 0 0
-0.1804 -0.0116 -0.5831 -0.433 -0.728 0.532 28 24 18 0 0
-0.1835 -0.0117 -0.5867 -0.854 0.121 0.506 36 31 26 0 0
-0.1860 -0.0113 -0.6000 -0.987 0.131 -0.091 49 40 34 0 0
-0.1846 -0.0111 -0.6028 -0.956 -0.292 0.007 47 40 37 0 0
-0.1848 -0.0110 -0.6045 -0.992 -0.023 0.122 14 10 8 0 0
-0.1632 -0.0075 -0.6478 -0.661 -0.492 -0.566 14 10 8 0 0
-0.1534 -0.0061 -0.6625 -0.892 0.297 -0.340 11 7 6 0 0
-0.1525 -0.0059 -0.6652 -0.896 0.341 -0.284 9 6 5 0 0
-0.1523 -0.0058 -0.6673 -0.912 0.407 -0.040 7 6 4 0 0
-0.1665 -0.0063 -0.6832 -0.797 -0.509 0.324 13 9 8 0 0
-0.2177 -0.0050 -0.8136 -0.909 -0.119 0.399 90 77 46 0 0
-0.0123 -0.0139 -0.1684 -0.876 0.432 0.216 166 150 114 0 0
-0.0117 -0.0138 -0.1701 -0.788 0.522 0.327 109 94 61 0 0
-0.0448 -0.0141 -0.2255 -0.817 0.291 0.498 51 41 24 0 0
-0.0812 -0.0164 -0.2416 -0.603 -0.606 0.519 119 104 73 0 0
-0.1271 -0.0180 -0.2920 -0.867 -0.313 0.388 170 156 122 0 0
-0.1285 -0.0180 -0.2946 -0.790 -0.430 0.437 186 175 133 0 0
-0.1336 -0.0178 -0.3085 -0.888 -0.127 0.442 29 20 13 0 0
-0.1444 -0.0181 -0.3220 -0.907 -0.200 0.371 58 49 39 0 0
-0.1511 -0.0171 -0.3573 -0.849 -0.426 0.312 96 82 58 0 0
-0.1517 -0.0167 -0.3699 -0.933 -0.150 0.327 75 59 42 0 0
-0.1522 -0.0166 -0.3713 -0.966 -0.048 0.254 70 55 37 0 0
-0.1521 -0.0166 -0.3730 -0.986 -0.128 0.103 75 59 41 0 0
-0.1570 -0.0160 -0.3953 -0.843 -0.534 0.064 106 89 63 0 0
-0.1572 -0.0136 -0.4537 -0.774 -0.573 0.268 29 24 21 0 0
-0.1571 -0.0135 -0.4554 -0.945 -0.125 -0.304 31 26 23 0 0
-0.1578 -0.0117 -0.5003 -0.956 -0.211 0.204 70 62 56 0 0
-0.1708 -0.0123 -0.5109 -0.937 0.107 0.333 54 47 37 0 0
-0.1723 -0.0117 -0.5261 -0.918 -0.365 0.153 46 38 32 0 0
-0.1664 -0.0100 -0.5549 -0.806 -0.590 -0.052 21 17 14 0 0
-0.1709 -0.0101 -0.5632 -0.821 0.205 0.532 22 18 17 0 0
-0.1719 -0.0101 -0.5644 -0.869 0.279 0.410 17 13 12 0 0
-0.1704 -0.0099 -0.5671 -0.596 -0.697 0.398 14 10 9 0 0
-0.1723 -0.0099 -0.5696 -0.864 -0.493 0.100 15 11 10 0 0
-0.1726 -0.0099 -0.5713 -0.864 -0.493 0.100 18 14 13 0 0
-0.1735 -0.0099 -0.5726 -0.729 -0.545 0.413 21 17 14 0 0
-0.1752 -0.0100 -0.5734 -0.870 -0.347 0.351 25 21 18 0 0
-0.1764 -0.0100 -0.5745 -0.820 -0.472 0.322 26 23 18 0 0
-0.1761 -0.0099 -0.5765 -0.701 -0.544 0.461 30 26 21 0 0
-0.1773 -0.0100 -0.5776 -0.682 -0.698 0.221 38 33 27 0 0
-0.1799 -0.0100 -0.5816 -0.755 -0.546 0.362 29 24 19 0 0
-0.1833 -0.0101 -0.5868 -0.854 0.121 0.506 39 36 31 0 0
-0.1849 -0.0095 -0.6026 -0.988 -0.155 0.010 35 30 27 0 0
-0.1848 -0.0095 -0.6045 -0.992 -0.023 0.122 26 21 18 0 0
-0.1572 -0.0051 -0.6540 -0.656 -0.333 -0.677 15 11 10 0 0
-0.1517 -0.0042 -0.6658 -0.907 0.319 -0.276 9 6 5 0 0
-0.1585 -0.0040 -0.6830 -0.958 -0.110 0.266 11 7 6 0 0
-0.1669 -0.0047 -0.6830 -0.879 -0.290 0.379 12 8 7 0 0
-0.1774 -0.0050 -0.6953 -0.510 -0.200 0.837 33 28 24 0 0
-0.1785 -0.0051 -0.6965 -0.639 -0.129 0.759 38 33 27 0 0
-0.1966 -0.0063 -0.7008 -0.308 0.378 0.873 61 52 41 0 0
-0.1879 -0.0021 -0.7843 -0.887 0.453 0.088 15 10 4 0 0
-0.0786 -0.0147 -0.2392 -0.571 -0.490 0.659 173 155 118 0 0
-0.1000 -0.0157 -0.2567 -0.828 -0.324 0.458 73 62 47 0 0
-0.1136 -0.0161 -0.2744 -0.834 -0.310 0.457 46 35 20 0 0
-0.1264 -0.0165 -0.2906 -0.849 -0.140 0.509 183 168 137 0 0
-0.1275 -0.0165 -0.2918 -0.852 -0.321 0.413 187 172 143 0 0
-0.1526 -0.0151 -0.3727 -0.966 -0.048 0.254 54 39 28 0 0
-0.1529 -0.0151 -0.3742 -0.970 -0.129 0.204 63 49 34 0 0
-0.1568 -0.0146 -0.3921 -0.935 -0.318 0.159 111 96 69 0 0
-0.1576 -0.0121 -0.4534 -0.853 -0.493 -0.171 60 52 46 0 0
-0.1567 -0.0119 -0.4556 -0.839 -0.267 -0.474 38 32 28 0 0
-0.1712 -0.0104 -0.5178 -0.985 -0.137 0.107 54 45 35 0 0
-0.1728 -0.0102 -0.5276 -0.942 -0.282 0.183 51 44 38 0 0
-0.1735 -0.0101 -0.5308 -0.942 -0.282 0.183 57 52 47 0 0
-0.1682 -0.0087 -0.5538 -0.785 -0.591 -0.185 22 18 14 0 0
-0.1659 -0.0082 -0.5588 -0.833 -0.504 0.227 31 27 23 0 0
-0.1703 -0.0084 -0.5635 -0.816 -0.033 0.578 21 17 14 0 0
-0.1716 -0.0084 -0.5664 -0.596 -0.697 0.398 22 17 16 0 0
-0.1723 -0.0084 -0.5678 -0.814 -0.576 0.078 27 22 22 0 0
-0.1726 -0.0083 -0.5695 -0.849 -0.516 0.118 27 22 22 0 0
-0.1742 -0.0084 -0.5722 -0.686 -0.575 0.446 20 15 14 0 0
-0.1751 -0.0084 -0.5735 -0.686 -0.575 0.446 21 16 15 0 0
-0.1764 -0.0084 -0.5745 -0.637 -0.569 0.520 23 18 16 0 0
-0.1772 -0.0084 -0.5759 -0.654 -0.610 0.448 27 23 20 0 0
-0.1829 -0.0085 -0.5853 -0.811 -0.089 0.579 24 22 20 0 0
-0.1838 -0.0085 -0.5865 -0.811 -0.089 0.579 28 24 23 0 0
-0.1849 -0.0086 -0.5877 -0.881 -0.048 0.471 27 23 21 0 0
-0.1854 -0.0079 -0.6042 -0.962 -0.246 -0.115 37 31 28 0 0
-0.1601 -0.0038 -0.6520 -0.679 -0.329 -0.656 14 11 10 0 0
-0.1510 -0.0024 -0.6663 -0.913 0.313 -0.261 11 7 6 0 0
-0.1512 -0.0024 -0.6681 -0.898 0.435 -0.069 8 5 4 0 0
-0.1586 -0.0023 -0.6830 -0.973 -0.179 0.145 9 7 6 0 0
-0.1947 -0.0045 -0.7023 -0.354 -0.140 0.925 61 52 43 0 0
-0.2099 -0.0013 -0.8057 -0.980 -0.199 0.016 79 66 46 0 0
-0.2104 -0.0013 -0.8074 -0.967 -0.209 0.147 77 62 42 0 0
-0.2169 -0.0011 -0.8231 -0.885 0.087 0.457 114 97 59 0 0
-0.0027 -0.0102 -0.1622 -0.674 0.730 0.112 176 169 154 0 0
-0.0823 -0.0134 -0.2413 -0.547 -0.367 0.753 198 185 145 0 0
-0.0849 -0.0135 -0.2437 -0.704 -0.343 0.621 54 46 29 0 0
-0.0858 -0.0136 -0.2450 -0.722 -0.473 0.505 37 31 18 0 0
-0.0869 -0.0136 -0.2463 -0.795 -0.373 0.479 33 26 18 0 0
-0.0890 -0.0137 -0.2488 -0.630 -0.259 0.732 63 51 39 0 0
-0.0955 -0.0142 -0.2487 -0.754 -0.027 0.656 163 146 125 0 0
-0.0965 -0.0142 -0.2500 -0.835 -0.045 0.549 184 166 143 0 0
-0.0974 -0.0142 -0.2528 -0.872 0.138 0.469 189 173 144 0 0
-0.1014 -0.0143 -0.2578 -0.951 -0.176 0.255 72 67 60 0 0
-0.1022 -0.0142 -0.2622 -0.970 -0.069 0.233 45 35 24 0 0
-0.1135 -0.0147 -0.2729 -0.840 0.098 0.534 65 50 35 0 0
-0.1146 -0.0147 -0.2741 -0.725 0.039 0.688 49 37 20 0 0
-0.1157 -0.0147 -0.2753 -0.802 -0.254 0.541 37 27 12 0 0
-0.1436 -0.0153 -0.3175 -0.908 -0.346 0.238 56 47 42 0 0
-0.1440 -0.0152 -0.3189 -0.878 -0.299 0.373 32 23 17 0 0
-0.1507 -0.0155 -0.3259 -0.935 -0.251 0.249 218 203 165 0 0
-0.1529 -0.0137 -0.3710 -0.942 -0.076 0.328 74 61 47 0 0
-0.1542 -0.0136 -0.3769 -0.996 0.024 0.089 72 58 42 0 0
-0.1702 -0.0074 -0.5489 -0.938 -0.325 -0.120 25 21 18 0 0
-0.1707 -0.0069 -0.5633 -0.782 -0.541 0.311 22 18 15 0 0
-0.1732 -0.0068 -0.5691 -0.868 -0.434 0.244 24 18 18 0 0
-0.1737 -0.0068 -0.5707 -0.774 0.247 0.583 18 12 12 0 0
-0.1783 -0.0067 -0.5807 -0.843 0.385 0.376 25 22 18 0 0
-0.1871 -0.0069 -0.5937 -0.998 0.014 0.054 21 16 16 0 0
-0.1872 -0.0069 -0.5955 -0.998 0.014 0.054 22 17 15 0 0
-0.1814 -0.0053 -0.6201 -0.997 -0.072 -0.021 29 22 18 0 0
-0.1803 -0.0051 -0.6227 -1.000 -0.021 0.017 18 13 10 0 0
-0.1811 -0.0048 -0.6317 -0.869 0.323 0.374 53 44 35 0 0
-0.1527 -0.0009 -0.6671 -0.856 0.463 0.232 10 6 5 0 0
-0.1589 -0.0007 -0.6828 -0.973 -0.179 0.145 9 8 6 0 0
-0.1597 -0.0007 -0.6842 -0.385 -0.363 0.849 9 8 6 0 0
-0.2007 -0.0032 -0.7058 -0.524 0.349 0.777 65 55 46 0 0
-0.2148 -0.0037 -0.7207 -0.956 0.110 0.271 57 47 29 0 0
-0.1858 0.0015 -0.7862 -0.886 0.392 -0.249 23 16 9 0 0
-0.2092 0.0003 -0.8021 -0.979 -0.128 0.160 85 69 46 0 0
-0.2100 0.0003 -0.8036 -0.914 -0.401 0.068 72 57 33 0 0
-0.2100 0.0004 -0.8057 -0.904 -0.413 0.109 72 60 35 0 0
-0.2103 0.0006 -0.8119 -0.960 -0.266 0.086 84 71 48 0 0
-0.0864 -0.0121 -0.2449 -0.729 -0.346 0.590 26 21 13 0 0
-0.0875 -0.0121 -0.2461 -0.847 -0.120 0.518 26 20 15 0 0
-0.0879 -0.0121 -0.2475 -1.000 0.001 -0.022 50 41 31 0 0
-0.1025 -0.0128 -0.2606 -0.650 -0.214 0.730 42 33 22 0 0
-0.1029 -0.0128 -0.2620 -0.918 -0.338 0.208 39 29 20 0 0
-0.1322 -0.0137 -0.2965 -0.819 -0.118 0.561 129 117 89 0 0
-0.1552 -0.0142 -0.3290 -0.891 -0.230 0.391 89 79 56 0 0
-0.1553 -0.0132 -0.3541 -0.585 -0.778 0.231 70 58 41 0 0
-0.1531 -0.0122 -0.3709 -0.899 -0.431 0.076 87 75 59 0 0
-0.1639 -0.0070 -0.5112 -0.892 0.236 0.387 30 23 17 0 0
-0.1720 -0.0061 -0.5461 -0.998 -0.017 0.063 38 36 33 0 0
-0.1718 -0.0060 -0.5480 -0.979 -0.133 0.153 20 16 13 0 0
-0.1849 -0.0059 -0.5766 -0.918 -0.293 0.267 26 22 18 0 0
-0.1853 -0.0059 -0.5782 -0.982 -0.188 0.033 26 22 18 0 0
-0.1858 -0.0058 -0.5797 -0.987 -0.131 0.090 25 21 17 0 0
-0.1537 0.0007 -0.6664 -0.592 0.159 0.790 10 6 5 0 0
-0.1594 0.0009 -0.6824 -0.651 -0.653 0.386 8 7 5 0 0
-0.1657 0.0003 -0.6799 -0.806 0.568 0.166 9 8 6 0 0
-0.2132 -0.0023 -0.7120 -0.813 -0.072 0.577 49 39 30 0 0
-0.2152 -0.0020 -0.7244 -0.958 0.217 0.187 38 27 14 0 0
-0.1859 0.0032 -0.7861 -0.809 0.585 -0.059 27 18 12 0 0
-0.2093 0.0019 -0.8021 -0.902 -0.310 0.300 90 74 47 0 0
-0.2098 0.0020 -0.8038 -0.902 -0.310 0.300 85 69 41 0 0
-0.2107 0.0020 -0.8051 -0.934 -0.321 0.160 81 67 40 0 0
-0.2105 0.0021 -0.8075 -0.961 -0.270 0.063 95 81 54 0 0
-0.2107 0.0022 -0.8115 -0.960 -0.266 0.086 95 82 57 0 0
-0.2132 0.0021 -0.8135 -0.854 -0.126 0.506 111 97 70 0 0
-0.2141 0.0023 -0.8192 -0.487 0.306 0.818 106 91 59 0 0
-0.0855 -0.0105 -0.2450 -1.000 -0.030 -0.002 21 16 9 0 0
-0.0889 -0.0106 -0.2488 -0.616 -0.073 0.784 77 67 57 0 0
-0.1006 -0.0112 -0.2595 -0.898 -0.220 0.381 58 54 44 0 0
-0.1031 -0.0112 -0.2635 -0.872 -0.026 0.489 60 49 41 0 0
-0.1146 -0.0117 -0.2741 -0.944 0.076 0.322 55 41 24 0 0
-0.1291 -0.0122 -0.2912 -0.863 -0.089 0.497 79 62 41 0 0
-0.1304 -0.0123 -0.2924 -0.906 -0.045 0.422 92 74 49 0 0
-0.1313 -0.0123 -0.2936 -0.913 -0.026 0.407 177 160 130 0 0
-0.1326 -0.0123 -0.2963 -0.909 -0.034 0.415 193 181 146 0 0
-0.1332 -0.0123 -0.2977 -0.909 -0.034 0.415 184 173 143 0 0
-0.1356 -0.0123 -0.3015 -0.799 -0.323 0.507 52 43 34 0 0
-0.1519 -0.0109 -0.3649 -0.919 -0.017 0.394 60 43 30 0 0
-0.1518 -0.0108 -0.3666 -0.903 -0.006 0.430 73 57 40 0 0
-0.1591 -0.0105 -0.3878 -0.796 -0.282 0.535 95 80 54 0 0
-0.1605 -0.0105 -0.3905 -0.910 -0.089 0.405 114 100 75 0 0
-0.1635 -0.0099 -0.4088 -0.882 -0.005 0.470 85 73 46 0 0
-0.1569 -0.0073 -0.4555 -0.660 -0.558 -0.504 53 44 33 0 0
-0.1544 -0.0069 -0.4584 -0.638 -0.506 -0.581 34 28 23 0 0
-0.1731 -0.0036 -0.5692 -0.882 -0.066 0.466 20 14 14 0 0
-0.1853 -0.0044 -0.5764 -0.918 -0.293 0.267 27 23 19 0 0
-0.1868 -0.0043 -0.5810 -0.981 0.108 0.163 32 27 23 0 0
-0.1872 -0.0042 -0.5825 -0.954 0.149 0.260 28 24 20 0 0
-0.1852 -0.0039 -0.5857 -0.849 -0.456 0.265 25 22 17 0 0
-0.1857 -0.0039 -0.5872 -0.858 -0.468 0.212 20 17 13 0 0
-0.1790 -0.0011 -0.6371 -0.879 -0.420 -0.224 18 14 11 0 0
-0.1570 0.0028 -0.6822 -0.100 0.771 0.629 7 5 6 0 0
-0.1958 0.0005 -0.7056 -0.626 -0.083 0.775 62 54 46 0 0
-0.2027 -0.0001 -0.7063 -0.526 -0.294 0.798 67 59 50 0 0
-0.2048 -0.0002 -0.7066 -0.720 -0.164 0.674 67 59 48 0 0
-0.2135 -0.0004 -0.7198 -0.918 0.228 0.324 52 35 23 0 0
-0.2140 -0.0004 -0.7213 -0.918 0.228 0.324 46 29 16 0 0
-0.2145 -0.0003 -0.7230 -0.925 0.208 0.318 47 31 17 0 0
-0.1866 0.0046 -0.7792 -0.890 0.254 0.379 70 54 40 0 0
-0.1874 0.0046 -0.7806 -0.815 0.351 0.461 43 29 19 0 0
-0.2143 0.0037 -0.8126 -0.750 -0.377 0.543 136 120 93 0 0
-0.2129 0.0040 -0.8182 -0.739 0.078 0.669 98 85 58 0 0
-0.2170 0.0044 -0.8340 -0.914 -0.333 0.231 92 82 56 0 0
-0.0867 -0.0090 -0.2462 -0.788 0.360 0.500 29 22 14 0 0
-0.0982 -0.0097 -0.2540 -0.836 -0.279 0.472 113 98 78 0 0
-0.1005 -0.0096 -0.2611 -0.801 -0.222 0.556 42 35 23 0 0
-0.1011 -0.0096 -0.2624 -0.900 -0.252 0.355 31 22 12 0 0
-0.1100 -0.0102 -0.2661 -0.890 0.270 0.367 222 207 177 0 0
-0.1293 -0.0107 -0.2912 -0.903 -0.123 0.412 110 93 70 0 0
-0.1308 -0.0107 -0.2938 -0.845 -0.207 0.493 150 133 105 0 0
-0.1325 -0.0108 -0.2963 -0.888 -0.207 0.411 121 106 75 0 0
-0.1330 -0.0108 -0.2977 -0.851 -0.208 0.481 191 177 147 0 0
-0.1351 -0.0108 -0.3001 -0.805 -0.099 0.585 64 55 39 0 0
-0.1353 -0.0106 -0.3062 -0.929 -0.153 0.336 26 17 14 0 0
-0.1583 -0.0113 -0.3341 -0.903 -0.338 0.267 44 35 22 0 0
-0.1596 -0.0113 -0.3383 -0.959 -0.109 0.262 48 39 29 0 0
-0.1598 -0.0111 -0.3413 -0.994 0.054 -0.100 69 56 40 0 0
-0.1523 -0.0094 -0.3664 -0.759 -0.059 0.648 70 57 41 0 0
-0.1617 -0.0090 -0.3932 -0.926 -0.176 0.334 81 65 41 0 0
-0.1680 -0.0082 -0.4217 -0.872 -0.433 0.227 106 92 66 0 0
-0.1589 -0.0060 -0.4545 -0.647 -0.583 -0.492 57 45 32 0 0
-0.1562 -0.0056 -0.4575 -0.599 -0.599 -0.532 44 34 25 0 0
-0.2013 -0.0092 -0.4654 -0.460 -0.286 0.841 28 21 14 0 0
-0.2028 -0.0093 -0.4662 -0.462 -0.174 0.869 25 17 11 0 0
-0.1682 -0.0038 -0.5213 -0.972 0.143 0.186 32 25 22 0 0
-0.1704 -0.0037 -0.5272 -0.960 0.188 0.209 30 21 22 0 0
-0.1849 -0.0029 -0.5729 -0.948 -0.202 0.246 30 26 21 0 0
-0.1853 -0.0029 -0.5745 -0.948 -0.202 0.246 26 22 18 0 0
-0.1866 -0.0027 -0.5811 -0.981 0.108 0.163 22 18 14 0 0
-0.1790 0.0005 -0.6371 -0.904 -0.311 -0.294 21 15 14 0 0
-0.1511 0.0043 -0.6663 -0.579 -0.713 0.396 12 8 8 0 0
-0.1641 0.0037 -0.6791 -0.890 0.444 -0.100 7 6 4 0 0
-0.2012 0.0017 -0.7054 -0.519 -0.121 0.846 52 46 41 0 0
-0.2131 0.0013 -0.7201 -0.865 0.018 0.501 71 56 39 0 0
-0.2139 0.0013 -0.7215 -0.865 0.018 0.501 53 40 23 0 0
-0.1863 0.0063 -0.7795 -0.890 0.254 0.379 67 52 38 0 0
-0.1869 0.0063 -0.7811 -0.890 0.254 0.379 44 32 21 0 0
-0.1888 0.0062 -0.7816 -0.880 -0.041 0.473 32 23 15 0 0
-0.1966 0.0059 -0.7898 -0.888 0.243 0.391 128 109 69 0 0
-0.2067 0.0053 -0.7959 -0.862 0.443 0.246 46 30 14 0 0
-0.2078 0.0053 -0.7992 -0.880 0.020 0.474 56 40 19 0 0
-0.2106 0.0052 -0.8032 -0.871 -0.269 0.412 99 84 55 0 0
-0.2113 0.0053 -0.8047 -0.830 -0.426 0.361 86 73 46 0 0
-0.2146 0.0053 -0.8124 -0.779 -0.248 0.576 152 136 103 0 0
-0.2145 0.0054 -0.8146 -0.885 -0.073 0.460 121 109 81 0 0
-0.0830 -0.0074 -0.2425 -0.894 0.342 0.290 51 41 27 0 0
-0.1009 -0.0081 -0.2609 -0.910 0.033 0.412 39 31 24 0 0
-0.1327 -0.0093 -0.2962 -0.855 -0.045 0.517 83 67 44 0 0
-0.1346 -0.0091 -0.3049 -0.997 -0.005 -0.082 19 13 11 0 0
-0.1455 -0.0097 -0.3137 -0.920 -0.144 0.365 53 45 37 0 0
-0.1562 -0.0099 -0.3286 -0.851 -0.003 0.526 43 33 23 0 0
-0.1584 -0.0099 -0.3340 -0.899 -0.150 0.411 89 86 68 0 0
-0.1594 -0.0098 -0.3368 -0.979 0.003 0.202 60 52 42 0 0
-0.1597 -0.0098 -0.3382 -0.971 -0.061 0.232 65 57 44 0 0
-0.1598 -0.0097 -0.3413 -0.994 0.054 -0.100 84 71 51 0 0
-0.1595 -0.0096 -0.3430 -0.965 -0.074 -0.251 103 91 71 0 0
-0.1566 -0.0089 -0.3520 -0.983 0.091 -0.163 66 53 37 0 0
-0.1543 -0.0079 -0.3688 -0.908 -0.223 0.354 41 28 19 0 0
-0.1590 -0.0075 -0.3862 -0.880 0.018 0.475 73 56 35 0 0
-0.1611 -0.0076 -0.3902 -0.877 -0.029 0.480 101 85 61 0 0
-0.1618 -0.0075 -0.3916 -0.928 0.034 0.371 84 67 44 0 0
-0.1691 -0.0075 -0.4079 -0.882 0.160 0.443 72 56 31 0 0
-0.1700 -0.0063 -0.4357 -0.782 0.079 0.618 118 104 77 0 0
-0.1682 -0.0060 -0.4382 -0.959 0.157 0.235 101 87 60 0 0
-0.1626 -0.0023 -0.5083 -0.922 0.062 0.381 41 36 32 0 0
-0.1725 -0.0007 -0.5622 -0.980 -0.194 -0.046 31 26 22 0 0
-0.1866 -0.0011 -0.5811 -0.981 -0.022 0.194 77 70 62 0 0
-0.1789 0.0022 -0.6372 -0.924 -0.266 -0.275 29 22 21 0 0
-0.1625 0.0056 -0.6803 -0.961 -0.027 -0.275 8 7 5 0 0
-0.1619 0.0058 -0.6828 -0.961 0.129 -0.245 9 8 6 0 0
-0.1880 0.0041 -0.6976 -0.584 -0.607 0.539 68 55 39 0 0
-0.1904 0.0040 -0.6997 -0.686 -0.485 0.542 32 27 21 0 0
-0.1981 0.0036 -0.7058 -0.556 -0.099 0.825 49 42 39 0 0
-0.2010 0.0033 -0.7056 -0.485 -0.317 0.815 50 46 42 0 0
-0.2125 0.0026 -0.7126 -0.789 0.390 0.476 67 55 32 0 0
-0.2131 0.0029 -0.7201 -0.913 0.225 0.341 105 92 74 0 0
-0.2137 0.0029 -0.7217 -0.809 0.269 0.522 72 60 42 0 0
-0.2143 0.0029 -0.7232 -0.923 0.168 0.347 73 62 45 0 0
-0.1860 0.0080 -0.7797 -0.945 -0.063 0.322 51 39 27 0 0
-0.1866 0.0081 -0.7814 -0.951 -0.060 0.302 37 26 16 0 0
-0.1870 0.0081 -0.7832 -0.958 -0.012 0.287 35 25 16 0 0
-0.1967 0.0076 -0.7898 -0.741 -0.036 0.671 127 107 74 0 0
-0.1978 0.0075 -0.7910 -0.730 -0.179 0.660 109 93 63 0 0
-0.2116 0.0069 -0.8044 -0.741 -0.319 0.591 99 88 56 0 0
-0.2106 0.0072 -0.8096 -0.985 -0.138 0.100 94 81 56 0 0
-0.2136 0.0071 -0.8134 -0.991 -0.125 0.044 160 144 110 0 0
-0.2154 0.0078 -0.8311 -0.997 0.010 -0.071 99 87 56 0 0
-0.2155 0.0079 -0.8333 -0.993 0.122 0.005 93 82 54 0 0
-0.2149 0.0082 -0.8404 -0.668 0.418 0.616 87 71 39 0 0
-0.0827 -0.0056 -0.2472 -0.890 0.451 0.063 29 22 16 0 0
-0.0999 -0.0068 -0.2550 -0.884 -0.298 0.360 45 33 26 0 0
-0.1274 -0.0078 -0.2871 -0.873 0.010 0.488 123 112 86 0 0
-0.1348 -0.0077 -0.3033 -0.995 0.059 0.076 16 11 9 0 0
-0.1451 -0.0082 -0.3123 -0.920 -0.144 0.365 67 59 51 0 0
-0.1457 -0.0082 -0.3136 -0.920 -0.144 0.365 34 27 21 0 0
-0.1527 -0.0084 -0.3236 -0.845 -0.321 0.427 194 178 144 0 0
-0.1598 -0.0084 -0.3366 -0.979 -0.033 0.200 50 41 34 0 0
-0.1611 -0.0060 -0.3902 -0.867 0.064 0.495 88 73 52 0 0
-0.2138 -0.0071 -0.4705 -0.691 -0.404 0.599 65 54 41 0 0
-0.1625 -0.0007 -0.5084 -0.922 0.062 0.381 30 26 22 0 0
-0.1707 0.0003 -0.5451 -0.889 0.352 0.293 24 18 17 0 0
-0.1711 0.0003 -0.5466 -0.921 0.258 0.291 31 26 23 0 0
-0.1732 0.0008 -0.5618 -0.904 -0.241 0.354 42 35 28 0 0
-0.1738 0.0008 -0.5633 -0.904 -0.241 0.354 38 32 25 0 0
-0.1824 0.0001 -0.5654 -0.851 0.033 0.524 38 31 24 0 0
-0.1837 0.0002 -0.5682 -0.898 0.160 0.410 41 32 26 0 0
-0.1857 0.0003 -0.5743 -0.943 -0.070 0.327 74 63 48 0 0
-0.1607 0.0075 -0.6816 -0.875 0.125 -0.468 8 7 5 0 0
-0.1581 0.0079 -0.6855 -0.851 0.184 -0.492 9 8 6 0 0
-0.1965 0.0053 -0.7052 -0.896 0.015 0.443 42 37 33 0 0
-0.1980 0.0052 -0.7060 -0.630 0.118 0.767 42 38 34 0 0
-0.2124 0.0046 -0.7208 -0.739 0.520 0.428 109 97 78 0 0
-0.2143 0.0046 -0.7233 -0.869 0.008 0.495 74 65 48 0 0
-0.2169 0.0044 -0.7251 -0.961 -0.277 0.000 78 66 49 0 0
-0.2153 0.0047 -0.7285 -0.989 0.003 -0.147 66 56 39 0 0
-0.2149 0.0049 -0.7309 -0.910 0.376 0.175 51 43 24 0 0
-0.1857 0.0098 -0.7800 -0.942 -0.067 0.330 37 29 18 0 0
-0.1863 0.0098 -0.7817 -0.942 -0.067 0.330 33 25 15 0 0
-0.2077 0.0093 -0.8123 -0.952 0.300 -0.060 104 90 62 0 0
-0.2078 0.0094 -0.8144 -0.921 0.365 -0.135 94 83 54 0 0
-0.2136 0.0097 -0.8329 -0.992 0.101 0.081 93 83 53 0 0
-0.2140 0.0098 -0.8347 -0.997 0.055 0.046 90 79 52 0 0
-0.2141 0.0099 -0.8368 -0.997 0.055 0.046 76 63 35 0 0
-0.2145 0.0102 -0.8452 -0.997 -0.071 -0.031 111 97 62 0 0
-0.2102 0.0117 -0.8692 -0.942 0.314 -0.121 118 112 108 0 0
-0.2099 0.0118 -0.8718 -0.970 0.234 0.060 138 134 134 0 0
-0.1003 -0.0053 -0.2549 -0.825 -0.133 0.548 55 44 35 0 0
-0.1009 -0.0052 -0.2593 -0.997 -0.021 0.079 46 36 26 0 0
-0.1341 -0.0062 -0.3019 -0.942 -0.010 0.336 49 40 31 0 0
-0.1359 -0.0062 -0.3060 -0.871 0.204 0.447 58 50 41 0 0
-0.1563 -0.0070 -0.3285 -0.898 -0.073 0.434 62 52 36 0 0
-0.1599 -0.0069 -0.3366 -0.979 -0.033 0.200 48 39 34 0 0
-0.1596 -0.0045 -0.3876 -0.911 0.099 0.401 103 90 66 0 0
-0.1611 -0.0045 -0.3902 -0.917 -0.027 0.398 81 67 45 0 0
-0.1617 -0.0045 -0.3916 -0.924 -0.068 0.377 101 87 67 0 0
-0.1627 0.0008 -0.5083 -0.926 -0.172 0.336 26 22 18 0 0
-0.1628 0.0009 -0.5100 -0.896 0.013 0.443 58 53 48 0 0
-0.1624 0.0011 -0.5120 -0.809 0.160 0.565 127 119 110 0 0
-0.1704 0.0019 -0.5452 -0.907 0.277 0.316 19 14 11 0 0
-0.1710 0.0023 -0.5558 -0.986 0.156 0.050 52 46 40 0 0
-0.1721 0.0024 -0.5588 -0.986 -0.023 0.167 41 35 27 0 0
-0.1810 0.0017 -0.5626 -0.769 -0.254 0.587 43 36 29 0 0
-0.1820 0.0017 -0.5638 -0.860 -0.119 0.495 53 46 38 0 0
-0.1835 0.0018 -0.5684 -0.898 0.160 0.410 54 45 33 0 0
-0.1858 0.0018 -0.5743 -0.943 -0.070 0.327 69 56 39 0 0
-0.1877 0.0021 -0.5841 -0.961 -0.023 0.274 77 68 56 0 0
-0.1880 0.0022 -0.5858 -0.923 0.198 0.330 60 51 38 0 0
-0.1896 0.0025 -0.5959 -0.925 -0.380 -0.004 84 71 55 0 0
-0.1898 0.0027 -0.5995 -0.962 -0.230 0.146 69 55 38 0 0
-0.1906 0.0026 -0.6009 -0.919 -0.019 0.393 113 97 77 0 0
-0.1607 0.0094 -0.6857 -0.153 -0.310 0.938 9 8 6 0 0
-0.2149 0.0065 -0.7309 -0.746 0.506 0.433 70 60 42 0 0
-0.1853 0.0114 -0.7783 -0.909 -0.243 0.338 54 47 35 0 0
-0.1859 0.0115 -0.7800 -0.947 -0.035 0.318 36 29 19 0 0
-0.1864 0.0115 -0.7816 -0.947 -0.035 0.318 28 20 11 0 0
-0.2140 0.0117 -0.8392 -0.947 0.095 0.306 80 64 37 0 0
-0.1527 -0.0054 -0.3236 -0.925 0.035 0.380 167 152 124 0 0
-0.1556 -0.0055 -0.3272 -0.900 -0.034 0.434 89 77 55 0 0
-0.1572 -0.0055 -0.3297 -0.924 -0.061 0.378 75 66 55 0 0
-0.1579 -0.0055 -0.3310 -0.948 -0.125 0.291 46 37 29 0 0
-0.1590 -0.0055 -0.3337 -0.899 -0.177 0.401 33 24 15 0 0
-0.1594 -0.0055 -0.3352 -0.854 -0.067 0.516 35 26 18 0 0
-0.1583 -0.0033 -0.3784 -0.696 -0.291 0.657 74 63 45 0 0
-0.2070 -0.0039 -0.4607 -0.554 -0.503 0.663 119 104 74 0 0
-0.1626 0.0023 -0.5066 -0.847 -0.425 0.320 30 23 17 0 0
-0.1618 0.0025 -0.5088 -0.926 0.122 0.358 23 18 13 0 0
-0.1613 0.0027 -0.5109 -0.895 0.250 0.368 56 50 44 0 0
-0.1711 0.0037 -0.5521 -0.996 0.007 0.086 38 33 30 0 0
-0.1715 0.0038 -0.5555 -0.950 -0.019 0.312 52 45 40 0 0
-0.1721 0.0039 -0.5570 -0.970 0.068 0.234 41 33 28 0 0
-0.1851 0.0034 -0.5729 -0.930 0.090 0.357 74 65 48 0 0
-0.1868 0.0036 -0.5810 -0.978 -0.018 0.206 71 61 46 0 0
-0.1873 0.0037 -0.5825 -0.993 0.007 0.120 90 82 69 0 0
-0.1881 0.0038 -0.5876 -0.980 -0.023 0.196 69 59 46 0 0
-0.1885 0.0039 -0.5892 -0.953 -0.048 0.299 82 72 61 0 0
-0.1888 0.0039 -0.5908 -0.974 0.063 0.216 58 49 37 0 0
-0.1893 0.0040 -0.5924 -0.934 0.065 0.352 66 56 40 0 0
-0.1899 0.0040 -0.5938 -0.953 -0.048 0.299 101 90 73 0 0
-0.1905 0.0040 -0.5953 -0.976 0.118 0.185 80 68 52 0 0
-0.1912 0.0041 -0.5986 -0.907 0.335 0.257 66 50 32 0 0
-0.1663 0.0088 -0.6498 -0.763 -0.193 -0.617 11 8 9 0 0
-0.1619 0.0107 -0.6808 -0.665 -0.611 -0.430 6 5 3 0 0
-0.1949 0.0087 -0.7044 -0.832 -0.059 0.552 16 13 11 0 0
-0.2005 0.0083 -0.7061 -0.406 -0.138 0.903 45 42 37 0 0
-0.1927 0.0120 -0.7679 -0.811 0.081 -0.579 38 31 24 0 0
-0.1855 0.0130 -0.7761 -0.966 -0.259 0.010 54 45 34 0 0
-0.1857 0.0131 -0.7780 -0.909 -0.243 0.338 78 68 56 0 0
-0.1859 0.0132 -0.7799 -0.942 -0.067 0.330 51 41 30 0 0
-0.1865 0.0132 -0.7816 -0.947 -0.035 0.318 39 30 19 0 0
-0.1997 0.0126 -0.7958 -0.796 0.021 0.605 78 65 46 0 0
-0.2134 0.0134 -0.8397 -0.913 0.196 0.358 75 59 33 0 0
-0.2141 0.0135 -0.8413 -0.913 0.196 0.358 89 73 43 0 0
-0.2084 0.0153 -0.8689 -0.970 0.210 0.124 107 104 97 0 0
0.0048 0.0035 -0.1693 -0.670 -0.069 0.739 177 177 178 0 0
0.0038 0.0034 -0.1707 -0.824 0.227 0.520 177 177 178 0 0
-0.0006 0.0036 -0.1824 -0.819 0.258 0.512 167 153 121 0 0
-0.0030 0.0036 -0.1867 -0.885 0.360 0.297 141 123 83 0 0
-0.0034 0.0036 -0.1882 -0.868 0.305 0.392 120 105 67 0 0
-0.0776 -0.0007 -0.2438 -0.621 0.764 0.175 83 74 57 0 0
-0.1137 -0.0029 -0.2696 -0.965 -0.098 0.242 83 67 43 0 0
-0.1346 -0.0031 -0.3048 -0.948 -0.004 0.318 56 48 40 0 0
-0.1568 -0.0041 -0.3283 -0.924 -0.061 0.378 97 88 70 0 0
-0.1597 -0.0040 -0.3366 -0.935 0.057 0.351 69 58 42 0 0
-0.1730 -0.0015 -0.4144 -0.950 -0.262 0.172 114 98 73 0 0
-0.1733 -0.0014 -0.4159 -0.950 -0.262 0.172 108 93 67 0 0
-0.1615 0.0041 -0.5089 -0.810 0.464 0.359 38 29 23 0 0
-0.1614 0.0042 -0.5108 -0.867 0.405 0.290 52 44 37 0 0
-0.1698 0.0054 -0.5511 -0.986 -0.076 0.146 50 45 42 0 0
-0.1703 0.0054 -0.5526 -0.824 -0.284 0.490 28 23 20 0 0
-0.1715 0.0056 -0.5592 -0.842 0.299 0.449 32 26 21 0 0
-0.1835 0.0050 -0.5702 -0.969 -0.069 0.235 37 31 22 0 0
-0.1870 0.0064 -0.6051 -0.972 0.218 0.086 61 50 34 0 0
-0.1860 0.0067 -0.6096 -0.862 0.269 0.429 38 26 16 0 0
-0.1874 0.0067 -0.6124 -0.862 0.269 0.429 48 35 23 0 0
-0.1875 0.0067 -0.6142 -0.967 0.125 0.224 41 29 16 0 0
-0.1875 0.0106 -0.6940 -0.978 0.033 0.206 64 51 34 0 0
-0.1879 0.0106 -0.6957 -0.978 0.033 0.206 79 65 45 0 0
-0.1964 0.0130 -0.7627 -0.807 -0.070 -0.587 35 28 19 0 0
-0.1927 0.0137 -0.7680 -0.807 -0.070 -0.587 36 29 21 0 0
-0.1858 0.0148 -0.7780 -0.967 0.071 0.243 57 44 34 0 0
-0.1862 0.0148 -0.7798 -0.967 0.071 0.243 46 34 22 0 0
-0.1866 0.0149 -0.7815 -0.967 0.071 0.243 39 31 19 0 0
0.0046 0.0054 -0.1755 -0.956 0.021 -0.292 178 177 176 0 0
0.0029 0.0053 -0.1783 -0.989 0.147 -0.029 177 176 175 0 0
0.0030 0.0054 -0.1799 -0.706 -0.294 0.644 178 175 175 0 0
0.0030 0.0055 -0.1814 -0.616 -0.174 0.768 178 172 169 0 0
0.0016 0.0054 -0.1827 -0.644 -0.144 0.752 166 160 145 0 0
-0.0003 0.0053 -0.1840 -0.861 0.027 0.508 149 137 111 0 0
-0.0018 0.0052 -0.1853 -0.885 0.360 0.297 129 115 84 0 0
-0.0023 0.0052 -0.1867 -0.885 0.360 0.297 120 107 72 0 0
-0.0028 0.0053 -0.1882 -0.868 0.305 0.392 116 100 69 0 0
-0.0035 0.0053 -0.1897 -0.868 0.305 0.392 95 81 49 0 0
-0.0053 0.0054 -0.1956 -0.851 0.525 0.005 105 91 62 0 0
-0.0053 0.0055 -0.1972 -0.851 0.525 0.005 110 96 68 0 0
-0.0049 0.0056 -0.1988 -0.818 0.548 0.174 132 119 88 0 0
-0.0051 0.0056 -0.2004 -0.818 0.548 0.174 124 111 78 0 0
-0.1198 -0.0014 -0.2800 -0.709 -0.154 0.688 70 58 44 0 0
-0.1243 -0.0016 -0.2864 -0.888 -0.100 0.449 83 75 66 0 0
-0.1260 -0.0015 -0.2905 -0.931 -0.199 0.306 71 65 54 0 0
-0.1341 -0.0017 -0.3034 -0.948 -0.004 0.318 47 37 29 0 0
-0.1506 -0.0024 -0.3211 -0.908 -0.081 0.412 169 157 134 0 0
-0.1569 -0.0026 -0.3282 -0.895 -0.094 0.436 117 108 90 0 0
-0.1620 -0.0001 -0.3898 -0.863 -0.234 0.447 79 66 44 0 0
-0.1827 0.0003 -0.4396 -0.743 -0.669 -0.024 114 102 76 0 0
-0.1829 0.0004 -0.4412 -0.561 -0.828 -0.007 108 95 67 0 0
-0.2158 -0.0015 -0.4677 -0.896 -0.131 0.424 71 60 43 0 0
-0.1629 0.0062 -0.5207 -0.880 -0.125 0.459 15 12 10 0 0
-0.1674 0.0061 -0.5289 -0.904 0.381 0.194 34 26 23 0 0
-0.1714 0.0072 -0.5593 -0.940 0.173 0.295 32 27 23 0 0
-0.1720 0.0072 -0.5607 -0.788 0.304 0.535 44 38 34 0 0
-0.1801 0.0068 -0.5686 -0.919 0.309 0.246 53 43 35 0 0
-0.1814 0.0069 -0.5715 -0.895 0.144 0.423 21 19 14 0 0
-0.1869 0.0074 -0.5940 -0.894 0.128 0.430 40 32 26 0 0
-0.1887 0.0077 -0.6040 -0.978 0.116 0.171 61 51 38 0 0
-0.1888 0.0078 -0.6059 -0.915 0.360 0.184 38 28 17 0 0
-0.1894 0.0078 -0.6073 -0.957 0.254 0.138 53 41 31 0 0
-0.1907 0.0118 -0.6916 -0.695 0.046 0.718 82 69 49 0 0
-0.1970 0.0119 -0.7068 -0.900 -0.328 0.287 51 44 40 0 0
-0.2021 0.0116 -0.7090 -0.830 -0.185 0.527 72 65 51 0 0
-0.2064 0.0161 -0.8115 -0.987 -0.129 0.099 101 86 56 0 0
-0.2107 0.0165 -0.8271 -0.954 0.047 0.295 115 101 67 0 0
0.0045 0.0072 -0.1801 -0.583 -0.083 0.809 177 177 177 0 0
-0.0036 0.0072 -0.1975 -0.742 0.670 0.036 113 103 82 0 0
-0.1135 0.0000 -0.2665 -0.939 -0.166 0.300 248 235 197 0 0
-0.1140 0.0000 -0.2679 -0.939 -0.166 0.300 230 215 178 0 0
-0.1185 0.0001 -0.2773 -0.786 -0.506 0.354 128 112 89 0 0
-0.1256 -0.0001 -0.2890 -0.949 -0.093 0.301 64 57 47 0 0
-0.1263 -0.0001 -0.2904 -0.931 -0.199 0.306 87 79 70 0 0
-0.1280 -0.0000 -0.2945 -0.867 -0.035 0.497 76 69 61 0 0
-0.1576 -0.0012 -0.3295 -0.897 -0.035 0.442 112 100 85 0 0
-0.1689 0.0012 -0.3998 -0.798 0.175 0.577 86 74 51 0 0
-0.1809 0.0013 -0.4256 -0.912 -0.230 0.340 92 78 50 0 0
-0.2098 0.0002 -0.4593 -0.914 -0.230 0.336 160 140 97 0 0
-0.2160 -0.0000 -0.4676 -0.920 -0.053 0.388 64 51 37 0 0
-0.1611 0.0079 -0.5199 -0.923 -0.108 0.369 27 23 18 0 0
-0.1628 0.0079 -0.5243 -0.974 -0.100 0.204 32 27 23 0 0
-0.1678 0.0089 -0.5541 -0.701 -0.128 0.701 15 10 9 0 0
-0.1692 0.0088 -0.5551 -0.995 -0.075 0.067 10 9 7 0 0
-0.1703 0.0089 -0.5599 -0.874 0.150 0.461 29 24 20 0 0
-0.1716 0.0089 -0.5610 -0.788 0.304 0.535 38 33 29 0 0
-0.1783 0.0087 -0.5698 -0.899 -0.037 0.437 35 29 24 0 0
-0.1791 0.0086 -0.5711 -0.870 -0.188 0.455 21 19 15 0 0
-0.1801 0.0086 -0.5723 -0.813 -0.150 0.562 14 14 13 0 0
-0.1885 0.0094 -0.6042 -0.978 0.116 0.171 54 41 32 0 0
-0.1893 0.0094 -0.6074 -0.956 0.279 0.095 67 55 43 0 0
-0.2050 0.0180 -0.8128 -0.896 0.405 0.185 103 88 60 0 0
-0.2052 0.0181 -0.8148 -0.923 0.384 0.041 95 79 55 0 0
-0.2052 0.0182 -0.8169 -0.961 0.148 -0.232 118 103 68 0 0
-0.2045 0.0184 -0.8197 -0.961 0.148 -0.232 147 131 95 0 0
-0.2106 0.0182 -0.8272 -0.954 0.047 0.295 115 100 68 0 0
-0.2073 0.0205 -0.8678 -0.877 0.463 0.132 108 105 99 0 0
-0.1184 0.0015 -0.2758 -0.831 -0.131 0.540 177 163 136 0 0
-0.1236 0.0015 -0.2865 -0.849 -0.400 0.346 51 41 31 0 0
-0.1245 0.0015 -0.2878 -0.858 -0.039 0.512 41 30 22 0 0
-0.1318 0.0014 -0.2995 -0.895 -0.028 0.445 91 81 71 0 0
-0.1571 0.0004 -0.3297 -0.948 -0.131 0.289 137 127 114 0 0
-0.1569 0.0019 -0.3597 -0.860 0.067 0.505 90 75 55 0 0
-0.1587 0.0024 -0.3733 -0.877 0.192 0.441 56 41 26 0 0
-0.1608 0.0024 -0.3773 -0.900 0.179 0.397 60 46 33 0 0
-0.1602 0.0025 -0.3792 -0.987 -0.079 0.139 65 52 36 0 0
-0.1665 0.0029 -0.3992 -0.761 -0.153 0.631 79 67 41 0 0
-0.1686 0.0027 -0.3999 -0.790 0.102 0.605 74 62 39 0 0
-0.1790 0.0028 -0.4215 -0.861 -0.317 0.399 112 96 70 0 0
-0.2116 0.0015 -0.4600 -0.821 -0.184 0.540 197 179 132 0 0
-0.2119 0.0016 -0.4615 -0.845 -0.010 0.535 169 152 111 0 0
-0.1587 0.0092 -0.5105 -0.895 -0.240 0.375 38 35 32 0 0
-0.1613 0.0094 -0.5198 -0.923 -0.108 0.369 23 18 15 0 0
-0.1614 0.0095 -0.5215 -0.807 -0.150 0.571 29 26 22 0 0
-0.1659 0.0100 -0.5406 -0.718 0.542 0.436 22 17 14 0 0
-0.1665 0.0100 -0.5421 -0.848 0.471 0.242 35 30 27 0 0
-0.1661 0.0103 -0.5460 -0.989 0.101 -0.103 25 20 17 0 0
-0.1680 0.0105 -0.5540 -0.701 -0.128 0.701 13 10 9 0 0
-0.1702 0.0106 -0.5600 -0.849 0.307 0.429 27 22 18 0 0
-0.1711 0.0105 -0.5613 -0.788 0.304 0.535 31 26 23 0 0
-0.1867 0.0108 -0.5978 -0.945 -0.246 0.217 54 46 36 0 0
-0.1872 0.0109 -0.5994 -0.966 -0.138 0.218 26 18 10 0 0
-0.1893 0.0110 -0.6074 -0.997 0.026 0.067 79 66 52 0 0
-0.1893 0.0111 -0.6093 -0.998 0.052 -0.040 66 54 38 0 0
-0.1892 0.0113 -0.6132 -0.967 0.244 0.071 81 68 51 0 0
-0.1894 0.0114 -0.6149 -0.950 0.257 0.179 61 46 28 0 0
-0.1757 0.0153 -0.6670 -0.905 -0.384 0.180 4 2 3 0 0
-0.1762 0.0154 -0.6686 -0.871 -0.398 0.287 5 3 4 0 0
-0.1746 0.0157 -0.6717 -0.614 -0.775 -0.153 6 4 5 0 0
-0.2066 0.0146 -0.7135 -0.898 -0.106 0.428 63 57 42 0 0
-0.2077 0.0147 -0.7167 -0.922 -0.014 0.387 50 41 26 0 0
-0.1978 0.0194 -0.7913 -0.710 0.094 0.698 92 79 52 0 0
-0.1970 0.0199 -0.8005 -0.941 0.336 -0.050 49 37 19 0 0
-0.2008 0.0196 -0.8015 -0.394 0.130 0.910 67 55 32 0 0
-0.2065 0.0197 -0.8159 -0.704 0.531 0.471 154 136 96 0 0
-0.2079 0.0196 -0.8167 -0.556 0.501 0.663 182 163 127 0 0
0.0004 0.0102 -0.1840 -0.867 0.375 0.327 178 177 176 0 0
-0.0001 0.0102 -0.1855 -0.884 0.397 0.248 177 177 176 0 0
-0.1186 0.0030 -0.2757 -0.814 0.088 0.574 190 178 156 0 0
-0.1205 0.0030 -0.2797 -0.959 -0.011 0.284 186 174 155 0 0
-0.1445 0.0021 -0.3092 -0.795 -0.057 0.604 131 116 92 0 0
-0.1482 0.0020 -0.3142 -0.940 -0.314 0.135 72 60 43 0 0
-0.1563 0.0018 -0.3268 -0.976 0.019 0.216 38 31 19 0 0
-0.1570 0.0019 -0.3297 -0.976 0.019 0.216 73 66 54 0 0
-0.1561 0.0035 -0.3600 -0.939 -0.278 0.202 95 80 61 0 0
-0.1656 0.0040 -0.3898 -0.838 -0.121 0.531 76 61 39 0 0
-0.1765 0.0040 -0.4111 -0.873 -0.287 0.395 101 85 59 0 0
-0.1591 0.0107 -0.5085 -0.976 -0.212 0.045 13 11 9 0 0
-0.1612 0.0108 -0.5163 -0.958 -0.235 0.164 27 23 21 0 0
-0.1615 0.0109 -0.5179 -0.955 -0.173 0.241 23 19 18 0 0
-0.1630 0.0112 -0.5260 -0.994 0.024 0.102 33 29 24 0 0
-0.1648 0.0113 -0.5322 -0.788 -0.435 0.436 44 40 36 0 0
-0.1681 0.0121 -0.5539 -0.701 -0.128 0.701 17 15 14 0 0
-0.1843 0.0116 -0.5771 -0.930 -0.181 0.320 21 18 15 0 0
-0.1868 0.0122 -0.5941 -0.984 -0.103 0.146 42 31 20 0 0
-0.1871 0.0123 -0.5958 -0.984 -0.103 0.146 64 54 39 0 0
-0.1877 0.0124 -0.5991 -0.921 -0.100 0.377 38 28 17 0 0
-0.1889 0.0124 -0.6021 -0.921 -0.100 0.377 64 55 38 0 0
-0.1895 0.0124 -0.6035 -0.917 -0.090 0.388 94 84 68 0 0
-0.1896 0.0131 -0.6166 -0.986 -0.002 0.164 77 60 43 0 0
-0.1765 0.0168 -0.6644 -0.741 -0.655 -0.148 4 2 3 0 0
-0.2081 0.0172 -0.7347 -0.996 -0.006 0.084 88 79 61 0 0
-0.1847 0.0221 -0.7855 -0.788 -0.042 0.614 57 41 25 0 0
-0.1972 0.0212 -0.7919 -0.803 0.202 0.560 88 75 48 0 0
-0.1970 0.0216 -0.8006 -0.686 0.218 0.694 48 37 19 0 0
-0.2008 0.0218 -0.8123 -0.821 0.158 0.549 89 75 46 0 0
-0.2054 0.0216 -0.8169 -0.721 0.136 0.679 151 130 90 0 0
-0.2071 0.0215 -0.8175 -0.594 0.277 0.755 173 155 125 0 0
-0.2075 0.0215 -0.8193 -0.830 0.163 0.533 121 109 83 0 0
-0.1565 0.0049 -0.3598 -0.939 -0.278 0.202 93 79 62 0 0
-0.1576 0.0054 -0.3721 -0.870 0.143 0.472 38 28 18 0 0
-0.1648 0.0056 -0.3886 -0.858 -0.411 0.307 81 67 44 0 0
-0.1699 0.0056 -0.3994 -0.850 -0.418 0.321 68 55 34 0 0
-0.2096 0.0045 -0.4560 -0.837 -0.051 0.545 187 168 132 0 0
-0.2129 0.0045 -0.4627 -0.844 -0.198 0.498 97 81 58 0 0
-0.2137 0.0045 -0.4639 -0.884 -0.046 0.465 71 57 38 0 0
-0.2139 0.0045 -0.4654 -0.852 0.086 0.517 63 51 35 0 0
-0.1611 0.0123 -0.5145 -0.913 -0.240 0.329 16 12 11 0 0
-0.1615 0.0124 -0.5161 -0.951 -0.248 0.187 16 12 11 0 0
-0.1617 0.0125 -0.5178 -0.955 -0.173 0.241 14 10 9 0 0
-0.1654 0.0128 -0.5319 -0.788 -0.435 0.436 16 13 11 0 0
-0.1662 0.0128 -0.5332 -0.788 -0.435 0.436 17 14 13 0 0
-0.1660 0.0129 -0.5351 -0.859 -0.355 0.369 22 18 16 0 0
-0.1695 0.0130 -0.5440 -0.523 -0.508 0.684 14 12 10 0 0
-0.1710 0.0129 -0.5450 -0.512 -0.593 0.621 15 12 11 0 0
-0.1670 0.0186 -0.6495 -0.836 -0.142 -0.529 16 12 11 0 0
-0.1660 0.0193 -0.6600 -0.443 -0.258 0.859 3 3 3 0 0
-0.1791 0.0179 -0.6587 -0.751 -0.364 0.550 4 3 2 0 0
-0.1804 0.0178 -0.6597 -0.981 -0.185 0.057 5 4 4 0 0
-0.1813 0.0191 -0.6868 -0.726 -0.296 0.621 23 19 15 0 0
-0.1902 0.0183 -0.6881 -0.843 -0.467 0.268 123 110 86 0 0
-0.2076 0.0187 -0.7310 -0.987 0.144 0.077 64 54 37 0 0
-0.2078 0.0188 -0.7329 -0.987 0.144 0.077 77 70 52 0 0
-0.2083 0.0188 -0.7345 -0.955 0.237 0.180 80 71 54 0 0
-0.2075 0.0191 -0.7393 -0.950 0.135 -0.283 75 63 47 0 0
-0.1855 0.0236 -0.7827 -0.944 0.278 0.179 46 30 18 0 0
-0.1845 0.0238 -0.7857 -0.855 -0.159 0.493 67 50 31 0 0
-0.1896 0.0233 -0.7856 -0.691 0.068 0.719 96 80 53 0 0
-0.1908 0.0232 -0.7867 -0.691 0.068 0.719 98 82 56 0 0
-0.1920 0.0232 -0.7879 -0.832 0.194 0.519 113 97 69 0 0
-0.1928 0.0232 -0.7893 -0.848 0.160 0.506 119 102 70 0 0
-0.1937 0.0231 -0.7906 -0.835 0.203 0.511 120 102 73 0 0
-0.1946 0.0231 -0.7920 -0.835 0.203 0.511 116 98 70 0 0
-0.1959 0.0230 -0.7931 -0.910 0.286 0.301 87 72 46 0 0
-0.1964 0.0231 -0.7948 -0.874 0.358 0.328 70 55 33 0 0
-0.1969 0.0231 -0.7964 -0.874 0.358 0.328 60 44 24 0 0
-0.1981 0.0232 -0.7997 -0.725 0.138 0.675 48 37 19 0 0
-0.2016 0.0229 -0.8009 -0.957 0.192 0.217 70 58 31 0 0
-0.2020 0.0229 -0.8027 -0.857 0.261 0.444 93 78 48 0 0
-0.2016 0.0233 -0.8095 -0.884 0.390 0.259 101 87 55 0 0
-0.2064 0.0233 -0.8181 -0.830 0.163 0.533 146 129 102 0 0
-0.2073 0.0232 -0.8195 -0.830 0.163 0.533 105 95 67 0 0
-0.1571 0.0060 -0.3532 -0.791 -0.088 0.605 112 98 72 0 0
-0.1587 0.0059 -0.3541 -0.989 -0.001 0.150 102 87 65 0 0
-0.1596 0.0068 -0.3729 -0.904 -0.198 0.380 61 49 38 0 0
-0.1662 0.0070 -0.3896 -0.769 -0.434 0.470 84 72 48 0 0
-0.1733 0.0069 -0.4028 -0.963 -0.211 0.166 82 67 46 0 0
-0.1734 0.0070 -0.4043 -0.752 -0.436 0.495 127 113 84 0 0
-0.1743 0.0070 -0.4055 -0.742 -0.354 0.570 137 121 93 0 0
-0.1753 0.0069 -0.4068 -0.742 -0.354 0.570 114 98 74 0 0
-0.1768 0.0070 -0.4110 -0.975 0.219 -0.027 123 103 78 0 0
-0.1900 0.0070 -0.4377 -0.802 -0.335 0.495 161 148 114 0 0
-0.2122 0.0061 -0.4630 -0.971 -0.150 0.185 73 58 33 0 0
-0.2127 0.0061 -0.4644 -0.893 0.188 0.408 77 63 41 0 0
-0.2138 0.0060 -0.4655 -0.852 0.086 0.517 114 103 84 0 0
-0.2167 0.0060 -0.4706 -0.903 0.220 0.370 20 17 14 0 0
-0.1572 0.0142 -0.5113 -0.741 0.218 0.635 26 24 21 0 0
-0.1594 0.0141 -0.5137 -0.884 0.114 0.454 27 22 20 0 0
-0.1601 0.0141 -0.5151 -0.884 0.114 0.454 21 17 16 0 0
-0.1608 0.0141 -0.5165 -0.985 0.042 0.168 21 17 16 0 0
-0.1612 0.0141 -0.5181 -0.972 -0.006 0.234 20 16 14 0 0
-0.1646 0.0145 -0.5324 -0.813 0.241 0.530 12 11 9 0 0
-0.1662 0.0144 -0.5332 -0.668 -0.149 0.729 12 11 9 0 0
-0.1655 0.0149 -0.5427 -0.969 0.225 0.097 15 10 9 0 0
-0.1697 0.0146 -0.5439 -0.660 -0.209 0.722 14 10 9 0 0
-0.1898 0.0136 -0.5645 -0.145 -0.983 0.109 34 31 28 0 0
-0.1884 0.0161 -0.6099 -0.991 -0.110 0.073 95 84 64 0 0
-0.1884 0.0163 -0.6137 -0.993 0.110 0.037 104 91 70 0 0
-0.1890 0.0163 -0.6152 -0.969 0.246 -0.025 77 64 45 0 0
-0.1887 0.0164 -0.6173 -0.958 0.263 0.115 100 88 72 0 0
-0.1751 0.0199 -0.6576 -0.332 -0.759 0.561 4 4 4 0 0
-0.1929 0.0200 -0.6961 -0.900 -0.053 0.434 47 34 22 0 0
