ply
format ascii 1.0
element vertex 667
property float x
property float y
property float z
property uchar diffuse_red
property uchar diffuse_green
property uchar diffuse_blue
end_header
-0.06223520011322596 -0.11424624914740013 -0.6217193985274796 20 16 15
-0.061822013712721544 -0.11367640420271007 -0.6241248560429454 22 18 17
-0.06134240347182979 -0.11302787159996253 -0.6266016001293584 22 18 17
-0.06111510606462443 -0.11267717241223037 -0.628833531256844 15 11 10
-0.06125895770310599 -0.1127648068657834 -0.6306998679134822 17 13 12
-0.061579634302861855 -0.11306129738654709 -0.632391473395977 17 13 12
-0.06180949574405721 -0.11325042662768099 -0.6341751459392477 15 11 10
-0.06225801434328619 -0.1136979190812002 -0.6357403771351764 16 12 11
-0.062180126953916615 -0.11352318778862469 -0.6378370472406287 17 13 12
-0.06219939980226877 -0.11346317089366693 -0.6398388308392169 18 14 13
-0.06217004511508588 -0.1133455458230673 -0.6418928641269968 17 13 12
-0.06226720180330292 -0.11337737632826804 -0.6438212202780069 16 12 11
-0.06302128937329839 -0.11418594201392691 -0.6450807971485616 14 10 9
-0.06104264010221824 -0.1117627133621805 -0.6491392194764645 14 10 9
-0.06209636912493344 -0.1129254771037045 -0.6500959213465438 15 11 10
-0.06337347208658614 -0.11435261809656519 -0.6508187106125107 18 14 13
-0.06274082247598267 -0.11352066242482135 -0.6535116478217393 16 12 11
-0.06329827434812613 -0.114096502998006 -0.654976997645123 18 14 12
-0.0654590034770934 -0.1165695084807936 -0.6547735741127899 21 20 16
-0.06526048643449532 -0.11625096574797827 -0.6570219186800922 17 16 12
-0.06459079063394198 -0.11537458258473304 -0.6597678324356258 15 14 10
-0.06500252138762712 -0.11577796476139912 -0.6613854901882056 22 18 16
-0.06485056668084029 -0.11551403141706382 -0.6635972838266986 24 20 19
-0.0649165629197504 -0.11550797405170062 -0.6655828653741751 24 20 19
-0.06513804111097242 -0.11568590981202911 -0.667406353103498 18 14 13
-0.0654953431763475 -0.11602462025133002 -0.6690871574178987 17 13 12
-0.06586709595854799 -0.11638041223322645 -0.670753361391561 16 12 11
-0.06701531526874639 -0.11765587212904928 -0.671590099022935 16 12 11
-0.06648673493820274 -0.11694517664907964 -0.6742207424150486 14 10 9
-0.06467494759970488 -0.1147139648957552 -0.6782380798980396 14 10 9
-0.06439866353120659 -0.11430150360657956 -0.6806136652413088 15 11 10
-0.06381767671986857 -0.11352777155905171 -0.6833238475837082 15 11 10
-0.06392604466047838 -0.11357072784204057 -0.6852927889685358 11 9 9
-0.06479193344889685 -0.11451143951138547 -0.6864396318433925 10 8 9
-0.06464157930584444 -0.11424760987024098 -0.6886934627015016 10 8 9
-0.06461423290904221 -0.11412943940982678 -0.6908167321386224 9 7 8
-0.06344919498115338 -0.11266222489053586 -0.6941927359430445 9 7 8
-0.06307370917766582 -0.11213081054611057 -0.6967098339821967 8 6 7
-0.06613446318596636 -0.11567426893478792 -0.6954365846017759 8 6 7
-0.06581765906675195 -0.11521245156721838 -0.6978887299206235 8 6 7
-0.06705786986396682 -0.1165973290909465 -0.6986159570894359 9 7 8
-0.06562467648459651 -0.11481089454473586 -0.7023177100634921 9 7 8
-0.06540517693251827 -0.11446393727333173 -0.7046754310695342 8 7 7
-0.0649044345096219 -0.11378307021415353 -0.7073530759448543 7 7 7
-0.061622047592938906 -0.10980089544157462 -0.7131646427775287 8 5 6
-0.06276336198829373 -0.11106800828450109 -0.714012874543929 10 6 5
-0.06395537304254195 -0.11239547252118638 -0.714799506006643 10 6 6
-0.06532055784355249 -0.11392870502168977 -0.7153851144268749 12 8 8
-0.06692065809815237 -0.11574108013174349 -0.7156977433009437 14 10 10
-0.0688798257624644 -0.11798011169845755 -0.7155934168516238 19 15 14
-0.07057273181712392 -0.11990334708914877 -0.7157839926803571 25 21 18
-0.07308167520597982 -0.12279609256325882 -0.7150302434873919 25 21 18
-0.07646856844447888 -0.12673222212881097 -0.7132527714176476 25 21 18
-0.07910187419941872 -0.12977392380202268 -0.7123256951100856 24 22 19
-0.08123528178005247 -0.13222229365979749 -0.7119628832022116 25 22 19
-0.0826391760512942 -0.1338042957126907 -0.7124358329200647 29 25 22
-0.08549174634156359 -0.13710808809606292 -0.7112162333308394 37 31 27
-0.08746452650922201 -0.13936690947169184 -0.7110078523695151 44 37 30
-0.08843430981281145 -0.140433951927608 -0.7119637528474431 68 58 48
-0.08952084896518214 -0.14163992485560403 -0.712779263129276 86 73 59
-0.09062444042810076 -0.14286633905314183 -0.7135705993948382 76 63 45
-0.09132499330865036 -0.1436136969281946 -0.7148336562991451 72 58 37
-0.09188221636703368 -0.14419067187000295 -0.716264942714232 83 69 45
-0.0922361395807466 -0.144525881134012 -0.7179371304255948 96 82 53
-0.09234133680233612 -0.14456520783147203 -0.7199063855233708 112 97 65
-0.09172173735355933 -0.1437422172196678 -0.7227438605834497 132 114 79
-0.09265154772764765 -0.144762306469513 -0.7237328976662074 142 123 84
-0.09230612235307284 -0.14426515322864208 -0.726250675242655 144 128 89
-0.0912297148413704 -0.14289789263986918 -0.7296546027454448 133 116 82
-0.08941446796674132 -0.14065086650439013 -0.7339616639329771 139 119 86
-0.08621985163859713 -0.13676134585026412 -0.7399554132156241 130 112 81
-0.08313070608772533 -0.13299635074098853 -0.7458461813258768 104 91 63
-0.08016898249370893 -0.12938205766025063 -0.7516061999633913 93 83 57
-0.0779750314618323 -0.12668099182424175 -0.7564518908621756 99 88 63
-0.07653494533879471 -0.1248769132871094 -0.7603924314841535 106 94 69
-0.0745923158771138 -0.12247376345456457 -0.7649636908819144 93 79 54
-0.07399412588122227 -0.1216713359858421 -0.7678953444001549 103 88 63
-0.07423813571002555 -0.12187189299969436 -0.7697940164980785 106 92 66
-0.07349011853400342 -0.12089045864943468 -0.7729235018667379 100 88 62
-0.07279058274354175 -0.11996643980280405 -0.7760013713622421 101 87 64
-0.0730091032213007 -0.12013613149085359 -0.7779437518228975 98 84 60
-0.07367289577191576 -0.12083643919769793 -0.7793317693902362 108 94 66
-0.07435497813107783 -0.12155859538592062 -0.7806957194089114 124 110 81
-0.07476549381194635 -0.12195706112524535 -0.7823995615011198 122 109 82
-0.0756565468877932 -0.12292843409616391 -0.7834986249835783 94 81 56
-0.0751763047736556 -0.1222647638034623 -0.7863273117441759 86 71 49
-0.07620249073555817 -0.12339731973347601 -0.7872544839380128 74 60 36
-0.0775439764155806 -0.124906086671491 -0.7877774214356237 62 47 24
-0.078199886258648 -0.12559730850321826 -0.7891677417774078 55 40 22
-0.07895614555256324 -0.12640829219231212 -0.7904287640785951 49 33 18
-0.07971236612973938 -0.12721930450084545 -0.7916880096347643 48 32 16
-0.08040414485858462 -0.12795349453798666 -0.7930281943250972 64 48 29
-0.08115647132177306 -0.12876000031296347 -0.7942890180071106 92 75 51
-0.08169912582720018 -0.12931632188217648 -0.7958188181833079 105 90 62
-0.0822554883603112 -0.12988902039520298 -0.7973305378241118 105 89 63
-0.08281169495548114 -0.13046155020712596 -0.798842033556274 107 91 64
-0.0831741376367606 -0.13080274188900337 -0.8006054103596613 111 96 66
-0.0831572141247188 -0.1306908730047577 -0.8028650796331449 119 104 71
-0.08264826176262985 -0.1299912240904397 -0.8057726112076171 135 116 79
-0.0829651710490635 -0.13027772797855194 -0.8076031045187019 143 121 82
-0.08379643331269541 -0.13117862128537933 -0.808757784238839 148 125 85
-0.0862229635064711 -0.1339855426281321 -0.807804300907452 146 125 84
-0.0866159450374576 -0.13436317095904074 -0.8095285703148516 133 114 75
-0.08746768790887294 -0.13528900447365313 -0.810644712320335 126 108 72
-0.08825876808021395 -0.13614244004584036 -0.8118390207928912 118 102 66
-0.08803795017714325 -0.13578641115598933 -0.8143814855610201 117 101 65
-0.09044529791042646 -0.13857208365742463 -0.8134125750037653 114 97 62
-0.08830002472062543 -0.13591509095476598 -0.8185378312059894 114 96 61
-0.08888713558057491 -0.13652462940753832 -0.8200064314502477 121 103 71
-0.08941515171541081 -0.13706352202555294 -0.8215540874737781 112 96 65
-0.09042414038935602 -0.13817770197943607 -0.8224509792460529 105 92 60
-0.09105269612035458 -0.1387442573148043 -0.8261229338433481 100 89 60
-0.09249737226039349 -0.14037999837449075 -0.8264196191039987 99 86 57
-0.09406193736941253 -0.1421594914823416 -0.8265454549060052 96 83 50
-0.09514002581521723 -0.1433570802297478 -0.8273303220426449 98 84 52
-0.09660344911156261 -0.14501607930537952 -0.8275812657009225 113 99 62
-0.09758325571572897 -0.1460964222068502 -0.8284915846157062 145 129 86
-0.0984928178688363 -0.1470928101080458 -0.8294953876542828 174 156 112
-0.09931363058152463 -0.14798305318253785 -0.8306190833403936 180 162 121
-0.10011501762891166 -0.14885013188533708 -0.8317673410589799 155 140 102
-0.10148495442514317 -0.15039827184147025 -0.8321213548564979 128 117 79
-0.10231070228979065 -0.1512948058170171 -0.8332289012873145 124 111 72
-0.10300819684853292 -0.15203778999291356 -0.834513566803735 132 117 75
-0.10325052801599645 -0.15223546761094847 -0.8364357865363292 143 127 84
-0.10364891162632922 -0.1526200725939164 -0.8381401682149687 137 119 78
-0.10392810091918002 -0.15286179602843036 -0.8400134919724687 140 122 82
-0.10337337430434454 -0.15210388742456754 -0.843068629455112 142 127 88
-0.10440638734620422 -0.15324903357125996 -0.8438785570620356 144 129 90
-0.10460513959154578 -0.15339410924780034 -0.8458713976178921 142 127 88
-0.10418702274109104 -0.15279940483498405 -0.8487464266789082 142 127 87
-0.10486725339332773 -0.15352162129905914 -0.8500573432066134 148 134 95
-0.10536537827455537 -0.15402547574532055 -0.8516280000959876 147 134 98
-0.10572630464367017 -0.15436475307814376 -0.8533958867706422 146 131 96
-0.10589200112165144 -0.15446976805685855 -0.8554462188222447 150 135 99
-0.10639569837663418 -0.15498024072132194 -0.857010479948132 141 127 98
-0.10730532384724244 -0.15597784349934415 -0.8579863888273321 100 93 70
-0.10752197432097901 -0.1561438758705333 -0.8599660280977105 66 64 48
-0.10765731005770038 -0.1562122164936099 -0.8620662299334588 56 56 44
-0.1068087648741968 -0.15509929659695368 -0.8656062371661566 70 68 56
-0.10581620943900906 -0.15381305010112972 -0.8693673869414293 102 98 88
-0.10620320679615161 -0.15418292233718667 -0.8711143628249642 133 128 122
-0.1113446709584274 -0.1599794211465376 -0.8727792403719898 181 181 181
0.0037490954556226967 -0.055790776024775994 -0.15524361445096235 177 178 179
0.0023909999261413784 -0.05729535368749113 -0.15640399965552834 178 178 179
0.0008716032744297639 -0.0589862236667228 -0.1575209635302489 178 177 175
0.0004900280087417469 -0.059364216672550305 -0.15891479798946592 173 169 164
-0.0008408157459640336 -0.06083775797198979 -0.16007207307290022 132 127 117
-0.001171370977588418 -0.06115692978030138 -0.16147716847632537 176 165 145
-0.002913508508363227 -0.06310544838491826 -0.16252468715894108 152 138 108
-0.003965692283296254 -0.06425773564505903 -0.1637431293810828 122 110 76
-0.004504521237999428 -0.06481748573802001 -0.16509130743318462 125 117 88
-0.004761137967994166 -0.0650514279077923 -0.16651237974833175 99 93 72
-0.005727141279635651 -0.06610442201721688 -0.16774830048425488 109 101 86
-0.0063238780702592114 -0.0667311102831383 -0.16907949656477406 60 52 40
-0.006953951450083123 -0.06739632565293112 -0.17040110977857845 74 66 55
-0.0077167504507878945 -0.06821486149025664 -0.1716862541543488 106 99 84
-0.010433437252466246 -0.07129017597688155 -0.17244148068135612 151 141 124
-0.012902372737124967 -0.07407972489098626 -0.17325454302118667 187 175 145
-0.015281411347540677 -0.0767657911105049 -0.1740836338165756 216 203 164
-0.017269216689288283 -0.07900023054786709 -0.17501273831910852 153 140 104
-0.01766180595863557 -0.07939192321607769 -0.17638023639862996 82 67 39
-0.018015904777716196 -0.07973913702640058 -0.17775868992039745 74 58 32
-0.01762112351880369 -0.07922098933679232 -0.17934956561441234 85 68 43
-0.018015281337372433 -0.07961440371114221 -0.18071878636369854 82 65 40
-0.017865226614852625 -0.07937886441179955 -0.1822446151093038 72 56 34
-0.01858853755552644 -0.08015265179741066 -0.183519918188661 60 43 23
-0.018112547002756565 -0.07954024080699346 -0.18514391681520048 75 58 39
-0.018886364227398277 -0.08037241142831716 -0.18640438851714586 90 74 52
-0.018548295153461545 -0.07991923439291153 -0.18799260544195126 105 91 64
-0.017932881856437304 -0.07914526732267296 -0.18966683041383295 127 113 79
-0.019268672989714786 -0.08062717920538666 -0.19075936443182948 102 88 52
-0.01869856486221748 -0.07990540002224177 -0.19242465482102397 86 72 43
-0.018494893264652 -0.07960719660001575 -0.19398258187853934 71 56 27
-0.018579314977669303 -0.07964206313418785 -0.19545481933764858 119 103 71
-0.018630087788527254 -0.07963794901148215 -0.1969389399085102 90 73 45
-0.019284837801829553 -0.08033238474692372 -0.19823671456102415 65 48 24
-0.019296348758602075 -0.08028277105940501 -0.19973509593370334 104 88 60
-0.01941641810627493 -0.08035867051261524 -0.20120102583706068 118 103 72
-0.019435843393354794 -0.08031807178942099 -0.20270027387323256 96 81 54
-0.019535652973581237 -0.08037040804623403 -0.20417558340065028 71 57 32
-0.019013384064810505 -0.07970284477446068 -0.20585270559759697 92 80 56
-0.018710888955806398 -0.0792894394085641 -0.20746270732958375 82 70 47
-0.018573594098783328 -0.07906709214110362 -0.20902197183788362 64 52 34
-0.01837227531139763 -0.07877053789189709 -0.21060476043539614 58 45 31
-0.01814254886168369 -0.07844098533190291 -0.21219971454617853 52 40 27
-0.01790827386480711 -0.07810604598144194 -0.2137990797900168 62 50 36
-0.017996688718283728 -0.07814456327284877 -0.21529318075421017 53 41 28
-0.018568180431897 -0.07874232157094838 -0.216625767649858 53 40 31
-0.019202625299390666 -0.07941299850065386 -0.2179363520227201 51 39 29
-0.019673856865153175 -0.07989471531564953 -0.21930183628512948 105 96 80
-0.02012720110442851 -0.08035572480523048 -0.22067329629676818 118 107 88
-0.02082558238858093 -0.08110053189592442 -0.2219598012986074 124 110 93
-0.02191167888832699 -0.08229446294642079 -0.22310999864006278 120 109 92
-0.02291018439291685 -0.08338705468551995 -0.2242880091905439 67 59 43
-0.02374568245108226 -0.08429091716422668 -0.2255210287887157 56 45 29
-0.02421159597362796 -0.08476667780922176 -0.22688350941131794 125 110 86
-0.02656179644277369 -0.08742563734617691 -0.22757239469311147 201 184 155
-0.027796564871891645 -0.08879247794627683 -0.22865385429376786 185 169 136
-0.0290804807609262 -0.09021642225293158 -0.22971393082494193 235 222 188
-0.02971053235818458 -0.09088275642202386 -0.23100824613103657 198 183 148
-0.030692839797613114 -0.09195739472522277 -0.23217261414816517 219 204 167
-0.03189657619853055 -0.09328879516957325 -0.2332528845371107 231 218 180
-0.03297071790869976 -0.09447011643887127 -0.2343777248917853 234 223 184
-0.0337768146597899 -0.09534081872363902 -0.2355996506753983 210 196 156
-0.0348657944082699 -0.09653956168801965 -0.23671370094994068 183 171 135
-0.03586505166238623 -0.09763439878985124 -0.23785863976206423 174 163 132
-0.037443031805950475 -0.0994004136022034 -0.23878118956377 140 127 97
-0.03776241765038816 -0.09970710014143089 -0.24017939496463064 170 154 121
-0.038154246149698035 -0.10009778283737139 -0.24155023245686918 168 154 128
-0.03916362586757557 -0.1012047282174207 -0.2426824817722376 114 102 85
-0.03942610095320266 -0.10144541398054337 -0.24410251233084979 137 128 113
-0.03988218756422552 -0.10191066681534189 -0.24544755031551063 182 174 159
-0.04081322533305719 -0.1029269348264818 -0.2466056029097197 139 129 110
-0.040645181233328956 -0.1026681077129621 -0.24819621244756948 119 104 80
-0.04069659433069591 -0.10266381028626963 -0.24970218573580727 135 120 93
-0.04069282469850981 -0.10259540630561853 -0.25123194253145337 100 86 60
-0.0405836997304779 -0.10240465348531999 -0.2528060583076639 96 83 57
-0.04074813720557954 -0.10253129940059127 -0.2542718792557786 99 86 62
-0.04033958960093552 -0.1019928248765521 -0.2559721379870608 87 73 48
-0.04096370160997342 -0.10265290960492687 -0.2572534833220662 96 82 55
-0.041542966009195555 -0.1032609687453885 -0.2585523793363559 84 72 48
-0.042146524066625626 -0.10389726244122065 -0.2598405120221828 80 67 49
-0.04265211328772838 -0.10441983922435834 -0.2611686046364391 63 50 32
-0.043068883019363596 -0.10483929496162331 -0.26253350288099936 67 55 31
-0.043411121550445506 -0.1051721967826658 -0.26392980701070934 79 65 40
-0.04366364758803449 -0.10540089171276411 -0.26536445756403143 81 66 42
-0.04386044475320951 -0.10556482505719374 -0.266823617967862 86 72 51
-0.04406791283903667 -0.10574110921535135 -0.2682792710884368 82 70 48
-0.04323223283483121 -0.10470554974010027 -0.27018460722852833 76 64 44
-0.042427219109633374 -0.10370537232598265 -0.2720825354617891 60 49 31
-0.041361383556289544 -0.10240191367057831 -0.2740995800279609 50 38 25
-0.04034869301749234 -0.1011599168450925 -0.2761003422232148 43 32 22
-0.040083998009628266 -0.1007868595505776 -0.27777913725822867 36 26 17
-0.03917791439970993 -0.09966826761450567 -0.2797444990915771 28 19 12
-0.03894361564630966 -0.09933020456392028 -0.2814177718236458 24 17 11
-0.03867006846143897 -0.09894639046679485 -0.2831116740738423 40 33 27
-0.03848917426338745 -0.09867014343390737 -0.284767295322123 47 40 34
-0.03907165020655484 -0.0992812371674746 -0.2860814264141837 32 25 19
-0.03833339414033106 -0.09835680494601692 -0.28799373830350783 34 27 18
-0.03916623985203009 -0.09925894633628837 -0.2891954365032723 57 50 39
-0.040533004446001816 -0.10078203537908352 -0.29015063116331263 75 67 55
-0.04139608763302584 -0.10171955231439853 -0.29133337209642435 85 79 65
-0.04187284395679886 -0.10220783728418505 -0.29269289585843467 101 94 81
-0.0425231429139314 -0.10289798715607319 -0.29397146607468627 117 109 95
-0.04299404917913825 -0.10337950233893449 -0.2953328832589062 119 110 94
-0.04361551402104133 -0.10403617730926462 -0.29662335346209806 76 64 48
-0.04441157039348102 -0.1048960180143291 -0.29783045339227526 77 66 48
-0.045278585639743504 -0.10583849529705208 -0.29900213343769844 115 105 86
-0.046030746917300115 -0.10664741024224814 -0.30022653395627996 133 122 101
-0.04709503588279421 -0.10781962648954131 -0.30129974499787643 143 131 106
-0.04835692769967067 -0.10922194852510726 -0.302274715938199 129 116 90
-0.04957782915840052 -0.11057672649389647 -0.30326556322411724 132 117 92
-0.05013901306989667 -0.11116372199171833 -0.3045736668624924 160 143 115
-0.05048224273028674 -0.11149701361893423 -0.30598772162789467 177 163 130
-0.050991550229286045 -0.11202364355320338 -0.30732057066107993 165 153 121
-0.05208635794624046 -0.11323201478390273 -0.3083638988129991 172 162 130
-0.052432744418871226 -0.11356902323275854 -0.30977541134802683 171 162 128
-0.05327564873682631 -0.11448423399531607 -0.3109397377228258 191 183 148
-0.05380417057920839 -0.11503338330796485 -0.31225958428086187 176 167 132
-0.05384770540631587 -0.1150176644184453 -0.31382311313284894 174 165 132
-0.054410027535236015 -0.11560617767073136 -0.3151260607288865 134 123 97
-0.05441264452435179 -0.11554268832150874 -0.3167128489896183 129 118 95
-0.05475150806181546 -0.11587085797481436 -0.31812997385240627 98 87 66
-0.05306521620523645 -0.11383938880865858 -0.3205867028401653 66 55 40
-0.05199708202676634 -0.11252780207244414 -0.3227350024396198 56 46 33
-0.05322262461206109 -0.11388886690745628 -0.32370248283579217 54 45 34
-0.053350185823119047 -0.11397043950209182 -0.32523750956908504 53 48 38
-0.05348360639981864 -0.1140587797559004 -0.32677094771657067 41 33 23
-0.05344838254080223 -0.11395047632517243 -0.3283944244146322 36 25 15
-0.05291562820839461 -0.11326207258988732 -0.3302827468979744 40 27 18
-0.05272890823261232 -0.11297690241229123 -0.3319923203421553 47 35 24
-0.05268541215910859 -0.11285860048983704 -0.333628636023818 60 49 38
-0.052588820890689426 -0.11267828782765356 -0.33529569527225556 57 48 36
-0.052936516061041765 -0.11301598361737179 -0.3367265254735353 47 38 29
-0.053276826665290426 -0.11334504943189254 -0.33816176091843114 55 47 40
-0.06836290092791206 -0.12175409209652727 -0.5492547254105009 47 39 29
-0.06881617628445923 -0.12221029604921228 -0.550739002921564 45 37 28
-0.06839997563245431 -0.12163980515087797 -0.5529945209958746 35 25 21
-0.06913059345077771 -0.12242342315215844 -0.5542346415113054 28 20 18
-0.06990152342415788 -0.12325471872482235 -0.5554371865732426 27 23 18
-0.07053496736881153 -0.12392369384979532 -0.5567610675460057 23 19 15
-0.07018938194683527 -0.12343617248931439 -0.5589638383874692 28 23 20
-0.0699113040926851 -0.12302820696988583 -0.5611105109218546 33 28 24
-0.06917832133864044 -0.12208256034766557 -0.5636731081585385 39 34 31
-0.06858357666837525 -0.12129997031607884 -0.5661173278955318 34 29 26
-0.06856583919264442 -0.12119902900472075 -0.568042405638527 29 24 21
-0.06831539211193902 -0.12082292032089616 -0.570182950772492 26 20 19
-0.0675623121059592 -0.11985249178550259 -0.5727884518864828 24 18 17
-0.0675264819664711 -0.11972967944495572 -0.5747416754585709 20 14 14
-0.06763799949526456 -0.11978095187007567 -0.5765619635941923 21 16 16
-0.06564765800805872 -0.11734682628110085 -0.58032970714609 25 21 20
-0.06565673348689798 -0.11727651291943844 -0.5822556646565028 30 26 25
-0.06612241346817553 -0.11774610340293996 -0.5837590387947863 15 11 10
-0.0659049870924103 -0.11740770744820073 -0.5859008158575504 17 11 11
-0.0653619665101715 -0.11668398100613178 -0.5883519811279875 24 18 18
-0.0647600737292601 -0.11589034938114877 -0.590864620646259 26 20 20
-0.06451119915058912 -0.11551413421830684 -0.5930506311709187 23 18 16
-0.06256092758756154 -0.11312444566179672 -0.5968515318384907 26 21 17
-0.062241002575672943 -0.11266356560984153 -0.5991188743913768 24 19 16
-0.061985978255557295 -0.1122792986694811 -0.6013291963536352 25 20 17
-0.0626323759685945 -0.1129618574615932 -0.602682458493736 23 18 14
-0.06276911910324279 -0.11304111834938138 -0.6045232960079011 27 22 19
-0.062118999935017266 -0.11218868555741655 -0.6071229754569519 24 18 18
-0.06215177242067285 -0.11214456405027887 -0.6090706379292258 20 15 15
-0.06227884315577217 -0.11221199814670496 -0.6109297316832486 28 24 23
-0.06212001091722573 -0.11194073768260102 -0.6130685509241385 23 19 18
-0.06179470728369793 -0.11147213488637665 -0.6153734005559623 17 13 12
-0.06168780584052444 -0.11126204388713595 -0.6174697714857076 21 17 16
-0.060456186102703466 -0.10971932414561622 -0.6206721148806672 19 15 14
-0.060377058791682495 -0.10954169562525796 -0.6227518162218888 25 21 20
-0.059872808091861976 -0.10886016046906943 -0.6252542529915024 23 19 18
-0.05928693881426851 -0.10808164422239114 -0.6278435083892143 23 19 18
-0.05926623077226867 -0.1079727031330625 -0.6298784371424139 28 24 23
-0.059108153404224525 -0.10770079888012117 -0.6320532276313519 18 14 13
-0.05917825691404506 -0.10769923680370742 -0.6340040988367287 17 13 12
-0.059845526792563414 -0.10840558521361433 -0.6353592935514095 18 14 13
-0.060312878682079935 -0.10887492758184814 -0.6369142270830173 17 13 12
-0.06008835265025657 -0.10852377591117943 -0.6391666589674412 19 15 14
-0.06021656951757627 -0.10859079986843528 -0.6410668273742982 20 16 15
-0.059732641526334895 -0.10793163542718745 -0.6435900645503189 22 18 17
-0.05996703497880709 -0.10812434930322676 -0.645388546967448 23 19 18
-0.06023156087991334 -0.10835274753349881 -0.6471578346388949 22 18 17
-0.06083235934331106 -0.10898009059018506 -0.6485842721588551 18 14 13
-0.05828539911742489 -0.10587209596315382 -0.6532420091582376 16 12 11
-0.0614999747967719 -0.1096011365309305 -0.6519848851967266 16 12 11
-0.06092127682494186 -0.10882851141365052 -0.654629284388491 16 12 11
-0.060729333199475294 -0.10851471067752207 -0.6568796193910574 13 9 8
-0.0607934098821455 -0.10850467931741137 -0.6588681221457674 13 9 7
-0.06056052810114561 -0.10814194682280448 -0.661168879645289 13 12 8
-0.0609095887465249 -0.1084700625572261 -0.6628656378628933 14 13 9
-0.060901675235032024 -0.10837419869311818 -0.6649376888023901 16 15 11
-0.05999856946031033 -0.10721495175342936 -0.6679546823650973 20 16 14
-0.059629438159878895 -0.10668962599883276 -0.6704170397204176 20 16 15
-0.06056393592624769 -0.10771278614889562 -0.671505038063029 20 16 15
-0.060857010972825906 -0.10797396829863178 -0.6732711392875468 18 14 13
-0.0608066506581678 -0.1078270044226221 -0.6754041832813804 14 12 11
-0.06106713937708774 -0.10804931062798753 -0.6772086730332836 11 10 8
-0.06212257303067077 -0.10921637866558885 -0.6781630407447256 11 10 8
-0.06144058920757871 -0.10831837756115996 -0.6809805402790192 11 10 8
-0.06252254770176184 -0.10951705024416458 -0.6819046116121513 10 9 7
-0.06213696919588395 -0.10897106512625725 -0.6844111103804149 11 10 8
-0.06175264153939153 -0.10842633120038876 -0.6869218898446273 10 9 7
-0.06140514834229521 -0.10792516495819239 -0.6893982586940554 8 7 7
-0.06081232660280794 -0.10713199047138441 -0.6921475959490191 8 6 7
-0.06066426888740112 -0.10686756212560916 -0.6944174552167233 8 6 7
-0.05996021177679413 -0.10549668993219749 -0.7079188382965637 8 6 7
-0.059928946280078874 -0.10537009670684774 -0.7100869026562313 8 6 7
-0.05925765024951045 -0.10448135220670932 -0.712975207533895 7 6 7
-0.060736456027043834 -0.10615244879354357 -0.7134561264229241 7 6 6
-0.062300998939096894 -0.10792591707036972 -0.7138339873587948 9 6 6
-0.06360044676094277 -0.109383954587982 -0.7145043017757898 13 9 8
-0.06449704373980421 -0.11036236690284677 -0.7156257712583135 14 10 9
-0.06648243456688943 -0.11263793782318517 -0.715507248238686 18 14 12
-0.06808924019688603 -0.11446287339000258 -0.7158103250856046 20 16 15
-0.0699048550993081 -0.11653692491373095 -0.7158673275032514 24 20 18
-0.07168429446319678 -0.11856823524891104 -0.715957000188608 29 26 22
-0.07371991799626305 -0.12090523188921698 -0.7157435605276377 29 25 21
-0.0754695791539275 -0.12290180315190101 -0.7158495357448617 29 25 22
-0.07973276209056068 -0.12789510891274272 -0.7130405563346621 28 26 22
-0.08149958259681003 -0.12991319671478035 -0.7131013702921833 31 28 24
-0.08382389918096919 -0.13259639436848158 -0.7125052020045035 34 30 27
-0.08604648877353516 -0.13515879721562324 -0.7120153427714766 37 33 30
-0.08836560716357839 -0.13783681650295382 -0.7114008778284873 38 33 30
-0.08969283435572373 -0.13933221911164595 -0.7119376508992097 44 38 33
-0.09102911983344321 -0.14083866724850996 -0.712458051564722 68 60 52
-0.0916540693603293 -0.1414966705680692 -0.7138119370168671 61 52 42
-0.09240954714874049 -0.14231046605955155 -0.7150103789466582 59 50 40
-0.09359278091111138 -0.14363481274335932 -0.7156993549042239 62 51 38
-0.09419065552578788 -0.14426072526653 -0.7170801250189249 85 72 52
-0.09374390122984122 -0.1436397439741793 -0.7197067287586882 99 84 58
-0.09372870569562854 -0.14353369432227722 -0.7218231179071588 126 107 73
-0.09433579462293579 -0.14417047571040736 -0.7231959911940858 134 116 77
-0.09381339526583235 -0.14345858960244018 -0.72592744275694 114 99 66
-0.09288218361869789 -0.1422582025605772 -0.7291591666104302 90 72 43
-0.09119626980574125 -0.14015601739763103 -0.733314052683243 127 107 75
-0.08839109789498822 -0.13671624097303758 -0.7388424006542695 135 116 85
-0.0858764100635693 -0.13362254921968264 -0.7440396858246362 107 93 64
-0.0836819477914464 -0.1309106005540483 -0.7488666604091859 99 88 60
-0.0799082028800784 -0.1263107212911394 -0.7556453973794287 98 86 59
-0.07835693785631855 -0.1243656762754742 -0.759725143092399 112 98 71
-0.0780984558355277 -0.12396522036011423 -0.7622274773568002 103 89 63
-0.07763875480609753 -0.12332401366424456 -0.7649834158293671 95 82 55
-0.07724619551124791 -0.12276280012395549 -0.7676628322380128 102 89 63
-0.07715314844727164 -0.12255944688885081 -0.7699765648394397 98 86 62
-0.07672539963826469 -0.12195568091985404 -0.7727110613449673 90 79 57
-0.07565581526666207 -0.12058403518814476 -0.7762532538190885 88 76 53
-0.07522954074028718 -0.11998140027047496 -0.7790009974884086 91 78 53
-0.07604841170358383 -0.12086800547910737 -0.7801920475273314 109 96 69
-0.07681086372487123 -0.12168720507973035 -0.7814518779497873 105 91 66
-0.07644782129289997 -0.12115977540247555 -0.7841306568227492 88 74 52
-0.07750029951214894 -0.12232603783894208 -0.7850235791656778 76 60 39
-0.07858333558872366 -0.12352903632210371 -0.7858738173533057 66 51 29
-0.07931533715994493 -0.1243120231343558 -0.7871667747410115 57 42 20
-0.07987957221801333 -0.124894239957235 -0.788672220949791 53 38 18
-0.08066741709677414 -0.12574420108297027 -0.7898909791539678 66 51 31
-0.08130655380690968 -0.12641618047432276 -0.7912985479622208 75 61 38
-0.08194546585424614 -0.1270879330716867 -0.7927053973203776 97 82 56
-0.08249900424601038 -0.1276574734899386 -0.7942214191935383 105 89 60
-0.0836183592933979 -0.12890480986718483 -0.7950047924226845 112 97 68
-0.08412286499244452 -0.12941572615228975 -0.7965816194120031 115 100 69
-0.0846272959916937 -0.12992655550586607 -0.7981584822178729 114 99 66
-0.08500784105503091 -0.13028893179474832 -0.7998969328812393 119 103 69
-0.08483695014523561 -0.1299903914635308 -0.8023577027155548 122 102 64
-0.08532558546010753 -0.1304821755739449 -0.8039579656935399 140 114 75
-0.0859720235305585 -0.1311631273006996 -0.8053506866255896 142 119 80
-0.08717698534045806 -0.13251375236276813 -0.8060055565066196 136 114 73
-0.0887643986325199 -0.13432317929264032 -0.8061494459585081 134 114 73
-0.08877070857062903 -0.13423683409541137 -0.8083825588096012 131 112 73
-0.09135128216460835 -0.13723785628846086 -0.8071955531003443 122 104 68
-0.09168919141286747 -0.13754936811582658 -0.8089842153566602 115 99 64
-0.09255159853583102 -0.13849006281773044 -0.8100726556259488 121 106 72
-0.0941975601917917 -0.14037100390730317 -0.8101078284468296 113 97 64
-0.09533641525080326 -0.14164377531154812 -0.8108164067524175 113 97 66
-0.09220088712521896 -0.13778689712627457 -0.8172824677950681 106 90 60
-0.0920799168197839 -0.13754725501445553 -0.8197001276411244 100 85 55
-0.09098555478274838 -0.13613892365552172 -0.8234415804823204 100 87 55
-0.09437441500587776 -0.14001807875656627 -0.8233589239005125 97 86 56
-0.09450328188828631 -0.14007811906906203 -0.8254435199967722 100 87 58
-0.09533211037706558 -0.14097874021390663 -0.8265718466167098 106 92 62
-0.0963122214911424 -0.14206118646808275 -0.8274899035186764 102 89 58
-0.09795563121133422 -0.14394064610982427 -0.8274907761097907 98 84 54
-0.09984603566582557 -0.14611722988247566 -0.8271420565453618 113 98 58
-0.10023759032623596 -0.146493117015495 -0.8288585572270242 178 159 115
-0.10090500960641756 -0.14720051504737375 -0.830192777895358 199 181 137
-0.10184122107850113 -0.14823105148656446 -0.8311514985306981 191 176 133
-0.1027063762330013 -0.14917630637130047 -0.8322061090379743 157 143 103
-0.10384536531854646 -0.1504509069715505 -0.8328746868636029 133 120 81
-0.10426337328424386 -0.15085876441447732 -0.834550210875535 124 109 69
-0.10432731340742847 -0.15084079404982612 -0.8367244728741872 136 119 79
-0.1048697337537531 -0.15139818910568106 -0.8382268933632882 144 127 88
-0.10507907071927997 -0.1515549268760235 -0.8402000905236835 140 124 84
-0.10488917208553525 -0.15123126410554805 -0.8427416322710273 138 123 84
-0.10565541651979911 -0.15205785273750866 -0.8439286225084508 140 125 86
-0.10610079166458741 -0.15249839561721834 -0.8455710469723621 140 125 86
-0.10613564748301438 -0.1524448425664417 -0.8478006878885023 141 126 87
-0.10683709881038546 -0.153193532395203 -0.8490783220942448 139 124 87
-0.1076078053394866 -0.15402566253064265 -0.850254848678906 137 123 88
-0.10772004429353466 -0.15406506845863593 -0.8523780568760082 126 112 78
-0.10851630250358416 -0.15492803978747616 -0.853515945074463 136 123 88
-0.1086311747096967 -0.15497048420984266 -0.8556385098294316 131 119 88
-0.10874985439866486 -0.155017394481765 -0.8577584157777683 104 97 71
-0.10897299546963886 -0.15519002623538578 -0.8597290631749829 71 66 49
-0.10914448915757809 -0.15530034575857735 -0.8617771704185397 56 54 42
-0.10921294778690707 -0.15528640670004412 -0.8639785537437654 59 55 45
-0.10777930157093049 -0.15346207822011074 -0.8683876511879182 89 84 74
-0.1076858541401908 -0.15325247860041136 -0.8708395428158009 121 116 109
-0.10731285102197667 -0.15270569459342656 -0.8737083747279614 149 145 141
-0.11254919305698552 -0.15872789830175932 -0.8729057679670901 179 179 179
0.007627464284609177 -0.04918148870274523 -0.1519040410524955 178 178 178
0.007352002121008967 -0.04943607458693628 -0.15333455222306805 178 178 178
0.009404100228595329 -0.04699786653929119 -0.1553226750096139 178 178 178
0.0022823341335301457 -0.05517332060272315 -0.1551068804414474 178 179 178
0.0007101323963345074 -0.056928661264642834 -0.15621424773387527 178 178 175
-0.0006942315941154357 -0.05848998878612908 -0.1573580605356231 176 172 164
-0.0010894203810130829 -0.05888360983065759 -0.15874771626957093 143 136 122
-0.0021809272933189846 -0.06008311001103507 -0.15996362438413253 123 115 98
-0.003709033104979215 -0.06178806704650635 -0.16106680807212925 158 147 125
-0.004744801860911668 -0.06292332547349425 -0.16229040407404274 163 151 123
-0.0055152664275519864 -0.0637515709283675 -0.16357938112693682 86 75 47
-0.006292299297365635 -0.06458748207893011 -0.1648652271000291 120 112 88
-0.006431373776381833 -0.06468482573765659 -0.1663156422990971 88 81 63
-0.006882598853145889 -0.06514355408874571 -0.16768538390049859 92 85 68
-0.0075003731274438 -0.06579514771786678 -0.1690109837529593 62 56 41
-0.00816596789588437 -0.06650215520488292 -0.1703230374089742 78 71 55
-0.009108719733947222 -0.0675301993894094 -0.17155961151128063 115 107 90
-0.011454143806119536 -0.07018299127660395 -0.1724141004750191 144 136 119
-0.01318454026677542 -0.07212371623873522 -0.1734283291299565 175 165 139
-0.01620208319568448 -0.07555575888022323 -0.17408292669903377 213 200 167
-0.018813101843333728 -0.07851730364617346 -0.17483918828422393 221 207 170
-0.018606642764754617 -0.07821485804682463 -0.17637321443852644 107 92 62
-0.01902238846420877 -0.0786332537249444 -0.17773478626582417 86 71 45
-0.019612707053918498 -0.07925394363049629 -0.17904688084784096 105 90 63
-0.01930763728197061 -0.07883700198670184 -0.18061414175162444 110 94 68
-0.019249564541101057 -0.07870619297798266 -0.18211341472188752 69 53 32
-0.01955778657242956 -0.07899986004293005 -0.1835085121689117 66 49 31
-0.019530614631839492 -0.07890472641002023 -0.18500211649395354 78 61 40
-0.020373425843766932 -0.07981804942210916 -0.18624157908307995 103 88 63
-0.019914073255160925 -0.07922177794984267 -0.18786535188873657 101 87 59
-0.019242701615414286 -0.07837951794449481 -0.18955626245131882 136 121 91
-0.02094756997263121 -0.08029240247031066 -0.19053707128997271 89 74 43
-0.020597607890898456 -0.07982267358517171 -0.19213494437860418 75 61 33
-0.020476740573131594 -0.07961848810679967 -0.1936662652926887 79 63 37
-0.020968791404971335 -0.08012507520584353 -0.19501159441093857 89 73 44
-0.020587339098334854 -0.07961848781270864 -0.19662697877957258 128 112 80
-0.020597142733947166 -0.07956560892618345 -0.19812393311183196 79 62 35
-0.020558729844268854 -0.07945671643429522 -0.1996378336699288 67 48 24
-0.02045626900873001 -0.07927342922291597 -0.20117400176278824 85 69 41
-0.0208369738040731 -0.07965065276742334 -0.20255873975931918 99 85 57
-0.020526381666787087 -0.07922570157120934 -0.20416515904018 83 69 42
-0.020583786697770112 -0.07922766249569096 -0.20565610365298495 81 67 42
-0.020726124783688557 -0.07932812428559456 -0.2071210891353295 82 69 44
-0.019988744582259584 -0.0784074789888627 -0.20887494586613328 62 49 25
-0.019694092795513728 -0.07800051309016005 -0.210488200626903 67 53 35
-0.01946522912978464 -0.07766978092996678 -0.21208283828651836 55 41 27
-0.019290693872252386 -0.07740199678743569 -0.21366225290429194 52 40 27
-0.019406720320367755 -0.07747145118455127 -0.21514677934954135 59 47 37
-0.020182287620755128 -0.07830665917640536 -0.2164098082086618 44 31 23
-0.02093145707099306 -0.07911127852521516 -0.21768029399175517 49 37 29
-0.02167999679891145 -0.07991522689108184 -0.21894958699117614 70 60 47
-0.02220362094595376 -0.0804580153502419 -0.2202949709431808 124 112 95
-0.02301100575003414 -0.08133041223350329 -0.22154153658525091 70 57 41
-0.023276654545166843 -0.08157359784285008 -0.22297549652553786 56 46 33
-0.023988231935892168 -0.08233478728469021 -0.22425356447375994 36 28 17
-0.024288455764838165 -0.08261812190881743 -0.22567577273353254 52 43 31
-0.025818141182040864 -0.0843299312928896 -0.22666126705411455 82 69 52
-0.026413636657992158 -0.08495643530968487 -0.22797620968318824 155 141 115
-0.02967934709792403 -0.08868597834180743 -0.2283287608621111 205 190 159
-0.030120224853001643 -0.08913310850704703 -0.22969227781986837 231 217 183
-0.031116533615469896 -0.09022580375729912 -0.2308532169478467 223 207 173
-0.032140132893309845 -0.09135032989117609 -0.232001594277562 226 211 171
-0.0338586696558147 -0.09328281130863024 -0.23289079461296688 225 211 175
-0.034063137059761224 -0.09345534283308415 -0.2343364303526241 234 221 189
-0.033989589278888614 -0.0933045952127425 -0.2358869262817506 215 201 168
-0.035005813938427784 -0.09442088869575627 -0.23703008590741118 126 111 82
-0.037543771025155034 -0.09730684390393547 -0.23759521658601213 84 68 45
-0.03782074383963454 -0.09756380165659613 -0.23901079393554273 108 94 67
-0.03796354899418216 -0.09766468789652677 -0.24047837355211463 151 140 108
-0.03804416832421334 -0.09769318858826923 -0.24197116323752746 159 149 120
-0.03949682339978726 -0.09931762708943226 -0.2429343302095003 124 111 87
-0.04001774100082578 -0.09985834201795579 -0.24425566903602852 110 99 79
-0.04049582602880995 -0.10034924291747159 -0.24559334617978015 107 96 74
-0.041024620281204315 -0.10089915602290479 -0.2469108008567324 106 93 67
-0.03965045399444776 -0.09923475148110054 -0.2489818161231018 109 94 67
-0.03975473351975501 -0.09929050083729841 -0.2504718375192494 98 84 57
-0.04020191588881191 -0.09974526575410499 -0.2518258868979966 94 80 54
-0.04022324083439344 -0.09970437034035891 -0.2533514984487367 90 76 51
-0.040863970983215786 -0.10038439536597824 -0.25462786334118653 93 81 56
-0.04162978622147172 -0.10121007636872181 -0.25585224833466247 93 81 56
-0.04228669079811123 -0.10190902872904266 -0.25711972208742806 89 77 51
-0.04263729332874875 -0.10225139477068217 -0.25851241132013875 84 72 50
-0.04298305597007311 -0.10258811045996266 -0.2599074507442267 67 54 37
-0.04333999744738321 -0.10293782832881083 -0.2612981966415948 63 51 32
-0.043585639014720214 -0.10315791162447273 -0.26273591342894587 75 63 41
-0.04396965087383579 -0.1035391205319191 -0.26411613861853267 72 60 40
-0.04427086878078081 -0.10382388210768781 -0.26553164453829864 65 52 33
-0.044434583286855255 -0.10394844023534869 -0.2670063197339411 70 58 36
-0.04473734105928325 -0.10423493271887972 -0.26842263779548736 72 60 38
-0.0437065106086932 -0.1029676283728193 -0.2704139883673072 72 60 40
-0.04305929774760567 -0.10214702746132821 -0.2722459719654689 62 51 33
-0.04214510395804996 -0.1010150979345498 -0.2741992037110396 51 39 24
-0.040756008324479204 -0.09932944720372025 -0.27636657681429844 50 38 25
-0.04036921604240759 -0.09881162330440449 -0.27810133869187037 48 37 27
-0.03981613643953154 -0.09809981053380767 -0.27991348416981615 43 33 25
-0.03916726505566521 -0.09727613565000003 -0.2817728344215819 28 21 15
-0.038680578514372704 -0.09664132020725515 -0.28356473018570405 33 26 20
-0.03904862992176024 -0.09700286503769051 -0.28497677463698895 47 40 34
-0.038492287529378805 -0.09628654700688183 -0.28680675567836456 27 21 15
-0.038496712245893905 -0.09622394492780359 -0.28838671512809805 25 20 14
-0.03852683051788435 -0.09619122051603667 -0.2899569622521048 28 22 13
-0.03967231849515579 -0.09745928157395681 -0.2910173109646772 32 25 15
-0.04028298330412243 -0.09810366300918107 -0.2923209675943514 45 39 27
-0.040816863916359025 -0.09865851076502785 -0.2936593788643174 52 45 31
-0.04176091281050079 -0.09969188702440084 -0.29480619215728476 63 56 39
-0.042448301055907744 -0.10042591723718454 -0.29607078051608565 92 83 65
-0.043547147252977564 -0.10164009544001569 -0.2971404865804329 112 101 84
-0.044313926695532954 -0.10246691446619483 -0.298364114847707 118 107 88
-0.04503681739949768 -0.10324258274542149 -0.2996070150985847 131 120 97
-0.045722768498473926 -0.10397519746573039 -0.3008661773930449 152 141 117
-0.04696086687073851 -0.10535234427767014 -0.30185897306906473 153 141 114
-0.047749978841463155 -0.10620554219966664 -0.30306459723986967 171 157 131
-0.04898865831827706 -0.10758365202296749 -0.30405046650273027 193 179 153
-0.04986563264675391 -0.10853962528131036 -0.3052087566040648 179 166 139
-0.05048007710962771 -0.10918915136744776 -0.30649348681737937 174 162 132
-0.05099245353581335 -0.10971952679883763 -0.3078275658986291 141 130 102
-0.05160291801506641 -0.11036447055502109 -0.30911273176501647 116 108 81
-0.05213208749249591 -0.11091450367381844 -0.31043742932583734 94 84 59
-0.052510760405352984 -0.11128877036213995 -0.3118368049928157 88 78 54
-0.05260860765500319 -0.11133497998320815 -0.31337735029904495 101 94 71
-0.05312502295158201 -0.11187011481317038 -0.3147084362672218 96 88 71
-0.05364347172478234 -0.11240764351704306 -0.3160380706444931 69 61 47
-0.053004699834313246 -0.1115930229867512 -0.31795639961480227 58 50 36
-0.05200309472698081 -0.11035418613603704 -0.3200655052383301 63 54 41
-0.050964937573114946 -0.10907233409159721 -0.3222003521143934 60 50 38
-0.06564906673003548 -0.11595610861902661 -0.554583527239237 44 41 35
-0.0662619511514061 -0.11660081346352688 -0.5559390522491224 34 30 26
-0.06735649884896705 -0.11781625125659008 -0.5568642816599682 28 25 20
-0.06798945428595202 -0.11848487559640687 -0.5581986794613081 26 23 18
-0.06837635023243718 -0.1188619385560011 -0.5597529027051736 26 23 19
-0.06821083831927542 -0.11858425543986827 -0.5618049727538933 30 26 23
-0.067612164208909 -0.11779296359620774 -0.5642520811632799 36 30 26
-0.06721753576422473 -0.11724329287057134 -0.5665205672646458 32 27 23
-0.0667152889474251 -0.11656581029919859 -0.5688920250335987 27 22 19
-0.06629573015421196 -0.11598612665419022 -0.5711938120004838 26 21 20
-0.06576094769107338 -0.1152695775286278 -0.5736063443949885 23 17 18
-0.06596920295514086 -0.11543400584934944 -0.5753425582958741 19 13 14
-0.06520604201026377 -0.11444615535371491 -0.5779752432588151 23 17 18
-0.06530096583990584 -0.11447588715056894 -0.5798222209176221 29 25 24
-0.06530513330866843 -0.11439785198598976 -0.5817555952597939 30 26 25
-0.06404653324592266 -0.11282142164173369 -0.5848664529009615 27 23 22
-0.06465853711507487 -0.11346426130808847 -0.5862419501716517 22 18 17
-0.06416120541042993 -0.11279062305371586 -0.5886552352213354 29 24 22
-0.06343163196912337 -0.11184108954976348 -0.5912925029392894 34 29 27
-0.06260184341317467 -0.11077228805755301 -0.5940314612544129 32 27 25
-0.06234498460696945 -0.11038330126503296 -0.5962366878018501 27 21 21
-0.0606591854435386 -0.10829757631979141 -0.5998014972844851 24 18 18
-0.06033496412409056 -0.10782803760250734 -0.6020840072135275 26 20 20
-0.06048431676634353 -0.10792067762600766 -0.6039193786047345 35 30 29
-0.06093747709165455 -0.10837405518078012 -0.6054658464177879 34 29 26
-0.06056987209471214 -0.10785252290152036 -0.6078008251336937 27 22 19
-0.05997035730501524 -0.10705527755525729 -0.6103644193674614 21 16 15
-0.059841137814692844 -0.10681648950417857 -0.6124799867491273 24 19 19
-0.05986662940287779 -0.10676136869742314 -0.6144492452681752 20 16 15
-0.05957866145716931 -0.10633363796889234 -0.6167262019683032 20 16 15
-0.05932507557955846 -0.10594656719833719 -0.6189743128249502 21 17 16
-0.058347846727978825 -0.10469919161275128 -0.621935312927055 16 12 11
-0.05839167681515997 -0.10466518274062288 -0.623902610431141 14 10 9
-0.057947265872881376 -0.10405061317928095 -0.6263535568169901 17 13 12
-0.05755539744936805 -0.10349827093869124 -0.628758297574022 19 15 14
-0.057795795690999574 -0.10369753490240938 -0.6305417001699504 17 13 12
-0.057784960784884196 -0.103597956343836 -0.632576415956302 15 11 10
-0.0576996620028722 -0.10340968086025414 -0.6346884661400467 14 10 9
-0.05702423562961598 -0.10251928951792318 -0.6373945080206401 15 11 10
-0.05758857992055286 -0.10310347845726371 -0.6388634272487016 14 10 9
-0.057720527007487935 -0.10317323124312426 -0.6407671807120056 15 11 10
-0.05783402485572174 -0.10322093694150458 -0.642691762816952 18 14 13
-0.05781641825967487 -0.10311252286058666 -0.6447514758646467 21 17 16
-0.057648276591147476 -0.1028248100658811 -0.646967300982548 25 21 20
-0.058231479066887165 -0.10343125895863416 -0.6484213694214871 24 20 19
-0.058675635228284576 -0.10387220643456174 -0.6500169901356501 20 16 15
-0.058688586608912754 -0.10379975681924057 -0.6520551080987779 17 13 12
-0.05716148330131718 -0.10189340573313432 -0.6556805141624603 16 12 11
-0.05714469115805036 -0.10178507280464658 -0.6577601354064007 16 12 11
-0.05731775004633892 -0.10190271432710382 -0.6596464336883591 15 11 10
-0.05728392813434817 -0.10177384958271152 -0.6617495069956337 13 9 8
-0.060482142841254055 -0.10549504449672235 -0.6604901025743908 12 8 6
-0.0601238426676787 -0.10497975300523664 -0.6629284724149368 14 13 9
-0.059766804820622396 -0.10446573581491364 -0.6653708846734504 14 13 9
-0.059408898721655876 -0.10395045397961637 -0.6678195784008985 14 13 9
-0.0590500646413335 -0.10343383544097204 -0.6702746369260132 15 11 9
-0.058470670784998124 -0.10265409070331707 -0.6729682958056902 15 11 10
-0.05777119281834846 -0.10173090368780467 -0.6757961289725319 15 11 10
-0.05730909179708468 -0.1010903955200683 -0.6783790781392016 12 11 9
-0.05708184303836429 -0.10072965293566377 -0.6807175710870523 11 10 8
-0.05650789266182586 -0.0999552739300193 -0.6834316825628893 9 8 6
-0.0569554962264128 -0.10039893696075368 -0.685056192323163 9 8 6
-0.05704429320565545 -0.10041461479237276 -0.6870672594632118 9 8 6
-0.05833410941566464 -0.10186288386260262 -0.6877841113813948 8 7 5
-0.058764633599686575 -0.10228620024143724 -0.6894264222575321 8 7 5
-0.055228447915553674 -0.09797649015935078 -0.6953778888113632 8 7 5
-0.055526099858265954 -0.09814954442727603 -0.6993058572702172 8 6 7
-0.055758326159524 -0.09787727629031207 -0.7118789038421615 7 5 6
-0.05838017541919992 -0.1009168584654887 -0.7111032351483002 7 5 6
-0.05895909764798571 -0.10151659875644667 -0.712599341254111 7 5 6
-0.06006271814655183 -0.10274323029862917 -0.7135061185678537 6 5 6
-0.06184992599158966 -0.10478682575993392 -0.7136395613849733 7 6 6
-0.06275564050898447 -0.1057773989452176 -0.7147594510540948 14 12 11
-0.06423351713796546 -0.1074519050367089 -0.7152289155926408 18 14 12
-0.06559929691209682 -0.1089927021242203 -0.7158191387315099 21 17 14
-0.0674133188490733 -0.11106958830967856 -0.7158931844732515 26 22 19
-0.06941020987527137 -0.11336548310812337 -0.7157496263678009 27 23 20
-0.07078221866111516 -0.11491462670344067 -0.7163117413786952 29 26 22
-0.07309963553718657 -0.11759459330700067 -0.7157820598080632 31 28 23
-0.07483588808825994 -0.11958001029234813 -0.7159096735552897 31 28 23
-0.07642352637006582 -0.12138802053889178 -0.7162006488815404 32 29 24
-0.07874563516421566 -0.1240749819349939 -0.7156332686012296 30 29 24
-0.08249911530246308 -0.1284750033109757 -0.71339033258184 34 31 27
-0.08480367335533491 -0.1311422243568291 -0.7128139804183726 42 37 34
-0.08685118615589307 -0.13350235965184537 -0.7125257989562805 45 39 36
-0.08868021916114516 -0.13560145669728446 -0.7124831532895443 45 39 36
-0.09049720172360931 -0.13768651877793672 -0.7124455798021753 46 40 36
-0.09214922281525256 -0.1395744842562061 -0.7125934359324588 50 44 38
-0.0926845646155766 -0.14012579631136207 -0.7140535075949465 61 52 45
-0.09384325113736662 -0.1414235425095709 -0.7147741490775542 59 49 45
-0.09477926852056909 -0.14245482161709175 -0.7157549201609531 56 46 41
-0.0953190486776585 -0.143011649216496 -0.7172050398985566 59 46 37
-0.09557970331469683 -0.1432341376395967 -0.7189885042106327 76 62 44
-0.09551059761753522 -0.14306150311179988 -0.7211688866230086 109 93 63
