ply
format ascii 1.0
element vertex 871
property float x
property float y
property float z
property float nx
property float ny
property float nz
property uchar diffuse_red
property uchar diffuse_green
property uchar diffuse_blue
property uchar class
property uchar detection
end_header
-0.0220 0.0987 -0.5622 0.904 0.407 -0.132 39 30 22 0 0
-0.0231 0.0970 -0.5672 0.871 0.407 -0.274 26 18 15 0 0
-0.0630 0.0410 -0.6222 0.021 0.952 0.304 35 29 22 0 0
-0.0298 0.0856 -0.6455 0.685 0.638 0.352 44 40 36 0 0
-0.0194 0.0987 -0.6833 0.592 0.760 0.267 10 8 9 0 0
-0.0212 0.0959 -0.6958 0.496 0.826 -0.268 6 5 5 0 0
-0.0213 0.0957 -0.6980 0.792 0.611 -0.010 6 5 6 0 0
-0.0231 0.0930 -0.7044 0.509 0.861 0.013 7 6 6 0 0
0.0072 0.1337 -0.7277 0.533 0.844 0.056 152 133 93 0 0
-0.0046 0.1160 -0.7799 0.580 0.558 0.594 49 40 24 0 0
0.0086 0.1329 -0.8164 0.635 0.618 0.463 87 70 42 0 0
0.0128 0.1383 -0.8302 0.569 0.816 0.108 135 121 90 0 0
0.0131 0.1384 -0.8410 0.423 0.722 0.547 105 91 64 0 0
0.0167 0.1434 -0.8400 0.427 0.834 0.349 114 104 73 0 0
0.0185 0.1451 -0.8667 0.642 0.706 0.300 131 128 121 0 0
-0.0725 0.0354 -0.2810 0.409 0.843 0.350 213 198 162 0 0
-0.0558 0.0565 -0.3364 0.447 0.790 0.419 81 65 41 0 0
-0.0532 0.0597 -0.3451 0.445 0.834 0.325 93 79 54 0 0
-0.0533 0.0593 -0.3571 0.598 0.787 -0.151 46 36 23 0 0
-0.0554 0.0563 -0.3600 0.264 0.855 0.447 49 40 27 0 0
-0.0207 0.0998 -0.4930 0.615 0.723 0.314 76 62 40 0 0
-0.0199 0.1008 -0.4942 0.678 0.660 0.323 84 71 48 0 0
-0.0237 0.0934 -0.5652 0.986 -0.145 -0.086 35 28 20 0 0
-0.0211 0.0930 -0.6994 0.824 0.567 0.014 5 5 5 0 0
-0.0174 0.0981 -0.6992 0.631 0.541 -0.556 6 6 5 0 0
-0.0203 0.0939 -0.7048 0.898 0.429 0.098 10 9 10 0 0
0.0002 0.1215 -0.7175 0.528 0.323 0.786 62 58 53 0 0
0.0011 0.1214 -0.7631 0.252 0.835 -0.489 37 28 15 0 0
-0.0033 0.1148 -0.7800 0.580 0.558 0.594 49 40 24 0 0
-0.0027 0.1156 -0.7814 0.580 0.558 0.594 49 40 25 0 0
0.0095 0.1312 -0.8150 0.509 0.818 0.267 74 59 37 0 0
0.0155 0.1387 -0.8396 0.577 0.702 0.417 104 92 65 0 0
0.0179 0.1412 -0.8676 0.333 0.942 -0.043 88 85 73 0 0
0.0202 0.1443 -0.8663 0.603 0.518 0.607 124 122 113 0 0
-0.0915 0.0072 -0.2564 -0.443 0.782 0.438 101 88 70 0 0
-0.0520 0.0583 -0.3571 0.598 0.787 -0.151 44 34 24 0 0
-0.0358 0.0801 -0.3711 0.559 0.736 0.382 225 203 160 0 0
-0.0305 0.0868 -0.3882 0.350 0.937 -0.013 73 57 34 0 0
-0.0271 0.0893 -0.4559 0.279 0.930 0.238 60 48 32 0 0
-0.0268 0.0897 -0.4574 0.322 0.879 0.352 64 52 36 0 0
-0.0269 0.0895 -0.4593 0.322 0.946 0.033 63 52 36 0 0
-0.0199 0.0980 -0.4935 -0.045 0.991 0.124 69 57 39 0 0
-0.0197 0.0983 -0.4951 -0.045 0.991 0.124 67 56 37 0 0
-0.0411 0.0647 -0.6297 0.875 0.365 0.319 64 56 45 0 0
-0.0216 0.0903 -0.6662 0.656 0.537 0.530 12 11 9 0 0
-0.0186 0.0938 -0.6877 0.262 0.965 -0.014 6 6 6 0 0
-0.0193 0.0928 -0.6906 0.940 0.330 0.091 5 5 5 0 0
-0.0195 0.0922 -0.7013 0.893 0.344 -0.290 5 5 5 0 0
-0.0204 0.0907 -0.7066 0.772 0.613 -0.171 13 11 12 0 0
-0.0017 0.1141 -0.7797 0.216 0.845 0.488 58 46 30 0 0
-0.0013 0.1146 -0.7813 0.293 0.868 0.400 68 57 42 0 0
0.0032 0.1207 -0.7861 0.452 0.764 0.460 74 58 42 0 0
0.0034 0.1208 -0.7902 0.508 0.786 0.352 55 44 32 0 0
0.0200 0.1419 -0.8438 0.565 0.808 0.168 177 163 126 0 0
0.0210 0.1425 -0.8672 0.490 0.798 0.350 117 114 106 0 0
0.0214 0.1429 -0.8690 0.563 0.773 0.292 149 148 145 0 0
-0.0632 0.0420 -0.3011 0.432 0.784 0.447 62 49 32 0 0
-0.0276 0.0867 -0.4340 0.530 0.841 0.106 75 63 38 0 0
-0.0268 0.0876 -0.4370 0.261 0.935 0.242 75 63 39 0 0
-0.0261 0.0881 -0.4543 0.411 0.878 0.245 61 48 37 0 0
-0.0258 0.0884 -0.4558 0.411 0.878 0.245 58 45 33 0 0
-0.0255 0.0887 -0.4574 0.411 0.878 0.245 52 42 29 0 0
-0.0187 0.0973 -0.4826 0.695 0.691 0.200 81 72 55 0 0
-0.0185 0.0975 -0.4843 0.385 0.904 0.184 86 77 60 0 0
-0.0188 0.0970 -0.4863 0.614 0.789 0.029 79 69 52 0 0
-0.0197 0.0949 -0.5128 0.970 0.151 0.189 61 47 32 0 0
-0.0191 0.0955 -0.5179 0.976 0.131 0.174 51 39 27 0 0
-0.0189 0.0959 -0.5195 0.980 0.138 0.140 52 40 28 0 0
-0.0186 0.0961 -0.5212 0.976 0.131 0.174 45 34 23 0 0
-0.0185 0.0962 -0.5229 0.994 0.113 0.009 40 31 20 0 0
-0.0185 0.0962 -0.5248 0.994 0.113 0.009 46 37 27 0 0
-0.0184 0.0962 -0.5266 0.992 0.126 0.007 47 37 28 0 0
-0.0183 0.0961 -0.5359 0.992 -0.089 -0.093 90 85 78 0 0
-0.0183 0.0961 -0.5377 0.990 -0.051 -0.132 87 82 76 0 0
-0.0187 0.0954 -0.5401 0.991 -0.107 -0.082 78 71 67 0 0
-0.0194 0.0944 -0.5426 0.983 -0.167 -0.074 60 55 51 0 0
-0.0193 0.0945 -0.5444 0.993 -0.098 -0.069 40 37 32 0 0
-0.0209 0.0921 -0.5496 0.979 -0.132 -0.158 30 27 21 0 0
-0.0204 0.0927 -0.5530 0.953 0.088 -0.291 27 24 19 0 0
-0.0402 0.0630 -0.6302 0.875 0.365 0.319 63 54 43 0 0
-0.0399 0.0633 -0.6319 0.920 0.364 0.145 75 65 53 0 0
-0.0207 0.0887 -0.6646 0.431 0.543 0.720 22 21 18 0 0
-0.0201 0.0895 -0.6660 0.243 0.511 0.825 12 11 9 0 0
-0.0188 0.0912 -0.6707 0.453 0.878 0.155 28 27 22 0 0
-0.0175 0.0919 -0.7027 0.925 0.344 -0.162 5 5 5 0 0
-0.0187 0.0902 -0.7062 0.870 0.169 0.464 14 12 13 0 0
0.0216 0.1410 -0.8480 0.333 0.848 0.413 116 103 71 0 0
0.0228 0.1419 -0.8690 0.379 0.911 0.161 144 144 140 0 0
-0.0679 0.0333 -0.2839 0.316 0.903 0.292 224 206 172 0 0
-0.0558 0.0487 -0.3231 0.495 0.778 0.386 72 59 36 0 0
-0.0490 0.0571 -0.3516 0.614 0.787 0.058 62 50 35 0 0
-0.0477 0.0585 -0.3646 0.455 0.554 0.697 94 85 72 0 0
-0.0280 0.0848 -0.3882 0.529 0.830 -0.175 73 55 33 0 0
-0.0250 0.0871 -0.4455 0.617 0.759 0.209 69 55 35 0 0
-0.0245 0.0876 -0.4540 0.782 0.589 0.203 41 31 24 0 0
-0.0236 0.0887 -0.4551 0.625 0.779 -0.046 39 29 22 0 0
-0.0266 0.0840 -0.4719 0.827 0.157 0.540 46 38 30 0 0
-0.0260 0.0849 -0.4732 0.827 0.157 0.540 60 48 34 0 0
-0.0193 0.0919 -0.5361 0.977 -0.196 -0.088 71 67 63 0 0
-0.0193 0.0919 -0.5380 0.983 -0.145 -0.109 52 48 44 0 0
-0.0195 0.0915 -0.5401 0.981 -0.140 -0.134 40 36 33 0 0
-0.0199 0.0909 -0.5423 0.983 -0.145 -0.109 33 28 25 0 0
-0.0202 0.0904 -0.5445 0.983 -0.172 -0.071 30 25 22 0 0
-0.0539 0.0415 -0.6208 0.222 0.915 0.337 34 27 21 0 0
-0.0528 0.0429 -0.6218 0.087 0.929 0.359 33 25 18 0 0
-0.0519 0.0441 -0.6250 0.312 0.842 0.441 44 35 27 0 0
-0.0369 0.0643 -0.6384 0.517 0.775 0.364 51 43 35 0 0
-0.0087 0.1007 -0.7127 0.081 0.333 0.939 52 48 45 0 0
0.0134 0.1306 -0.7289 0.386 0.835 0.392 132 111 69 0 0
0.0054 0.1178 -0.7848 0.355 0.711 0.607 86 73 55 0 0
0.0070 0.1196 -0.7936 0.612 0.682 0.400 75 62 46 0 0
0.0176 0.1332 -0.8270 0.671 0.690 0.273 178 165 124 0 0
0.0190 0.1350 -0.8294 0.455 0.780 0.430 99 87 62 0 0
0.0273 0.1453 -0.8662 0.094 0.883 0.460 165 164 163 0 0
-0.0372 0.0702 -0.3658 0.167 0.165 0.972 120 111 102 0 0
-0.0343 0.0741 -0.3674 0.222 0.435 0.873 160 144 120 0 0
-0.0334 0.0753 -0.3686 0.106 0.543 0.833 161 141 110 0 0
-0.0269 0.0835 -0.3917 0.525 0.784 0.331 65 48 28 0 0
-0.0242 0.0857 -0.4369 0.701 0.703 0.120 79 64 41 0 0
-0.0241 0.0859 -0.4386 0.197 0.948 0.252 77 62 39 0 0
-0.0242 0.0855 -0.4440 0.668 0.743 -0.025 69 54 32 0 0
-0.0232 0.0868 -0.4486 0.172 0.886 0.430 52 40 24 0 0
-0.0239 0.0856 -0.4510 0.799 0.468 0.378 51 39 24 0 0
-0.0238 0.0857 -0.4527 0.817 0.574 -0.059 43 33 23 0 0
-0.0254 0.0831 -0.4683 0.593 0.755 -0.281 43 36 28 0 0
-0.0262 0.0817 -0.4744 0.857 0.454 0.246 64 52 39 0 0
-0.0188 0.0913 -0.4921 0.872 0.042 0.487 70 62 48 0 0
-0.0499 0.0437 -0.6265 0.418 0.572 0.705 46 37 30 0 0
-0.0390 0.0586 -0.6318 0.813 0.299 0.500 76 67 55 0 0
-0.0356 0.0631 -0.6386 0.442 0.739 0.508 58 51 43 0 0
-0.0336 0.0658 -0.6426 0.433 0.797 0.421 72 67 61 0 0
-0.0201 0.0838 -0.6608 0.796 0.521 0.307 15 13 11 0 0
-0.0198 0.0841 -0.6647 0.965 0.248 0.091 39 35 32 0 0
-0.0137 0.0921 -0.6743 0.878 0.342 0.336 7 7 7 0 0
0.0149 0.1298 -0.7287 0.386 0.835 0.392 115 96 64 0 0
0.0156 0.1307 -0.7319 0.565 0.822 0.070 112 92 57 0 0
0.0121 0.1236 -0.7971 0.607 0.629 0.485 93 81 61 0 0
0.0237 0.1380 -0.8469 0.559 0.697 0.450 108 94 62 0 0
0.0243 0.1388 -0.8482 0.471 0.796 0.380 124 107 71 0 0
-0.0910 -0.0030 -0.2481 -0.339 0.610 0.716 172 167 160 0 0
-0.0881 0.0011 -0.2486 -0.137 0.430 0.892 160 149 130 0 0
-0.0243 0.0837 -0.4099 0.228 0.923 0.311 73 59 35 0 0
-0.0237 0.0840 -0.4286 0.604 0.705 0.373 82 68 43 0 0
-0.0230 0.0845 -0.4423 0.344 0.775 0.530 70 55 33 0 0
-0.0227 0.0848 -0.4439 0.502 0.798 0.333 68 52 34 0 0
-0.0226 0.0849 -0.4456 0.446 0.792 0.417 68 54 38 0 0
-0.0227 0.0848 -0.4474 0.542 0.840 0.026 55 42 27 0 0
-0.0230 0.0841 -0.4513 0.855 0.515 0.057 50 41 27 0 0
-0.0253 0.0802 -0.4729 0.639 0.647 0.416 54 48 39 0 0
-0.0252 0.0803 -0.4747 0.888 0.426 0.172 75 65 52 0 0
-0.0223 0.0842 -0.4778 0.870 -0.091 0.484 86 80 66 0 0
-0.0168 0.0905 -0.5156 0.969 -0.246 -0.027 83 80 76 0 0
-0.0398 0.0546 -0.6279 0.349 0.908 0.234 70 61 52 0 0
-0.0395 0.0550 -0.6297 0.349 0.908 0.234 69 60 51 0 0
-0.0377 0.0574 -0.6319 0.257 0.587 0.768 65 55 43 0 0
0.0155 0.1282 -0.7170 -0.075 0.771 0.632 65 62 53 0 0
0.0165 0.1292 -0.7283 0.411 0.820 0.398 81 62 38 0 0
0.0165 0.1291 -0.7305 0.564 0.825 0.042 101 79 49 0 0
0.0177 0.1308 -0.7310 0.389 0.747 0.539 112 92 57 0 0
0.0179 0.1309 -0.7328 0.276 0.807 0.522 118 99 67 0 0
0.0047 0.1112 -0.7764 0.212 0.770 0.602 65 54 39 0 0
0.0140 0.1233 -0.7964 0.396 0.834 0.385 78 64 45 0 0
0.0246 0.1363 -0.8454 0.559 0.697 0.450 138 123 90 0 0
0.0251 0.1369 -0.8470 0.559 0.697 0.450 121 105 71 0 0
0.0257 0.1377 -0.8482 0.501 0.735 0.456 135 117 78 0 0
0.0288 0.1419 -0.8524 0.468 0.770 0.434 161 150 105 0 0
0.0307 0.1441 -0.8653 0.137 0.556 0.820 160 159 158 0 0
-0.0297 0.0750 -0.3678 0.371 0.338 0.865 145 130 102 0 0
-0.0213 0.0845 -0.4331 0.677 0.679 0.283 79 64 41 0 0
-0.0245 0.0785 -0.4751 0.940 0.328 -0.093 72 63 51 0 0
-0.0248 0.0778 -0.4791 0.830 0.133 0.541 73 66 54 0 0
-0.0189 0.0857 -0.4907 0.965 -0.170 0.198 76 68 59 0 0
0.0115 0.1171 -0.7888 0.273 0.835 0.478 89 78 57 0 0
0.0303 0.1409 -0.8524 0.468 0.770 0.434 150 138 94 0 0
-0.0659 0.0255 -0.2719 0.477 0.786 0.395 154 133 94 0 0
-0.0440 0.0533 -0.3448 0.487 0.807 0.335 83 70 55 0 0
-0.0430 0.0545 -0.3493 0.512 0.729 0.454 65 53 36 0 0
-0.0425 0.0549 -0.3576 0.556 0.826 0.098 47 39 26 0 0
-0.0199 0.0843 -0.4154 0.163 0.880 0.445 84 69 45 0 0
-0.0192 0.0846 -0.4307 0.262 0.917 0.300 78 63 40 0 0
-0.0190 0.0849 -0.4323 0.372 0.898 0.234 81 66 43 0 0
-0.0217 0.0800 -0.4630 0.877 0.290 -0.384 84 81 72 0 0
-0.0222 0.0792 -0.4652 0.814 0.405 -0.415 86 83 74 0 0
-0.0229 0.0782 -0.4676 0.814 0.405 -0.415 80 77 68 0 0
-0.0235 0.0772 -0.4699 0.665 0.561 -0.493 69 67 58 0 0
-0.0235 0.0771 -0.4718 0.880 0.427 -0.208 53 49 40 0 0
-0.0237 0.0768 -0.4737 0.846 0.509 -0.159 56 49 39 0 0
-0.0240 0.0763 -0.4758 0.894 0.401 -0.202 60 51 42 0 0
-0.0241 0.0761 -0.4777 0.944 0.301 0.136 76 70 57 0 0
-0.0242 0.0759 -0.4796 0.830 0.133 0.541 77 70 59 0 0
-0.0216 0.0793 -0.4866 0.961 0.118 0.250 81 74 64 0 0
-0.0199 0.0814 -0.4926 0.959 -0.241 0.149 89 83 76 0 0
-0.0196 0.0813 -0.5072 0.997 0.077 0.008 90 87 80 0 0
-0.0195 0.0813 -0.5090 0.935 -0.354 0.025 83 80 73 0 0
0.0159 0.1233 -0.7076 -0.312 0.939 -0.144 55 51 48 0 0
0.0164 0.1239 -0.7091 -0.285 0.950 -0.128 58 54 51 0 0
0.0173 0.1251 -0.7099 -0.186 0.975 0.121 57 53 51 0 0
0.0252 0.1312 -0.8421 0.543 0.823 0.167 136 121 87 0 0
0.0276 0.1345 -0.8474 0.563 0.746 0.355 129 109 77 0 0
-0.0810 0.0026 -0.2472 0.123 0.535 0.836 136 127 116 0 0
-0.0638 0.0256 -0.2748 0.503 0.783 0.366 137 118 86 0 0
-0.0550 0.0369 -0.2990 0.451 0.830 0.329 135 112 77 0 0
-0.0417 0.0536 -0.3493 0.512 0.729 0.454 63 54 38 0 0
-0.0409 0.0545 -0.3573 0.548 0.811 0.205 48 41 30 0 0
-0.0359 0.0611 -0.3663 0.234 0.304 0.923 108 103 94 0 0
-0.0352 0.0620 -0.3676 0.394 0.144 0.908 115 106 97 0 0
-0.0186 0.0834 -0.4154 0.235 0.897 0.374 86 72 46 0 0
-0.0218 0.0770 -0.4641 0.911 0.212 -0.355 98 93 82 0 0
-0.0222 0.0763 -0.4681 0.814 0.405 -0.415 91 86 75 0 0
-0.0225 0.0758 -0.4701 0.665 0.561 -0.493 64 60 50 0 0
-0.0234 0.0745 -0.4727 0.669 0.567 -0.481 71 66 56 0 0
-0.0232 0.0746 -0.4744 0.768 0.586 -0.259 72 65 55 0 0
-0.0233 0.0745 -0.4763 0.894 0.401 -0.202 73 65 54 0 0
-0.0235 0.0742 -0.4782 0.937 0.324 0.133 76 69 58 0 0
-0.0236 0.0739 -0.4802 0.787 0.255 0.562 77 70 61 0 0
-0.0229 0.0748 -0.4815 0.830 0.244 0.502 77 70 63 0 0
-0.0217 0.0763 -0.4860 0.943 0.307 0.126 82 75 67 0 0
-0.0214 0.0768 -0.4876 0.951 0.243 0.193 84 77 69 0 0
-0.0211 0.0770 -0.4892 0.951 0.243 0.193 85 78 70 0 0
0.0184 0.1253 -0.6732 0.140 0.921 -0.365 34 30 28 0 0
0.0179 0.1243 -0.6779 0.670 0.742 -0.029 36 29 28 0 0
0.0175 0.1237 -0.6804 -0.349 0.827 0.440 44 37 35 0 0
0.0190 0.1258 -0.6806 -0.266 0.512 0.817 44 38 35 0 0
0.0199 0.1245 -0.7483 0.364 0.870 -0.333 127 110 79 0 0
0.0189 0.1211 -0.7977 0.529 0.802 0.277 57 44 25 0 0
0.0233 0.1260 -0.8314 0.270 0.879 0.392 77 65 39 0 0
0.0293 0.1338 -0.8470 0.411 0.815 0.407 128 106 71 0 0
-0.0806 0.0004 -0.2459 -0.217 0.837 0.502 133 124 113 0 0
-0.0799 0.0013 -0.2473 0.128 0.692 0.710 123 115 102 0 0
-0.0791 0.0024 -0.2486 0.095 0.501 0.860 103 95 82 0 0
-0.0476 0.0437 -0.3177 0.426 0.800 0.422 117 100 70 0 0
-0.0440 0.0482 -0.3343 0.380 0.897 0.225 85 76 56 0 0
-0.0397 0.0534 -0.3557 0.559 0.826 0.078 33 26 18 0 0
-0.0400 0.0529 -0.3576 0.627 0.773 0.098 44 38 29 0 0
-0.0343 0.0605 -0.3678 0.394 0.144 0.908 109 100 91 0 0
-0.0314 0.0645 -0.3694 0.522 0.027 0.852 126 114 104 0 0
-0.0173 0.0825 -0.4136 0.878 0.467 0.102 86 72 45 0 0
-0.0172 0.0826 -0.4153 0.878 0.467 0.102 91 77 50 0 0
-0.0171 0.0826 -0.4170 0.800 0.599 0.030 85 69 44 0 0
-0.0171 0.0826 -0.4187 0.800 0.599 0.030 85 70 45 0 0
-0.0166 0.0833 -0.4201 0.869 0.488 -0.085 87 73 47 0 0
-0.0167 0.0829 -0.4237 0.830 0.533 0.161 80 65 44 0 0
-0.0165 0.0831 -0.4253 0.830 0.533 0.161 89 74 53 0 0
-0.0162 0.0835 -0.4268 0.816 0.522 0.248 82 67 46 0 0
-0.0216 0.0744 -0.4668 0.964 0.085 -0.252 97 90 77 0 0
0.0216 0.1255 -0.7079 0.139 0.990 -0.028 72 65 59 0 0
0.0253 0.1296 -0.7323 0.227 0.824 0.519 149 133 96 0 0
0.0253 0.1296 -0.7344 0.261 0.883 0.389 142 127 89 0 0
0.0260 0.1306 -0.7355 0.233 0.972 0.032 133 117 78 0 0
0.0152 0.1136 -0.7829 0.176 0.944 0.281 93 81 59 0 0
0.0286 0.1299 -0.8457 0.209 0.883 0.420 130 114 78 0 0
0.0315 0.1333 -0.8617 0.090 0.917 0.388 94 90 74 0 0
-0.0800 -0.0014 -0.2411 0.004 0.908 0.420 103 94 83 0 0
-0.0797 -0.0011 -0.2427 -0.126 0.923 0.363 100 91 76 0 0
-0.0581 0.0279 -0.2767 0.568 0.600 0.564 126 104 74 0 0
-0.0504 0.0378 -0.3013 0.454 0.787 0.417 164 143 104 0 0
-0.0493 0.0391 -0.3058 0.439 0.776 0.453 92 73 52 0 0
-0.0422 0.0480 -0.3356 0.506 0.829 0.236 59 51 32 0 0
-0.0384 0.0524 -0.3557 0.281 0.929 0.242 44 36 27 0 0
-0.0348 0.0571 -0.3655 0.486 0.473 0.735 87 78 69 0 0
-0.0210 0.0762 -0.3722 0.592 0.636 0.495 189 171 136 0 0
-0.0205 0.0769 -0.3736 0.592 0.636 0.495 187 167 134 0 0
0.0267 0.1322 -0.6463 0.813 0.579 -0.060 18 17 15 0 0
0.0267 0.1322 -0.6483 0.882 0.434 -0.184 24 22 20 0 0
0.0265 0.1317 -0.6506 0.882 0.434 -0.184 27 24 22 0 0
0.0262 0.1313 -0.6529 0.882 0.434 -0.184 35 30 26 0 0
0.0275 0.1331 -0.6533 0.712 0.601 -0.363 41 36 30 0 0
0.0269 0.1321 -0.6560 0.712 0.601 -0.363 54 48 41 0 0
0.0267 0.1307 -0.6825 0.668 0.563 0.486 70 60 41 0 0
0.0247 0.1268 -0.7098 -0.015 0.756 0.654 69 62 53 0 0
0.0256 0.1274 -0.7295 0.156 0.929 0.334 146 128 85 0 0
0.0268 0.1290 -0.7320 0.139 0.891 0.432 141 125 87 0 0
0.0282 0.1267 -0.8350 0.317 0.904 0.286 121 106 72 0 0
-0.0781 -0.0015 -0.2409 0.023 0.891 0.454 110 98 82 0 0
-0.0478 0.0384 -0.3056 0.403 0.853 0.331 103 83 58 0 0
-0.0410 0.0469 -0.3340 0.470 0.830 0.299 72 61 42 0 0
-0.0370 0.0517 -0.3555 0.483 0.800 0.355 34 26 17 0 0
-0.0368 0.0519 -0.3571 0.423 0.884 0.199 31 22 14 0 0
-0.0350 0.0541 -0.3629 0.400 0.752 0.524 56 46 36 0 0
-0.0276 0.0643 -0.3703 0.332 0.104 0.938 133 125 110 0 0
-0.0198 0.0752 -0.3722 0.592 0.636 0.495 186 168 131 0 0
-0.0193 0.0758 -0.3736 0.592 0.636 0.495 203 184 148 0 0
0.0289 0.1335 -0.6217 0.289 0.950 -0.122 50 45 37 0 0
0.0283 0.1322 -0.6322 -0.020 0.998 -0.065 70 66 56 0 0
0.0282 0.1320 -0.6343 0.041 0.996 -0.078 62 58 46 0 0
0.0282 0.1320 -0.6362 0.011 1.000 0.001 64 60 47 0 0
0.0282 0.1319 -0.6382 0.017 0.998 -0.060 77 71 58 0 0
0.0284 0.1320 -0.6400 -0.056 0.997 -0.043 79 73 63 0 0
0.0284 0.1319 -0.6419 -0.056 0.997 -0.043 86 79 69 0 0
0.0284 0.1319 -0.6439 -0.056 0.997 -0.043 92 85 73 0 0
0.0284 0.1318 -0.6459 -0.056 0.997 -0.043 93 86 74 0 0
0.0284 0.1317 -0.6479 -0.037 0.999 -0.033 91 84 69 0 0
0.0282 0.1314 -0.6501 -0.168 0.981 -0.098 102 93 79 0 0
0.0281 0.1311 -0.6522 -0.168 0.981 -0.098 106 95 81 0 0
0.0278 0.1306 -0.6565 -0.033 0.985 -0.168 112 101 83 0 0
0.0276 0.1291 -0.6831 0.374 0.925 0.070 109 94 67 0 0
0.0282 0.1299 -0.6844 0.484 0.875 -0.005 115 100 72 0 0
0.0255 0.1249 -0.7146 0.301 0.937 0.175 71 63 46 0 0
0.0254 0.1238 -0.7379 0.215 0.955 0.204 161 144 104 0 0
0.0288 0.1250 -0.8249 0.475 0.836 0.275 90 81 55 0 0
0.0327 0.1298 -0.8392 0.558 0.761 0.330 142 131 98 0 0
-0.0763 -0.0018 -0.2406 -0.015 0.893 0.449 193 181 152 0 0
-0.0757 -0.0010 -0.2420 0.023 0.891 0.454 158 145 117 0 0
-0.0354 0.0511 -0.3570 0.505 0.830 0.235 31 24 17 0 0
0.0249 0.1263 -0.5929 -0.600 0.782 0.171 53 45 39 0 0
0.0307 0.1335 -0.6172 0.092 0.990 0.109 120 108 87 0 0
0.0305 0.1331 -0.6194 0.267 0.963 0.047 107 96 76 0 0
0.0303 0.1327 -0.6216 0.449 0.874 -0.184 97 87 70 0 0
0.0303 0.1319 -0.6393 -0.027 0.998 -0.050 120 107 86 0 0
0.0302 0.1317 -0.6413 -0.025 0.997 -0.073 105 92 70 0 0
0.0304 0.1319 -0.6450 -0.099 0.995 -0.005 104 92 71 0 0
0.0287 0.1269 -0.7060 0.462 0.878 0.130 116 102 70 0 0
0.0232 0.1170 -0.7557 0.245 0.876 -0.415 141 124 82 0 0
0.0169 0.1070 -0.7799 0.280 0.567 0.774 54 43 23 0 0
0.0240 0.1163 -0.7984 0.495 0.772 0.398 130 116 84 0 0
0.0246 0.1171 -0.7997 0.384 0.776 0.500 130 111 80 0 0
0.0296 0.1233 -0.8212 0.475 0.836 0.275 147 134 98 0 0
0.0300 0.1237 -0.8230 0.513 0.794 0.326 97 86 63 0 0
0.0341 0.1288 -0.8392 0.558 0.761 0.330 113 100 69 0 0
-0.0391 0.0442 -0.3292 0.258 0.892 0.371 82 69 45 0 0
-0.0377 0.0458 -0.3369 0.646 0.606 0.465 52 44 35 0 0
-0.0179 0.0724 -0.3726 0.268 0.859 0.437 146 131 103 0 0
-0.0178 0.0723 -0.3759 0.095 0.869 0.486 97 83 64 0 0
-0.0169 0.0735 -0.3804 0.400 0.805 0.438 88 78 58 0 0
-0.0163 0.0743 -0.3817 0.446 0.634 0.632 81 67 45 0 0
-0.0150 0.0760 -0.3826 0.621 0.781 -0.072 84 69 47 0 0
-0.0147 0.0764 -0.3841 0.636 0.771 0.028 81 66 43 0 0
-0.0148 0.0761 -0.3859 0.883 0.465 -0.067 76 61 38 0 0
0.0337 0.1354 -0.6038 -0.211 0.971 0.114 123 110 82 0 0
0.0321 0.1325 -0.6191 0.220 0.975 -0.010 130 115 86 0 0
0.0305 0.1266 -0.7033 0.515 0.851 0.103 110 93 63 0 0
0.0285 0.1222 -0.7396 0.349 0.929 -0.121 163 144 102 0 0
0.0181 0.1058 -0.7801 0.412 0.797 0.442 58 47 27 0 0
0.0224 0.1117 -0.7828 0.330 0.813 0.479 70 57 33 0 0
0.0240 0.1137 -0.7872 0.499 0.730 0.468 71 56 33 0 0
0.0356 0.1281 -0.8367 0.569 0.687 0.452 115 102 67 0 0
0.0356 0.1280 -0.8390 0.588 0.617 0.523 101 85 51 0 0
0.0384 0.1318 -0.8437 0.472 0.770 0.429 144 123 82 0 0
0.0442 0.1387 -0.8732 -0.586 0.597 0.548 203 203 204 0 0
0.0912 0.2055 -0.8667 0.986 0.134 -0.102 213 213 213 0 0
-0.0165 0.0715 -0.3758 0.066 0.789 0.611 88 73 55 0 0
-0.0158 0.0723 -0.3805 0.145 0.925 0.351 95 82 65 0 0
-0.0150 0.0733 -0.3817 0.315 0.937 0.152 87 74 56 0 0
-0.0137 0.0751 -0.3826 0.571 0.816 -0.093 80 67 48 0 0
0.0348 0.1328 -0.6370 0.237 0.967 0.090 147 130 100 0 0
0.0349 0.1329 -0.6388 0.313 0.946 0.084 124 107 78 0 0
0.0249 0.1121 -0.7856 0.499 0.730 0.468 66 52 28 0 0
0.0262 0.1137 -0.7926 0.853 0.467 0.234 85 72 45 0 0
0.0350 0.1245 -0.8308 0.405 0.872 0.274 153 140 95 0 0
0.0354 0.1249 -0.8326 0.405 0.872 0.274 202 189 143 0 0
-0.0621 0.0093 -0.2529 0.352 0.731 0.584 73 60 41 0 0
-0.0372 0.0413 -0.3312 0.558 0.817 0.143 45 38 30 0 0
-0.0336 0.0457 -0.3462 0.464 0.834 0.298 88 82 70 0 0
-0.0153 0.0704 -0.3759 0.195 0.281 0.940 85 72 51 0 0
-0.0141 0.0721 -0.3768 0.364 0.330 0.871 83 71 51 0 0
-0.0146 0.0713 -0.3788 0.539 0.763 0.358 94 82 63 0 0
-0.0141 0.0720 -0.3802 0.691 0.714 0.114 85 73 53 0 0
-0.0128 0.0737 -0.3811 0.935 0.144 -0.324 77 65 47 0 0
0.0402 0.1419 -0.5433 0.253 0.933 0.255 92 84 76 0 0
0.0229 0.1068 -0.7750 0.279 0.697 0.660 89 78 56 0 0
0.0364 0.1235 -0.8286 0.623 0.748 0.229 154 140 96 0 0
0.0366 0.1238 -0.8305 0.399 0.857 0.326 205 193 150 0 0
0.0369 0.1241 -0.8324 0.423 0.895 0.143 196 184 146 0 0
0.0457 0.1350 -0.8684 0.546 0.265 0.795 188 188 190 0 0
0.0459 0.1352 -0.8705 0.297 0.224 0.928 194 194 196 0 0
0.0950 0.2054 -0.8623 0.795 0.606 -0.006 213 213 213 0 0
0.0952 0.2056 -0.8642 0.732 0.675 0.093 209 209 209 0 0
0.0953 0.2058 -0.8661 0.732 0.675 0.093 210 210 210 0 0
0.0956 0.2060 -0.8679 0.804 0.519 0.289 213 213 213 0 0
-0.0605 0.0087 -0.2560 0.567 0.743 0.356 43 32 22 0 0
-0.0463 0.0273 -0.2928 0.604 0.694 0.392 20 13 7 0 0
-0.0298 0.0477 -0.3618 0.847 0.475 0.240 29 24 19 0 0
-0.0322 0.0437 -0.3720 0.111 0.737 0.667 39 34 30 0 0
-0.0156 0.0672 -0.3752 0.505 0.087 0.859 105 97 78 0 0
-0.0141 0.0694 -0.3759 0.469 0.102 0.877 97 87 68 0 0
-0.0141 0.0693 -0.3776 0.492 0.080 0.867 100 92 73 0 0
-0.0134 0.0703 -0.3788 0.712 0.088 0.697 113 105 87 0 0
-0.0139 0.0694 -0.3809 0.911 0.367 0.186 84 76 57 0 0
-0.0128 0.0710 -0.3819 0.965 0.068 -0.254 86 78 60 0 0
-0.0131 0.0704 -0.3838 0.937 0.091 -0.338 89 80 64 0 0
0.0536 0.1608 -0.4902 0.622 0.754 -0.211 95 83 62 0 0
0.0534 0.1605 -0.4921 0.507 0.825 -0.252 86 75 53 0 0
0.0534 0.1604 -0.4938 0.666 0.741 -0.081 87 75 53 0 0
0.0401 0.1393 -0.5373 0.186 0.935 0.302 81 74 59 0 0
0.0404 0.1397 -0.5388 0.186 0.935 0.302 84 77 63 0 0
0.0409 0.1403 -0.5401 0.302 0.871 0.388 86 80 68 0 0
0.0413 0.1408 -0.5415 0.302 0.871 0.388 92 86 75 0 0
0.0395 0.1356 -0.5995 0.362 0.931 -0.049 150 136 99 0 0
0.0395 0.1355 -0.6015 0.362 0.931 -0.049 150 132 91 0 0
0.0364 0.1275 -0.6783 0.286 0.958 0.009 136 124 96 0 0
0.0363 0.1271 -0.6825 0.345 0.939 0.010 168 151 110 0 0
0.0337 0.1207 -0.7403 0.442 0.886 -0.143 160 143 99 0 0
0.0250 0.1067 -0.7741 0.338 0.922 0.189 81 69 45 0 0
0.0280 0.1102 -0.7919 0.517 0.761 0.392 93 79 50 0 0
0.0330 0.1165 -0.8090 0.752 0.508 0.419 133 117 85 0 0
0.0374 0.1220 -0.8269 0.701 0.691 0.176 152 140 102 0 0
0.0377 0.1223 -0.8288 0.701 0.691 0.176 186 175 135 0 0
0.0379 0.1225 -0.8307 0.701 0.691 0.176 158 145 112 0 0
0.0401 0.1254 -0.8364 0.310 0.784 0.538 107 87 55 0 0
0.0473 0.1342 -0.8683 0.572 0.101 0.814 190 190 191 0 0
0.0484 0.1358 -0.8687 0.576 0.114 0.809 196 196 198 0 0
-0.0689 -0.0051 -0.2318 0.534 0.835 0.132 178 175 171 0 0
-0.0590 0.0081 -0.2526 0.474 0.825 0.309 64 55 34 0 0
-0.0594 0.0074 -0.2577 0.641 0.760 0.107 66 49 34 0 0
-0.0593 0.0074 -0.2594 0.655 0.655 0.377 78 59 37 0 0
-0.0355 0.0386 -0.3198 0.590 0.769 0.247 29 22 17 0 0
-0.0353 0.0389 -0.3213 0.590 0.769 0.247 27 21 16 0 0
-0.0347 0.0396 -0.3244 0.336 0.828 0.449 28 23 17 0 0
-0.0325 0.0419 -0.3401 0.542 0.588 0.601 41 36 33 0 0
-0.0321 0.0425 -0.3416 0.637 0.554 0.536 16 10 10 0 0
-0.0285 0.0467 -0.3618 0.867 0.458 0.197 30 25 20 0 0
-0.0302 0.0437 -0.3715 0.430 0.590 0.683 42 36 31 0 0
-0.0121 0.0692 -0.3805 0.441 0.885 -0.150 91 85 70 0 0
0.0420 0.1377 -0.5717 0.259 0.936 0.237 123 108 81 0 0
0.0423 0.1380 -0.5733 0.259 0.936 0.237 139 125 89 0 0
0.0407 0.1347 -0.5958 0.295 0.826 0.481 138 121 87 0 0
0.0396 0.1329 -0.6009 0.541 0.840 -0.027 160 144 103 0 0
0.0378 0.1265 -0.6802 0.271 0.961 0.054 146 130 95 0 0
0.0358 0.1221 -0.7138 0.322 0.947 0.001 139 121 78 0 0
0.0334 0.1170 -0.7489 0.431 0.883 -0.186 160 143 98 0 0
0.0282 0.1078 -0.7826 0.239 0.808 0.539 107 94 62 0 0
0.0297 0.1099 -0.7848 0.457 0.864 0.210 105 92 62 0 0
0.0339 0.1145 -0.8143 0.504 0.860 0.086 81 68 40 0 0
0.0348 0.1157 -0.8174 0.434 0.763 0.480 84 68 40 0 0
0.0390 0.1211 -0.8290 0.737 0.653 0.175 119 108 76 0 0
0.0410 0.1237 -0.8349 0.640 0.720 0.270 82 65 38 0 0
0.0416 0.1245 -0.8363 0.355 0.858 0.372 84 68 39 0 0
0.0417 0.1246 -0.8383 0.449 0.870 0.202 90 76 42 0 0
0.0486 0.1330 -0.8684 0.458 0.118 0.881 191 190 192 0 0
-0.0669 -0.0048 -0.2282 -0.133 0.805 -0.578 179 179 178 0 0
-0.0547 0.0115 -0.2530 0.296 0.814 0.500 35 26 15 0 0
-0.0547 0.0114 -0.2546 0.658 0.727 0.196 46 36 28 0 0
-0.0316 0.0404 -0.3404 0.605 0.359 0.711 32 28 24 0 0
-0.0310 0.0412 -0.3417 0.637 0.554 0.536 17 12 10 0 0
-0.0285 0.0438 -0.3643 0.883 0.408 -0.232 25 22 15 0 0
-0.0172 0.0595 -0.3744 0.348 0.187 0.918 74 68 58 0 0
0.0486 0.1470 -0.5185 0.210 0.967 -0.145 85 73 56 0 0
0.0486 0.1468 -0.5204 0.177 0.977 -0.115 98 86 67 0 0
0.0477 0.1454 -0.5231 0.338 0.936 -0.093 105 93 72 0 0
0.0476 0.1452 -0.5249 0.338 0.936 -0.093 80 68 45 0 0
0.0462 0.1417 -0.5537 0.521 0.854 0.009 115 101 79 0 0
0.0462 0.1417 -0.5555 0.521 0.854 0.009 104 91 69 0 0
0.0420 0.1340 -0.5901 0.488 0.866 0.111 151 136 94 0 0
0.0402 0.1274 -0.6747 0.539 0.823 -0.176 178 162 117 0 0
0.0375 0.1224 -0.6967 0.871 0.488 0.060 100 86 54 0 0
0.0375 0.1216 -0.7133 0.418 0.908 0.038 147 130 86 0 0
0.0377 0.1209 -0.7342 0.709 0.662 0.242 174 155 109 0 0
0.0354 0.1171 -0.7438 0.655 0.743 -0.134 161 141 94 0 0
0.0283 0.1054 -0.7755 0.110 0.928 0.356 89 77 50 0 0
0.0316 0.1094 -0.7885 0.368 0.866 0.339 104 90 64 0 0
0.0311 0.1086 -0.7914 0.605 0.736 0.304 87 72 45 0 0
0.0426 0.1229 -0.8369 0.559 0.715 0.420 116 101 70 0 0
0.0450 0.1259 -0.8467 0.938 0.316 0.141 140 123 83 0 0
0.0497 0.1316 -0.8689 0.683 0.109 0.722 193 192 195 0 0
0.0506 0.1326 -0.8743 0.628 0.750 -0.208 203 203 204 0 0
-0.0327 0.0368 -0.3263 0.477 0.853 0.212 43 38 35 0 0
-0.0326 0.0367 -0.3280 0.709 0.643 0.291 40 35 32 0 0
0.0575 0.1608 -0.4456 0.593 0.769 -0.239 80 68 52 0 0
0.0573 0.1604 -0.4475 0.593 0.769 -0.239 79 67 52 0 0
0.0559 0.1576 -0.4622 0.500 0.860 0.103 122 105 75 0 0
0.0556 0.1570 -0.4659 0.619 0.779 0.098 118 106 74 0 0
0.0487 0.1438 -0.5305 0.405 0.915 -0.002 125 109 73 0 0
0.0470 0.1402 -0.5560 0.554 0.826 -0.105 126 108 78 0 0
0.0392 0.1212 -0.7108 0.707 0.705 -0.049 153 136 93 0 0
0.0393 0.1208 -0.7212 0.511 0.858 -0.054 132 114 77 0 0
0.0388 0.1199 -0.7240 0.449 0.884 -0.126 135 115 79 0 0
0.0383 0.1190 -0.7288 0.628 0.636 0.449 161 143 99 0 0
0.0367 0.1160 -0.7439 0.748 0.651 -0.131 147 129 82 0 0
0.0303 0.1050 -0.7791 0.283 0.759 0.587 63 48 23 0 0
0.0321 0.1070 -0.7920 0.715 0.619 0.324 78 63 38 0 0
0.0404 0.1173 -0.8244 0.629 0.605 0.488 91 76 40 0 0
0.0431 0.1207 -0.8338 0.407 0.764 0.501 128 112 80 0 0
0.0435 0.1212 -0.8354 0.607 0.569 0.555 116 101 66 0 0
0.0509 0.1303 -0.8692 0.486 0.189 0.853 195 195 197 0 0
0.0518 0.1310 -0.8771 0.536 0.819 -0.207 206 206 206 0 0
-0.0660 -0.0094 -0.2304 0.460 0.557 0.692 180 178 183 0 0
-0.0650 -0.0080 -0.2333 0.575 0.760 0.302 175 170 163 0 0
-0.0380 0.0275 -0.3012 0.716 0.584 0.382 88 74 59 0 0
-0.0316 0.0357 -0.3230 0.445 0.815 0.371 32 25 20 0 0
-0.0312 0.0362 -0.3245 0.498 0.739 0.453 32 27 23 0 0
-0.0310 0.0360 -0.3312 0.709 0.685 0.171 19 18 14 0 0
0.0582 0.1597 -0.4344 0.834 0.543 -0.092 88 77 58 0 0
0.0566 0.1560 -0.4643 0.560 0.825 0.070 118 102 73 0 0
0.0567 0.1560 -0.4659 0.560 0.825 0.070 112 98 68 0 0
0.0569 0.1561 -0.4675 0.560 0.825 0.070 109 93 66 0 0
0.0569 0.1556 -0.4778 0.373 0.916 -0.148 133 117 82 0 0
0.0531 0.1487 -0.5058 0.419 0.885 -0.204 147 129 90 0 0
0.0534 0.1491 -0.5073 0.410 0.906 -0.110 151 131 94 0 0
0.0524 0.1473 -0.5119 0.255 0.965 0.060 156 136 95 0 0
0.0524 0.1474 -0.5136 0.230 0.973 -0.033 152 135 92 0 0
0.0500 0.1430 -0.5304 0.686 0.722 0.089 131 112 73 0 0
0.0395 0.1196 -0.6935 0.741 0.603 -0.296 144 129 88 0 0
0.0398 0.1199 -0.6952 0.695 0.719 0.010 139 125 88 0 0
0.0328 0.1059 -0.7710 0.478 0.810 -0.341 87 73 37 0 0
0.0328 0.1058 -0.7732 0.231 0.965 -0.124 125 114 76 0 0
0.0318 0.1042 -0.7768 0.101 0.872 0.479 87 76 44 0 0
0.0413 0.1155 -0.8251 0.456 0.670 0.586 147 130 90 0 0
0.0416 0.1158 -0.8270 0.702 0.698 0.143 157 140 98 0 0
0.0421 0.1163 -0.8329 0.779 0.616 0.119 159 144 99 0 0
0.0435 0.1168 -0.8607 0.964 0.140 -0.225 114 103 77 0 0
0.0516 0.1281 -0.8705 0.646 0.014 0.763 196 196 198 0 0
0.0538 0.1310 -0.8738 0.663 0.682 -0.308 205 205 205 0 0
-0.0644 -0.0101 -0.2336 0.545 0.763 0.347 178 176 172 0 0
-0.0649 -0.0108 -0.2354 0.447 0.442 0.777 158 150 142 0 0
-0.0503 0.0092 -0.2559 0.374 0.836 0.402 39 30 20 0 0
-0.0364 0.0270 -0.3026 0.790 0.596 0.140 83 70 54 0 0
-0.0307 0.0343 -0.3198 0.700 0.713 -0.040 43 38 34 0 0
-0.0303 0.0347 -0.3230 0.556 0.721 0.414 31 26 22 0 0
-0.0299 0.0353 -0.3244 0.564 0.690 0.455 30 25 22 0 0
-0.0299 0.0352 -0.3261 0.477 0.853 0.212 30 25 22 0 0
0.0605 0.1608 -0.4285 0.455 0.825 0.335 87 72 50 0 0
0.0605 0.1602 -0.4384 0.443 0.772 0.455 102 88 61 0 0
0.0591 0.1571 -0.4614 0.452 0.889 -0.071 116 101 72 0 0
0.0579 0.1552 -0.4642 0.568 0.746 0.347 115 99 71 0 0
0.0585 0.1553 -0.4774 0.574 0.818 -0.023 139 119 82 0 0
0.0581 0.1547 -0.4794 0.655 0.754 -0.057 139 119 82 0 0
0.0548 0.1485 -0.5071 0.410 0.906 -0.110 154 135 93 0 0
0.0543 0.1473 -0.5148 0.489 0.855 -0.173 141 122 84 0 0
0.0458 0.1298 -0.6170 0.641 0.767 0.030 163 145 101 0 0
0.0454 0.1269 -0.6611 0.323 0.946 0.019 154 135 98 0 0
0.0455 0.1269 -0.6630 0.415 0.909 0.021 156 137 96 0 0
0.0411 0.1188 -0.6953 0.605 0.760 -0.238 135 121 86 0 0
0.0334 0.1036 -0.7743 0.778 0.617 0.116 116 102 64 0 0
0.0334 0.1034 -0.7766 0.327 0.832 0.448 79 69 36 0 0
0.0338 0.1040 -0.7781 0.348 0.668 0.657 83 71 42 0 0
0.0510 0.1240 -0.8738 0.473 0.364 0.802 197 197 197 0 0
0.0531 0.1270 -0.8727 0.617 0.422 0.665 201 201 201 0 0
0.0540 0.1284 -0.8734 0.627 0.658 0.417 203 203 203 0 0
-0.0630 -0.0110 -0.2352 0.530 0.593 0.606 165 159 152 0 0
-0.0551 0.0000 -0.2452 0.512 0.649 0.563 173 156 125 0 0
-0.0497 0.0073 -0.2545 0.295 0.946 0.132 42 34 23 0 0
-0.0489 0.0084 -0.2558 0.310 0.878 0.365 35 27 18 0 0
-0.0367 0.0237 -0.3001 0.177 0.867 0.465 118 108 95 0 0
-0.0290 0.0338 -0.3229 0.439 0.831 0.341 34 29 25 0 0
-0.0288 0.0340 -0.3245 0.572 0.784 0.241 34 29 26 0 0
0.0596 0.1581 -0.4040 -0.283 0.939 0.196 106 95 68 0 0
0.0603 0.1555 -0.4734 0.519 0.855 0.004 130 113 77 0 0
0.0604 0.1555 -0.4750 0.519 0.855 0.004 136 118 80 0 0
0.0569 0.1493 -0.4974 0.676 0.736 -0.033 154 135 93 0 0
0.0565 0.1484 -0.5048 0.496 0.839 -0.224 149 130 89 0 0
0.0487 0.1325 -0.5883 0.278 0.925 0.257 141 123 89 0 0
0.0473 0.1289 -0.6188 0.486 0.873 0.033 142 124 81 0 0
0.0473 0.1289 -0.6207 0.486 0.873 0.033 159 140 99 0 0
0.0471 0.1280 -0.6308 0.457 0.889 -0.036 147 129 91 0 0
0.0470 0.1278 -0.6328 0.553 0.830 -0.070 146 129 87 0 0
0.0340 0.1006 -0.7888 0.548 0.703 0.454 66 50 23 0 0
0.0422 0.1112 -0.8146 0.698 0.656 0.287 151 132 91 0 0
0.0424 0.1115 -0.8165 0.667 0.666 0.333 155 136 94 0 0
0.0449 0.1144 -0.8285 0.620 0.750 -0.229 145 127 89 0 0
0.0454 0.1146 -0.8369 0.925 0.304 0.230 150 134 95 0 0
0.0428 0.1093 -0.8666 0.986 -0.092 -0.140 90 86 71 0 0
0.0422 0.1083 -0.8699 0.987 -0.119 -0.112 115 110 98 0 0
0.0520 0.1223 -0.8746 0.529 0.248 0.812 199 199 199 0 0
0.0533 0.1242 -0.8747 0.538 0.819 0.200 202 202 202 0 0
0.0526 0.1228 -0.8806 0.346 0.821 -0.455 205 205 205 0 0
-0.0611 -0.0112 -0.2349 0.284 0.642 0.712 170 167 162 0 0
-0.0583 -0.0072 -0.2388 0.300 0.498 0.814 175 160 131 0 0
-0.0479 0.0071 -0.2543 0.308 0.935 0.176 39 30 23 0 0
-0.0474 0.0078 -0.2557 0.472 0.774 0.422 30 22 17 0 0
-0.0470 0.0083 -0.2572 0.531 0.831 0.162 29 23 17 0 0
-0.0375 0.0203 -0.2910 0.572 0.774 0.272 49 41 30 0 0
-0.0372 0.0206 -0.2925 0.677 0.673 0.299 49 41 30 0 0
-0.0366 0.0214 -0.2939 0.689 0.528 0.496 49 42 34 0 0
-0.0365 0.0215 -0.2955 0.783 0.470 0.407 13 8 5 0 0
-0.0283 0.0321 -0.3199 0.614 0.710 0.344 21 16 13 0 0
0.0616 0.1547 -0.4749 0.519 0.855 0.004 133 114 76 0 0
0.0585 0.1489 -0.4988 0.511 0.859 -0.032 154 135 93 0 0
0.0580 0.1478 -0.5046 0.431 0.879 -0.206 141 122 82 0 0
0.0570 0.1457 -0.5180 0.428 0.894 -0.130 146 127 87 0 0
0.0517 0.1354 -0.5656 0.366 0.929 -0.045 166 146 105 0 0
0.0498 0.1313 -0.5885 0.468 0.881 0.073 133 113 78 0 0
0.0483 0.1274 -0.6211 0.680 0.731 0.059 168 149 105 0 0
0.0429 0.1153 -0.7006 0.590 0.800 0.111 139 122 85 0 0
0.0453 0.1120 -0.8256 0.642 0.554 0.530 137 115 82 0 0
0.0459 0.1128 -0.8291 0.774 0.633 0.020 154 136 98 0 0
0.0457 0.1122 -0.8341 0.860 0.493 -0.128 152 134 95 0 0
0.0420 0.1048 -0.8702 0.986 -0.134 -0.099 121 118 108 0 0
0.0529 0.1204 -0.8755 0.586 0.558 0.588 200 200 200 0 0
-0.0585 -0.0102 -0.2360 0.275 0.666 0.693 163 156 144 0 0
-0.0458 0.0071 -0.2572 0.667 0.718 0.198 18 15 11 0 0
-0.0460 0.0066 -0.2622 0.206 0.921 0.330 44 35 28 0 0
-0.0358 0.0198 -0.2925 0.822 0.487 0.295 39 32 23 0 0
-0.0278 0.0300 -0.3202 0.675 0.554 0.488 21 16 13 0 0
-0.0268 0.0313 -0.3214 0.651 0.746 0.140 19 15 12 0 0
-0.0264 0.0320 -0.3228 0.475 0.836 0.276 20 17 13 0 0
-0.0260 0.0324 -0.3243 0.419 0.825 0.378 25 20 17 0 0
-0.0257 0.0328 -0.3259 0.364 0.904 0.223 20 16 12 0 0
0.0560 0.1484 -0.3909 0.861 0.487 -0.147 90 76 53 0 0
0.0555 0.1476 -0.3929 0.859 0.398 -0.323 89 76 53 0 0
0.0623 0.1572 -0.4020 0.618 0.745 0.250 77 61 41 0 0
0.0657 0.1615 -0.4139 0.644 0.685 0.341 78 62 39 0 0
0.0660 0.1617 -0.4153 0.461 0.810 0.362 77 61 38 0 0
0.0576 0.1435 -0.5240 0.328 0.942 -0.064 163 144 102 0 0
0.0561 0.1406 -0.5382 0.285 0.950 0.126 162 144 101 0 0
0.0532 0.1349 -0.5653 0.366 0.929 -0.045 157 136 97 0 0
0.0510 0.1295 -0.6039 0.591 0.794 0.144 166 147 103 0 0
0.0509 0.1292 -0.6060 0.429 0.885 0.182 163 144 101 0 0
0.0504 0.1283 -0.6085 0.371 0.925 -0.086 165 149 106 0 0
0.0506 0.1286 -0.6101 0.609 0.776 -0.164 172 154 108 0 0
0.0493 0.1256 -0.6293 0.818 0.566 0.101 131 112 81 0 0
0.0370 0.0991 -0.7841 0.464 0.417 0.781 50 36 14 0 0
0.0376 0.0999 -0.7854 0.353 0.792 0.499 65 48 25 0 0
0.0571 0.1238 -0.8707 -0.205 -0.074 0.976 201 201 201 0 0
-0.0573 -0.0116 -0.2393 0.489 0.796 0.357 145 132 110 0 0
-0.0488 0.0005 -0.2474 0.601 0.607 0.519 213 198 165 0 0
-0.0445 0.0063 -0.2571 0.490 0.843 0.224 16 16 12 0 0
-0.0322 0.0215 -0.3064 0.704 0.619 0.349 43 38 33 0 0
-0.0317 0.0220 -0.3095 0.403 0.751 0.522 60 55 50 0 0
-0.0311 0.0228 -0.3109 0.653 0.410 0.638 29 21 19 0 0
-0.0266 0.0290 -0.3202 0.596 0.537 0.597 38 33 30 0 0
0.0666 0.1604 -0.4092 0.318 0.898 0.305 76 61 38 0 0
0.0674 0.1602 -0.4347 0.629 0.721 0.290 105 88 59 0 0
0.0659 0.1573 -0.4477 0.714 0.645 0.273 108 93 64 0 0
0.0591 0.1433 -0.5184 0.441 0.876 -0.194 164 146 100 0 0
0.0548 0.1344 -0.5650 0.331 0.941 0.065 152 132 95 0 0
0.0548 0.1343 -0.5669 0.265 0.956 0.124 162 142 103 0 0
0.0548 0.1341 -0.5706 0.333 0.943 -0.007 173 154 111 0 0
0.0409 0.1014 -0.7893 0.417 0.777 0.471 116 101 71 0 0
0.0448 0.1051 -0.8262 0.941 0.330 -0.072 157 138 97 0 0
-0.0558 -0.0123 -0.2408 0.749 0.655 0.104 144 130 110 0 0
-0.0539 -0.0097 -0.2434 0.537 0.667 0.516 180 163 137 0 0
-0.0466 0.0007 -0.2487 0.356 0.698 0.622 165 152 122 0 0
-0.0403 0.0086 -0.2740 0.465 0.870 0.166 39 33 30 0 0
-0.0318 0.0192 -0.3051 0.393 0.670 0.630 24 20 17 0 0
-0.0312 0.0201 -0.3065 0.393 0.670 0.630 41 37 34 0 0
-0.0299 0.0218 -0.3092 0.241 0.820 0.519 60 56 52 0 0
0.0411 0.1247 -0.3345 -0.333 0.777 0.534 49 41 34 0 0
0.0480 0.1334 -0.3584 0.532 0.511 -0.675 108 94 75 0 0
0.0473 0.1323 -0.3604 0.331 0.734 -0.593 115 101 79 0 0
0.0474 0.1324 -0.3620 0.178 0.889 -0.422 115 101 77 0 0
0.0469 0.1315 -0.3639 0.178 0.889 -0.422 110 97 72 0 0
0.0475 0.1323 -0.3651 -0.522 0.660 0.540 109 96 71 0 0
0.0486 0.1338 -0.3659 -0.511 0.451 0.732 109 97 72 0 0
0.0672 0.1589 -0.4080 0.447 0.822 0.352 67 52 32 0 0
0.0675 0.1565 -0.4558 0.577 0.783 0.233 119 104 75 0 0
0.0677 0.1568 -0.4572 0.566 0.738 0.366 120 105 76 0 0
0.0564 0.1340 -0.5646 0.284 0.957 0.052 150 130 91 0 0
0.0519 0.1241 -0.6215 0.544 0.839 -0.017 138 124 94 0 0
0.0394 0.0965 -0.7846 0.461 0.752 0.472 133 113 82 0 0
0.0401 0.0974 -0.7859 0.522 0.745 0.415 136 119 87 0 0
0.0417 0.0996 -0.7880 0.495 0.760 0.421 97 83 54 0 0
-0.0538 -0.0118 -0.2323 0.232 0.961 0.148 179 178 181 0 0
-0.0465 -0.0023 -0.2557 0.735 0.543 0.406 43 38 33 0 0
-0.0468 -0.0030 -0.2575 0.667 0.711 0.221 28 25 22 0 0
-0.0473 -0.0038 -0.2594 0.473 0.875 -0.100 15 14 13 0 0
-0.0333 0.0149 -0.2930 0.703 0.637 0.317 39 37 30 0 0
-0.0304 0.0185 -0.3050 0.436 0.693 0.575 26 24 24 0 0
0.0458 0.1292 -0.3306 0.510 0.218 0.832 55 46 36 0 0
0.0449 0.1277 -0.3328 -0.243 0.755 0.609 54 45 35 0 0
0.0484 0.1328 -0.3352 -0.077 0.639 0.765 56 49 39 0 0
0.0538 0.1402 -0.3441 0.644 0.394 0.655 93 83 61 0 0
0.0499 0.1338 -0.3562 0.809 0.166 -0.564 111 99 70 0 0
0.0479 0.1307 -0.3592 0.698 0.374 -0.611 117 102 73 0 0
0.0469 0.1290 -0.3615 0.765 0.382 -0.518 122 106 77 0 0
0.0464 0.1283 -0.3634 0.851 0.296 -0.435 120 104 76 0 0
0.0468 0.1287 -0.3648 0.925 0.308 -0.223 113 98 72 0 0
0.0491 0.1320 -0.3648 -0.221 0.357 0.908 109 95 68 0 0
0.0664 0.1557 -0.3983 0.424 0.868 0.260 62 46 31 0 0
0.0688 0.1560 -0.4523 0.498 0.820 0.282 116 101 71 0 0
0.0605 0.1386 -0.5394 0.299 0.935 -0.192 161 142 99 0 0
0.0438 0.1027 -0.7343 0.952 0.248 -0.182 146 130 97 0 0
0.0397 0.0946 -0.7707 0.814 0.533 -0.231 143 127 91 0 0
0.0410 0.0957 -0.7844 0.287 0.835 0.469 140 124 92 0 0
0.0415 0.0964 -0.7858 0.522 0.745 0.415 113 98 70 0 0
0.0427 0.0980 -0.7863 0.175 0.908 0.382 103 89 57 0 0
0.0430 0.0984 -0.7882 0.261 0.942 0.212 103 88 57 0 0
0.0427 0.0978 -0.7908 0.770 0.551 0.321 111 96 68 0 0
-0.0447 -0.0027 -0.2571 0.504 0.749 0.429 24 21 17 0 0
-0.0325 0.0132 -0.2932 0.739 0.649 0.181 27 26 21 0 0
-0.0318 0.0141 -0.2946 0.541 0.723 0.429 17 16 13 0 0
-0.0311 0.0150 -0.2976 0.392 0.870 0.301 11 8 7 0 0
-0.0271 0.0200 -0.3124 0.644 0.446 0.622 30 23 19 0 0
0.0468 0.1284 -0.3260 -0.138 0.916 0.378 72 60 41 0 0
0.0477 0.1296 -0.3270 0.288 0.622 0.728 62 50 31 0 0
0.0485 0.1307 -0.3280 0.820 0.048 0.570 76 64 45 0 0
0.0481 0.1299 -0.3330 -0.242 0.661 0.710 83 72 54 0 0
0.0492 0.1303 -0.3543 0.892 0.089 -0.443 131 116 81 0 0
0.0493 0.1303 -0.3558 0.702 0.401 -0.589 121 108 74 0 0
0.0489 0.1297 -0.3577 0.500 0.667 -0.552 114 101 67 0 0
0.0482 0.1285 -0.3598 0.394 0.859 -0.326 118 103 70 0 0
0.0490 0.1295 -0.3609 -0.109 0.854 0.509 124 108 75 0 0
0.0494 0.1300 -0.3622 -0.100 0.690 0.716 122 105 76 0 0
0.0513 0.1329 -0.3624 -0.194 0.438 0.878 112 95 71 0 0
0.0692 0.1575 -0.3922 0.559 0.822 0.110 63 47 30 0 0
0.0716 0.1585 -0.4357 0.421 0.884 0.202 107 90 61 0 0
0.0656 0.1456 -0.5030 0.256 0.966 -0.043 141 121 84 0 0
0.0415 0.0934 -0.7813 0.289 0.854 0.432 164 147 106 0 0
0.0429 0.0954 -0.7858 0.522 0.745 0.415 119 104 77 0 0
0.0436 0.0962 -0.7871 0.310 0.900 0.308 121 108 77 0 0
0.0434 0.0946 -0.8099 0.851 0.451 0.270 162 144 109 0 0
0.0439 0.0947 -0.8206 0.952 0.096 0.289 159 141 104 0 0
0.0444 0.0954 -0.8221 0.913 0.055 0.404 152 134 98 0 0
0.0449 0.0961 -0.8235 0.914 0.115 0.388 160 142 105 0 0
0.0453 0.0965 -0.8253 0.941 0.182 0.287 154 136 99 0 0
0.0456 0.0948 -0.8620 0.275 0.077 0.958 146 142 138 0 0
0.0529 0.1054 -0.8641 0.467 0.167 0.868 174 174 172 0 0
-0.0444 -0.0050 -0.2542 0.648 0.451 0.614 52 46 42 0 0
-0.0434 -0.0037 -0.2571 0.504 0.749 0.429 27 25 21 0 0
-0.0444 -0.0053 -0.2592 0.410 0.910 -0.059 12 11 9 0 0
-0.0370 0.0046 -0.2775 0.667 0.726 -0.168 20 18 15 0 0
0.0376 0.1126 -0.3184 -0.379 0.921 0.092 78 71 63 0 0
0.0474 0.1269 -0.3232 0.035 0.999 0.008 81 67 49 0 0
0.0480 0.1277 -0.3244 0.235 0.964 0.124 87 72 48 0 0
0.0489 0.1289 -0.3254 0.434 0.829 0.352 96 82 52 0 0
0.0504 0.1305 -0.3353 0.716 0.326 0.617 125 110 78 0 0
0.0510 0.1313 -0.3381 0.880 0.341 0.331 130 114 76 0 0
0.0526 0.1336 -0.3386 0.446 0.458 0.769 137 121 80 0 0
0.0535 0.1349 -0.3395 0.448 0.513 0.732 145 129 86 0 0
0.0705 0.1565 -0.4000 0.308 0.760 0.573 56 40 25 0 0
0.0666 0.1446 -0.4997 0.519 0.853 -0.063 155 136 93 0 0
0.0666 0.1445 -0.5014 0.519 0.853 -0.063 155 137 93 0 0
0.0666 0.1444 -0.5032 0.519 0.853 -0.063 152 133 91 0 0
0.0666 0.1443 -0.5050 0.519 0.853 -0.063 155 136 95 0 0
0.0666 0.1441 -0.5068 0.530 0.847 -0.032 155 136 95 0 0
0.0558 0.1226 -0.5981 0.923 0.339 0.181 157 145 127 0 0
0.0567 0.1238 -0.6008 0.780 0.473 0.408 155 145 129 0 0
0.0566 0.1235 -0.6029 0.698 0.700 -0.149 154 144 128 0 0
0.0563 0.1230 -0.6052 0.854 0.402 -0.331 161 150 134 0 0
0.0408 0.0896 -0.7776 0.785 0.592 -0.181 143 124 90 0 0
0.0519 0.1010 -0.8610 0.310 0.060 0.949 170 169 167 0 0
-0.0463 -0.0102 -0.2456 0.322 0.791 0.521 76 69 58 0 0
-0.0444 -0.0077 -0.2514 0.686 0.560 0.465 35 31 28 0 0
-0.0455 -0.0100 -0.2619 0.932 0.183 -0.312 9 8 6 0 0
-0.0459 -0.0109 -0.2671 0.336 0.220 0.916 10 8 7 0 0
0.0405 0.1147 -0.3126 0.060 0.754 0.654 33 27 15 0 0
0.0392 0.1126 -0.3150 -0.216 0.970 0.112 44 37 23 0 0
0.0494 0.1271 -0.3242 0.633 0.744 0.216 132 115 79 0 0
0.0540 0.1332 -0.3384 0.315 0.569 0.760 151 133 88 0 0
0.0546 0.1340 -0.3395 0.448 0.513 0.732 148 130 86 0 0
0.0718 0.1562 -0.3934 0.410 0.912 -0.019 60 44 29 0 0
0.0739 0.1569 -0.4324 0.440 0.883 0.165 100 83 55 0 0
0.0716 0.1523 -0.4512 0.447 0.884 0.136 110 95 66 0 0
0.0721 0.1529 -0.4525 0.622 0.732 0.278 109 94 65 0 0
0.0723 0.1532 -0.4540 0.500 0.734 0.460 108 93 64 0 0
0.0726 0.1536 -0.4553 0.536 0.784 0.314 107 91 59 0 0
0.0729 0.1540 -0.4567 0.565 0.814 0.133 104 87 57 0 0
0.0730 0.1540 -0.4583 0.546 0.831 -0.108 114 100 72 0 0
0.0729 0.1537 -0.4601 0.567 0.815 -0.121 121 110 83 0 0
0.0678 0.1438 -0.4979 0.747 0.570 0.341 124 109 77 0 0
0.0680 0.1440 -0.4995 0.655 0.712 0.252 139 124 89 0 0
0.0681 0.1439 -0.5030 0.599 0.801 -0.000 143 128 93 0 0
0.0679 0.1435 -0.5049 0.541 0.837 -0.088 146 130 97 0 0
0.0678 0.1433 -0.5067 0.541 0.837 -0.088 146 130 99 0 0
0.0583 0.1249 -0.5756 0.960 0.271 -0.066 159 152 135 0 0
-0.0520 -0.0199 -0.2186 -0.332 0.720 0.609 178 178 180 0 0
-0.0446 -0.0105 -0.2453 0.368 0.833 0.413 32 26 21 0 0
-0.0448 -0.0122 -0.2672 0.336 0.220 0.916 10 8 8 0 0
-0.0345 0.0028 -0.2725 0.837 0.530 0.134 68 63 58 0 0
-0.0338 0.0034 -0.2789 0.524 0.810 0.263 9 9 8 0 0
-0.0319 0.0062 -0.2796 0.459 0.700 0.547 7 6 5 0 0
-0.0317 0.0064 -0.2829 0.622 0.461 0.632 43 39 36 0 0
0.0413 0.1136 -0.3066 -0.371 0.739 0.562 61 48 33 0 0
0.0441 0.1177 -0.3080 0.856 0.416 0.308 75 60 42 0 0
0.0438 0.1171 -0.3097 0.342 0.702 0.625 86 70 50 0 0
0.0486 0.1238 -0.3176 0.812 0.503 0.296 150 131 98 0 0
0.0690 0.1503 -0.3805 0.427 0.902 -0.060 60 44 28 0 0
0.0725 0.1548 -0.3890 0.039 0.941 0.336 51 36 22 0 0
0.0721 0.1496 -0.4637 0.742 0.671 -0.003 115 103 78 0 0
0.0409 0.0848 -0.7571 0.994 0.037 0.106 149 133 100 0 0
-0.0455 -0.0154 -0.2562 0.239 0.656 0.716 11 10 8 0 0
-0.0443 -0.0139 -0.2591 0.297 0.869 0.394 9 7 9 0 0
-0.0437 -0.0136 -0.2672 0.336 0.220 0.916 13 10 9 0 0
-0.0314 0.0041 -0.2783 0.482 0.773 0.413 3 3 3 0 0
-0.0310 0.0047 -0.2798 0.482 0.773 0.413 4 4 4 0 0
0.0394 0.1088 -0.2959 0.949 0.263 0.172 31 26 26 0 0
0.0398 0.1093 -0.2973 0.886 0.266 0.380 31 26 24 0 0
0.0430 0.1136 -0.3047 -0.247 0.752 0.612 94 76 55 0 0
0.0534 0.1280 -0.3246 0.278 0.903 0.328 157 139 92 0 0
0.0587 0.1347 -0.3415 0.324 0.881 0.345 123 106 72 0 0
0.0589 0.1349 -0.3429 0.588 0.797 0.137 134 116 83 0 0
0.0595 0.1357 -0.3456 0.560 0.828 -0.026 113 97 64 0 0
0.0595 0.1356 -0.3471 0.503 0.839 0.210 104 89 57 0 0
0.0644 0.1424 -0.3547 0.100 0.915 0.391 85 73 49 0 0
0.0683 0.1469 -0.3756 0.551 0.809 0.203 67 51 35 0 0
0.0768 0.1565 -0.4237 0.544 0.837 0.063 76 61 42 0 0
0.0767 0.1563 -0.4254 0.458 0.886 0.076 75 60 39 0 0
0.0772 0.1560 -0.4415 0.788 0.555 0.266 108 91 60 0 0
-0.0426 -0.0143 -0.2589 0.223 0.906 0.359 9 7 9 0 0
-0.0342 -0.0028 -0.2768 0.995 -0.012 0.096 15 13 12 0 0
-0.0331 -0.0012 -0.2780 0.978 0.171 0.116 7 5 6 0 0
0.0530 0.1249 -0.3210 -0.009 0.726 0.688 175 158 107 0 0
0.0617 0.1362 -0.3480 0.164 0.816 0.555 99 83 57 0 0
0.0768 0.1525 -0.4463 -0.129 0.982 -0.137 111 96 68 0 0
-0.0413 -0.0152 -0.2588 0.514 0.831 0.214 23 20 21 0 0
-0.0348 -0.0064 -0.2727 0.985 0.016 0.174 17 13 13 0 0
-0.0348 -0.0065 -0.2743 0.996 0.034 0.083 16 14 12 0 0
-0.0346 -0.0064 -0.2760 0.996 0.034 0.083 13 12 10 0 0
-0.0341 -0.0057 -0.2774 0.895 -0.028 0.446 10 9 10 0 0
0.0425 0.1082 -0.2970 0.501 0.594 0.629 137 118 88 0 0
0.0718 0.1462 -0.3874 0.681 0.574 0.454 62 46 30 0 0
0.0722 0.1466 -0.3903 0.702 0.703 0.118 52 39 23 0 0
0.0738 0.1488 -0.3939 0.729 0.358 0.583 48 35 19 0 0
0.0740 0.1489 -0.3954 0.660 0.619 0.426 49 36 20 0 0
0.0773 0.1536 -0.4007 0.525 0.712 0.466 58 40 26 0 0
0.0773 0.1534 -0.4024 0.327 0.926 0.189 57 40 25 0 0
0.0776 0.1538 -0.4037 0.520 0.842 0.143 55 39 24 0 0
-0.0344 -0.0088 -0.2731 0.945 0.161 -0.283 11 10 10 0 0
-0.0352 -0.0101 -0.2751 0.963 0.235 -0.131 9 8 8 0 0
0.0504 0.1167 -0.3084 0.076 0.942 0.328 228 208 157 0 0
0.0748 0.1469 -0.4038 0.604 0.769 0.211 58 41 27 0 0
0.0802 0.1547 -0.4106 0.692 0.600 0.402 38 24 14 0 0
0.0803 0.1548 -0.4121 0.648 0.591 0.481 43 30 17 0 0
0.0393 0.0696 -0.7587 0.966 0.172 -0.194 141 126 97 0 0
0.0394 0.0697 -0.7607 0.999 0.006 -0.049 146 131 102 0 0
0.0390 0.0689 -0.7635 0.992 0.048 -0.117 140 125 98 0 0
0.0413 0.0707 -0.7873 0.970 0.222 -0.095 138 125 98 0 0
0.0438 0.0728 -0.8110 0.988 -0.068 0.142 150 135 102 0 0
0.0465 0.1089 -0.2960 0.306 0.683 0.663 210 192 143 0 0
0.0582 0.1249 -0.3213 0.233 0.866 0.442 145 125 88 0 0
0.0717 0.1425 -0.3621 0.569 0.735 0.369 55 42 26 0 0
0.0721 0.1430 -0.3650 0.498 0.834 0.236 61 48 31 0 0
0.0738 0.1452 -0.3685 0.183 0.967 0.176 50 37 21 0 0
0.0726 0.1422 -0.3854 0.303 0.935 0.184 54 38 23 0 0
0.0822 0.1550 -0.4131 0.609 0.671 0.423 87 77 63 0 0
0.0414 0.0674 -0.7915 0.967 0.201 -0.158 162 145 114 0 0
0.0411 0.0667 -0.7943 0.998 0.030 0.063 148 132 101 0 0
0.0432 0.0691 -0.8072 0.976 0.172 -0.132 153 138 104 0 0
0.0429 0.0684 -0.8100 0.931 0.288 -0.225 150 135 101 0 0
-0.0249 0.0029 -0.2272 -0.227 0.973 -0.032 122 105 81 0 0
-0.0404 -0.0234 -0.2685 0.613 0.137 0.779 67 63 62 0 0
0.0334 0.0875 -0.2822 0.036 0.393 0.919 93 80 60 0 0
0.0487 0.1095 -0.2984 0.287 0.679 0.676 234 216 167 0 0
0.0719 0.1397 -0.3707 0.404 0.729 0.553 49 36 20 0 0
0.0720 0.1397 -0.3722 0.587 0.627 0.512 50 37 21 0 0
0.0725 0.1403 -0.3735 0.587 0.627 0.512 53 40 24 0 0
0.0733 0.1412 -0.3777 0.415 0.908 0.059 58 42 27 0 0
0.0242 0.0711 -0.2768 -0.606 0.616 0.503 60 53 46 0 0
0.0252 0.0726 -0.2778 -0.569 0.580 0.583 75 65 55 0 0
0.0268 0.0750 -0.2785 -0.455 0.525 0.720 83 70 56 0 0
0.0693 0.1352 -0.3403 0.502 0.740 0.447 123 106 79 0 0
0.0692 0.1350 -0.3419 0.644 0.761 0.078 115 99 73 0 0
0.0495 0.1055 -0.2962 0.592 0.625 0.509 231 215 166 0 0
0.0499 0.1061 -0.2975 0.501 0.706 0.501 234 216 167 0 0
0.0505 0.1069 -0.2987 0.480 0.825 0.298 229 207 158 0 0
0.0512 0.1077 -0.3014 0.626 0.651 0.431 236 219 170 0 0
0.0607 0.1213 -0.3141 0.422 0.782 0.459 200 180 130 0 0
0.0373 0.0526 -0.7743 0.929 0.365 -0.066 130 115 87 0 0
0.0376 0.0529 -0.7762 0.819 0.561 -0.119 139 125 97 0 0
0.0340 0.0809 -0.2728 0.430 0.665 0.611 160 141 110 0 0
0.0346 0.0817 -0.2741 0.430 0.665 0.611 178 159 125 0 0
0.0510 0.1051 -0.2975 0.587 0.721 0.368 235 219 175 0 0
0.0735 0.1355 -0.3530 0.590 0.764 0.264 68 55 37 0 0
0.0738 0.1358 -0.3544 0.640 0.701 0.313 62 49 32 0 0
0.0737 0.1354 -0.3576 0.390 0.823 0.413 51 37 24 0 0
0.0742 0.1360 -0.3589 0.594 0.774 0.220 50 37 23 0 0
0.0378 0.0500 -0.7757 0.972 0.235 -0.026 155 138 108 0 0
0.0379 0.0501 -0.7778 0.899 0.412 -0.148 155 137 107 0 0
-0.0391 -0.0283 -0.1970 -0.675 0.546 0.497 180 180 179 0 0
0.0336 0.0779 -0.2690 0.384 0.817 0.431 191 175 141 0 0
0.0471 0.0972 -0.2880 0.392 0.520 0.758 227 210 167 0 0
0.0644 0.1216 -0.3163 0.589 0.618 0.521 203 185 139 0 0
0.0714 0.1307 -0.3380 0.517 0.807 0.285 119 104 76 0 0
0.0718 0.1312 -0.3394 0.593 0.746 0.302 122 106 77 0 0
0.0721 0.1315 -0.3407 0.593 0.746 0.302 111 96 71 0 0
0.0732 0.1332 -0.3415 0.711 0.636 0.300 101 87 63 0 0
0.0737 0.1336 -0.3459 0.844 0.462 0.274 92 77 54 0 0
0.0752 0.1351 -0.3558 0.640 0.701 0.313 55 42 26 0 0
0.0368 0.0449 -0.7793 0.999 -0.035 -0.013 151 135 105 0 0
0.0349 0.0772 -0.2689 0.384 0.817 0.431 206 193 159 0 0
0.0445 0.0909 -0.2824 0.355 0.548 0.758 223 205 164 0 0
0.0720 0.1292 -0.3353 0.420 0.905 0.066 126 110 79 0 0
0.0724 0.1297 -0.3366 0.425 0.898 0.113 114 98 71 0 0
0.0729 0.1303 -0.3394 0.517 0.807 0.285 112 98 72 0 0
0.0810 0.1408 -0.3650 0.443 0.739 0.508 109 100 82 0 0
0.0814 0.1414 -0.3662 0.443 0.739 0.508 112 102 83 0 0
0.0822 0.1424 -0.3672 0.292 0.802 0.522 117 107 88 0 0
0.0219 0.0552 -0.2573 0.913 0.374 0.164 95 83 67 0 0
0.0221 0.0554 -0.2588 0.913 0.374 0.164 98 86 73 0 0
0.0468 0.0919 -0.2802 0.279 0.654 0.703 223 204 166 0 0
0.0538 0.1015 -0.2963 0.592 0.625 0.509 237 223 175 0 0
0.0547 0.1028 -0.2973 0.326 0.826 0.461 235 221 173 0 0
