ply
format ascii 1.0
element vertex 866
property float x
property float y
property float z
property float nx
property float ny
property float nz
property uchar diffuse_red
property uchar diffuse_green
property uchar diffuse_blue
property uchar class
property uchar detection
end_header
0.0342 0.0695 -0.6567 0.982 0.179 -0.057 123 97 55 0 0
0.0340 0.0694 -0.6589 1.000 0.001 0.024 140 117 75 0 0
0.0340 0.0694 -0.6609 1.000 0.001 0.024 119 97 54 0 0
0.0341 0.0692 -0.6751 0.987 0.092 0.135 140 120 86 0 0
0.0345 0.0692 -0.6769 0.922 0.097 0.376 159 139 100 0 0
0.0350 0.0693 -0.6786 0.978 0.052 0.203 160 142 102 0 0
0.0348 0.0687 -0.7078 0.977 -0.144 0.154 135 114 76 0 0
0.0373 0.0683 -0.7526 0.921 0.293 0.257 162 143 101 0 0
0.0378 0.0683 -0.7544 0.921 0.293 0.257 165 146 104 0 0
0.0383 0.0684 -0.7562 0.964 0.252 0.083 163 144 102 0 0
0.0386 0.0681 -0.7755 0.981 0.129 0.148 154 135 92 0 0
0.0621 0.0803 -0.2856 0.887 0.124 0.445 93 78 49 0 0
0.0562 0.0785 -0.3201 0.341 0.428 0.837 36 28 19 0 0
0.0598 0.0792 -0.3221 0.540 0.404 0.738 67 56 40 0 0
0.0608 0.0785 -0.3651 0.906 -0.423 0.027 124 107 78 0 0
0.0609 0.0785 -0.3667 0.675 -0.372 0.637 126 109 79 0 0
0.0604 0.0784 -0.3685 0.927 -0.298 0.230 119 103 76 0 0
0.0614 0.0785 -0.3730 0.611 0.594 -0.523 113 99 72 0 0
0.0400 0.0703 -0.5822 0.869 0.349 -0.352 42 32 17 0 0
0.0385 0.0696 -0.6064 0.995 0.073 -0.075 155 132 92 0 0
0.0384 0.0695 -0.6084 0.924 0.375 0.071 154 133 93 0 0
0.0383 0.0694 -0.6104 0.925 0.364 -0.105 159 141 99 0 0
0.0353 0.0685 -0.6321 0.976 0.188 -0.107 139 113 71 0 0
0.0350 0.0684 -0.6342 0.976 0.188 -0.107 147 122 81 0 0
0.0343 0.0674 -0.6752 0.987 0.092 0.135 154 137 97 0 0
0.0347 0.0675 -0.6769 0.922 0.097 0.376 164 146 106 0 0
0.0352 0.0670 -0.7077 1.000 0.003 0.006 161 143 100 0 0
0.0371 0.0664 -0.7530 0.929 0.148 0.339 162 143 101 0 0
0.0379 0.0666 -0.7546 0.929 0.069 0.363 158 139 97 0 0
0.0403 0.0663 -0.7897 0.872 0.311 0.377 163 149 105 0 0
0.0408 0.0664 -0.7916 0.909 0.373 0.187 175 158 113 0 0
0.0611 0.0786 -0.2843 0.803 0.356 0.479 94 79 56 0 0
0.0595 0.0781 -0.2941 0.937 -0.220 0.271 47 35 19 0 0
0.0572 0.0772 -0.3198 0.475 0.139 0.869 42 31 25 0 0
0.0607 0.0778 -0.3203 0.695 0.595 0.403 51 41 30 0 0
0.0442 0.0699 -0.5571 0.998 -0.067 0.016 116 95 65 0 0
0.0385 0.0680 -0.5968 0.998 0.053 0.042 147 131 100 0 0
0.0327 0.0655 -0.6683 0.956 0.004 0.294 171 154 112 0 0
0.0339 0.0657 -0.6695 0.994 -0.017 0.112 176 160 117 0 0
0.0375 0.0647 -0.7551 0.947 -0.104 0.305 157 137 95 0 0
0.0406 0.0645 -0.7898 0.761 0.364 0.536 148 133 96 0 0
0.0413 0.0646 -0.7914 0.922 0.321 0.218 168 149 108 0 0
0.0418 0.0644 -0.8087 0.963 0.070 0.261 168 150 104 0 0
0.0532 0.0759 -0.2714 0.691 0.283 0.665 161 141 110 0 0
0.0558 0.0763 -0.2767 0.747 0.188 0.638 235 221 170 0 0
0.0593 0.0768 -0.2819 0.845 0.137 0.517 130 115 89 0 0
0.0604 0.0768 -0.2939 0.871 -0.353 0.342 50 38 22 0 0
0.0442 0.0733 -0.3146 0.641 0.352 0.682 51 43 33 0 0
0.0575 0.0757 -0.3198 0.351 0.237 0.906 44 33 26 0 0
0.0609 0.0763 -0.3203 0.658 0.561 0.502 55 46 34 0 0
0.0610 0.0763 -0.3218 0.569 0.233 0.789 68 57 40 0 0
0.0386 0.0663 -0.5969 0.981 0.137 0.135 167 150 110 0 0
0.0383 0.0662 -0.5990 0.989 0.137 -0.052 137 118 82 0 0
0.0381 0.0662 -0.6011 0.986 0.164 -0.014 127 107 71 0 0
0.0331 0.0641 -0.6539 0.997 0.023 0.072 153 135 94 0 0
0.0357 0.0628 -0.7396 0.978 0.152 0.141 170 151 109 0 0
0.0366 0.0628 -0.7496 0.979 0.020 0.203 165 143 102 0 0
0.0379 0.0625 -0.7768 0.954 0.223 0.202 161 143 98 0 0
0.0403 0.0625 -0.7969 0.993 0.121 0.013 164 145 103 0 0
0.0414 0.0625 -0.8071 0.978 0.054 0.202 174 156 111 0 0
0.0405 0.0623 -0.8100 0.964 -0.001 0.266 170 152 106 0 0
0.0392 0.0614 -0.8381 0.997 -0.072 0.023 161 143 100 0 0
0.0537 0.0745 -0.2712 0.906 -0.068 0.419 170 146 113 0 0
0.0549 0.0747 -0.2724 0.628 0.154 0.763 198 176 135 0 0
0.0514 0.0733 -0.3061 0.494 0.798 -0.345 40 31 22 0 0
0.0597 0.0746 -0.3207 0.678 0.080 0.731 62 52 40 0 0
0.0607 0.0742 -0.3475 0.935 0.350 0.047 118 102 69 0 0
0.0605 0.0741 -0.3492 0.970 0.215 0.115 119 103 70 0 0
0.0607 0.0741 -0.3507 0.983 0.152 0.101 123 107 74 0 0
-0.0268 0.0550 -0.4599 0.979 0.015 0.202 73 60 36 0 0
-0.0268 0.0549 -0.4618 0.961 0.262 0.089 68 53 31 0 0
-0.0268 0.0549 -0.4636 0.939 0.183 0.291 70 56 31 0 0
-0.0271 0.0547 -0.4712 0.982 -0.022 0.187 113 99 73 0 0
-0.0268 0.0547 -0.4729 0.982 -0.022 0.187 106 92 66 0 0
-0.0252 0.0549 -0.4778 0.921 -0.001 0.391 107 92 68 0 0
0.0388 0.0647 -0.5970 0.981 0.137 0.135 172 154 112 0 0
0.0380 0.0607 -0.7770 0.952 0.301 0.048 176 157 112 0 0
0.0412 0.0606 -0.8075 0.950 0.262 0.170 172 153 110 0 0
0.0407 0.0604 -0.8124 1.000 -0.001 0.018 167 148 104 0 0
0.0409 0.0602 -0.8234 0.978 0.209 0.007 171 152 109 0 0
0.0535 0.0729 -0.2713 0.783 0.340 0.521 209 185 144 0 0
0.0599 0.0737 -0.2910 0.723 0.014 0.691 57 42 26 0 0
0.0585 0.0734 -0.2930 0.898 0.115 0.424 58 42 28 0 0
0.0591 0.0735 -0.2944 0.951 0.113 0.288 62 46 31 0 0
0.0477 0.0708 -0.3152 0.454 0.522 0.722 42 35 25 0 0
0.0603 0.0731 -0.3237 0.876 0.405 0.260 82 71 50 0 0
0.0593 0.0725 -0.3416 0.853 0.420 0.309 119 104 72 0 0
0.0599 0.0726 -0.3446 0.930 0.098 0.354 123 107 74 0 0
-0.0252 0.0530 -0.4854 0.967 -0.015 0.256 86 71 47 0 0
0.0350 0.0596 -0.7172 0.998 0.043 0.047 162 141 104 0 0
0.0348 0.0592 -0.7300 0.984 0.065 0.165 125 110 73 0 0
0.0351 0.0593 -0.7319 0.932 0.164 0.324 113 97 63 0 0
0.0385 0.0589 -0.7768 0.952 0.301 0.048 166 148 105 0 0
0.0382 0.0588 -0.7792 0.963 0.158 0.220 165 145 102 0 0
0.0523 0.0712 -0.2717 0.835 0.099 0.541 239 220 174 0 0
0.0499 0.0697 -0.3177 0.814 -0.075 0.576 38 31 22 0 0
0.0602 0.0716 -0.3222 0.991 -0.100 0.088 76 62 45 0 0
0.0602 0.0715 -0.3238 0.898 0.261 0.355 73 57 40 0 0
0.0612 0.0717 -0.3267 0.808 0.382 0.448 89 74 47 0 0
0.0626 0.0718 -0.3325 0.731 0.461 0.503 103 89 62 0 0
0.0598 0.0711 -0.3415 0.852 0.498 0.162 123 108 76 0 0
0.0589 0.0708 -0.3434 0.929 0.202 0.309 126 111 78 0 0
0.0586 0.0707 -0.3452 0.954 -0.297 0.033 128 112 79 0 0
0.0590 0.0707 -0.3498 0.838 -0.484 -0.251 133 117 83 0 0
-0.0249 0.0513 -0.4835 0.949 0.283 0.136 96 82 56 0 0
-0.0252 0.0512 -0.4855 0.967 -0.015 0.256 93 79 53 0 0
0.0371 0.0571 -0.7672 0.998 0.052 0.032 172 150 108 0 0
0.0377 0.0570 -0.7733 0.983 -0.002 0.186 165 145 103 0 0
0.0375 0.0566 -0.7910 0.998 0.022 0.061 160 143 100 0 0
0.0390 0.0568 -0.7943 0.930 0.239 0.277 166 149 104 0 0
0.0396 0.0569 -0.7960 0.923 0.225 0.311 171 152 109 0 0
0.0507 0.0694 -0.2691 0.860 0.317 0.400 218 195 153 0 0
0.0510 0.0694 -0.2706 0.776 0.270 0.570 245 233 190 0 0
0.0525 0.0697 -0.2717 0.835 0.099 0.541 252 243 204 0 0
0.0585 0.0707 -0.2792 0.854 0.109 0.508 59 44 26 0 0
0.0615 0.0712 -0.2845 0.809 0.340 0.480 46 33 20 0 0
0.0594 0.0704 -0.3006 0.657 0.739 -0.150 68 59 43 0 0
0.0592 0.0703 -0.3022 0.657 0.739 -0.150 32 25 11 0 0
0.0622 0.0703 -0.3264 0.856 0.175 0.486 97 82 54 0 0
0.0629 0.0704 -0.3293 0.899 0.183 0.397 88 73 44 0 0
0.0590 0.0693 -0.3419 0.919 0.226 -0.324 121 107 74 0 0
0.0579 0.0691 -0.3438 0.943 -0.331 -0.031 128 113 80 0 0
-0.0262 0.0493 -0.4842 0.873 -0.067 0.482 94 80 54 0 0
-0.0252 0.0494 -0.4894 0.971 0.183 0.151 100 86 60 0 0
-0.0302 0.0481 -0.5050 0.892 0.451 -0.002 116 102 77 0 0
-0.0299 0.0481 -0.5068 0.929 0.321 0.186 104 90 64 0 0
-0.0288 0.0483 -0.5082 0.978 0.184 -0.100 119 106 79 0 0
-0.0290 0.0482 -0.5102 0.978 0.184 -0.100 126 114 85 0 0
-0.0286 0.0482 -0.5119 0.999 -0.004 -0.049 116 100 73 0 0
-0.0287 0.0481 -0.5139 0.999 -0.004 -0.049 122 106 79 0 0
0.0319 0.0557 -0.7030 0.971 -0.082 0.226 137 119 85 0 0
0.0376 0.0548 -0.7913 0.998 0.022 0.061 158 140 98 0 0
0.0388 0.0550 -0.7925 0.956 0.249 0.155 151 133 93 0 0
0.0390 0.0543 -0.8235 0.996 -0.082 0.032 160 142 96 0 0
0.0381 0.0539 -0.8356 0.987 -0.051 0.152 142 126 85 0 0
0.0382 0.0538 -0.8378 0.984 -0.019 0.176 135 119 80 0 0
0.0386 0.0539 -0.8398 0.984 -0.019 0.176 143 126 87 0 0
0.0389 0.0539 -0.8417 0.984 -0.019 0.176 139 124 88 0 0
0.0520 0.0681 -0.2703 0.873 0.400 0.279 250 244 205 0 0
0.0525 0.0682 -0.2717 0.717 0.272 0.642 255 254 221 0 0
0.0536 0.0684 -0.2730 0.717 0.272 0.642 249 242 204 0 0
0.0546 0.0685 -0.2742 0.717 0.272 0.642 230 216 175 0 0
0.0609 0.0694 -0.2908 0.947 0.191 0.259 69 54 36 0 0
0.0613 0.0692 -0.3016 0.987 -0.060 0.147 60 54 35 0 0
0.0595 0.0684 -0.3210 0.876 0.291 0.384 52 41 29 0 0
0.0617 0.0687 -0.3250 0.797 0.432 0.422 92 78 48 0 0
0.0623 0.0688 -0.3264 0.797 0.432 0.422 93 78 49 0 0
0.0631 0.0689 -0.3293 0.899 0.183 0.397 89 74 45 0 0
0.0543 0.0665 -0.3566 0.603 0.758 0.250 107 96 70 0 0
-0.0288 0.0482 -0.4354 0.640 0.751 0.162 19 17 12 0 0
-0.0308 0.0477 -0.4381 0.896 -0.419 0.146 13 10 6 0 0
-0.0309 0.0477 -0.4399 0.814 -0.572 0.100 7 4 3 0 0
-0.0261 0.0472 -0.4994 0.992 0.063 0.112 111 99 72 0 0
-0.0294 0.0465 -0.5048 0.892 0.451 -0.002 103 89 63 0 0
-0.0293 0.0464 -0.5066 0.894 0.447 0.031 81 67 40 0 0
-0.0287 0.0464 -0.5121 0.992 0.126 0.000 104 87 58 0 0
-0.0291 0.0463 -0.5142 0.992 0.092 -0.083 96 79 50 0 0
-0.0287 0.0463 -0.5159 0.969 0.043 -0.243 105 90 61 0 0
0.0312 0.0539 -0.6995 0.950 -0.209 0.231 152 133 100 0 0
0.0379 0.0534 -0.7759 0.970 0.032 0.242 151 132 92 0 0
0.0525 0.0667 -0.2702 0.879 0.393 0.270 249 240 206 0 0
0.0529 0.0667 -0.2716 0.784 0.357 0.508 252 248 215 0 0
0.0577 0.0675 -0.2779 0.865 0.018 0.501 44 29 14 0 0
0.0584 0.0676 -0.2793 0.820 0.095 0.564 46 32 16 0 0
0.0592 0.0678 -0.2806 0.820 0.095 0.564 43 30 16 0 0
0.0615 0.0680 -0.2907 0.991 0.091 0.095 63 48 30 0 0
0.0615 0.0677 -0.3016 0.993 -0.010 0.120 80 72 49 0 0
0.0617 0.0672 -0.3251 0.886 0.181 0.426 88 74 47 0 0
0.0616 0.0671 -0.3267 0.926 0.043 0.375 89 75 48 0 0
0.0572 0.0658 -0.3442 0.875 -0.482 -0.053 125 109 75 0 0
-0.0291 0.0465 -0.4320 0.999 -0.029 0.034 14 12 9 0 0
-0.0282 0.0467 -0.4334 0.892 0.419 0.169 15 14 12 0 0
-0.0316 0.0459 -0.4366 0.924 -0.379 -0.052 13 12 10 0 0
-0.0327 0.0456 -0.4389 0.760 -0.649 0.023 10 8 8 0 0
-0.0322 0.0457 -0.4406 0.814 -0.572 0.100 5 3 5 0 0
-0.0324 0.0456 -0.4425 0.803 -0.590 0.087 5 3 5 0 0
-0.0374 0.0442 -0.4594 0.951 0.025 0.309 83 73 59 0 0
-0.0368 0.0443 -0.4610 0.973 0.098 0.210 93 80 64 0 0
-0.0263 0.0457 -0.4901 0.965 -0.162 0.208 92 77 51 0 0
-0.0286 0.0447 -0.5122 0.990 0.129 0.050 133 118 85 0 0
-0.0293 0.0445 -0.5145 0.997 0.059 -0.043 120 105 73 0 0
0.0379 0.0570 -0.5484 0.772 -0.636 -0.012 99 87 66 0 0
0.0432 0.0581 -0.5474 0.992 -0.124 -0.004 103 90 71 0 0
0.0431 0.0581 -0.5493 0.981 0.082 -0.176 110 98 74 0 0
0.0424 0.0579 -0.5516 0.977 -0.095 -0.193 134 118 88 0 0
0.0407 0.0573 -0.5601 0.983 -0.156 0.100 125 106 77 0 0
0.0317 0.0514 -0.7289 0.990 0.064 0.124 143 122 83 0 0
0.0319 0.0514 -0.7309 0.986 0.072 0.151 142 121 85 0 0
0.0360 0.0512 -0.7732 0.912 0.131 0.388 159 141 102 0 0
0.0366 0.0513 -0.7749 0.883 0.094 0.459 144 123 84 0 0
0.0375 0.0514 -0.7765 0.883 0.094 0.459 153 132 90 0 0
0.0383 0.0516 -0.7780 0.883 0.094 0.459 160 139 97 0 0
0.0370 0.0504 -0.8145 0.868 0.044 0.495 168 150 105 0 0
0.0378 0.0505 -0.8161 0.932 -0.047 0.360 171 153 108 0 0
0.0371 0.0503 -0.8212 0.996 0.027 0.081 167 149 102 0 0
0.0410 0.0631 -0.2596 0.353 0.369 0.860 163 148 114 0 0
0.0531 0.0653 -0.2701 0.879 0.393 0.270 250 241 204 0 0
0.0535 0.0653 -0.2715 0.784 0.357 0.508 230 218 182 0 0
0.0580 0.0660 -0.2810 0.997 0.030 -0.077 43 31 16 0 0
-0.0324 0.0443 -0.4261 0.875 -0.441 0.202 84 73 55 0 0
-0.0301 0.0447 -0.4288 0.900 -0.359 -0.247 15 10 9 0 0
-0.0308 0.0445 -0.4309 0.900 -0.359 -0.247 9 8 6 0 0
-0.0291 0.0448 -0.4321 0.999 -0.029 0.034 10 9 7 0 0
-0.0350 0.0434 -0.4418 0.715 -0.697 0.058 5 3 4 0 0
-0.0352 0.0433 -0.4437 0.715 -0.697 0.061 6 4 5 0 0
-0.0382 0.0424 -0.4543 0.838 0.412 0.358 39 29 26 0 0
-0.0361 0.0427 -0.4608 0.933 0.250 0.258 91 78 61 0 0
-0.0350 0.0429 -0.4622 0.895 0.316 0.315 89 76 57 0 0
-0.0345 0.0429 -0.4639 0.929 0.337 0.153 67 51 35 0 0
-0.0273 0.0436 -0.4926 0.999 -0.005 0.032 100 87 62 0 0
-0.0294 0.0427 -0.5146 0.993 0.011 -0.117 123 108 78 0 0
-0.0304 0.0423 -0.5209 0.987 -0.114 -0.114 99 84 55 0 0
0.0404 0.0560 -0.5435 0.749 -0.661 0.050 49 39 29 0 0
0.0417 0.0562 -0.5465 0.746 -0.589 0.312 68 57 42 0 0
0.0414 0.0560 -0.5523 0.874 -0.487 0.001 99 87 65 0 0
0.0407 0.0556 -0.5603 0.876 -0.462 0.136 118 102 79 0 0
0.0416 0.0557 -0.5636 0.981 0.137 -0.137 105 92 69 0 0
0.0363 0.0494 -0.7754 0.958 0.065 0.279 161 140 96 0 0
0.0379 0.0496 -0.7786 0.837 0.222 0.500 167 146 103 0 0
0.0368 0.0484 -0.8217 0.969 0.229 0.093 163 145 99 0 0
0.0369 0.0483 -0.8239 0.946 0.320 -0.049 162 144 98 0 0
0.0470 0.0628 -0.2611 0.579 0.025 0.815 193 171 134 0 0
0.0611 0.0641 -0.3206 0.857 0.160 0.490 93 79 51 0 0
0.0614 0.0641 -0.3237 0.894 -0.038 0.447 89 75 47 0 0
0.0524 0.0616 -0.3493 0.681 0.596 0.425 92 81 59 0 0
-0.0322 0.0426 -0.4243 0.944 -0.324 0.062 70 60 46 0 0
-0.0319 0.0426 -0.4260 0.932 -0.356 0.064 57 49 37 0 0
-0.0313 0.0427 -0.4276 0.938 -0.342 0.048 19 15 10 0 0
-0.0312 0.0427 -0.4294 0.858 -0.388 -0.336 5 3 5 0 0
-0.0372 0.0411 -0.4447 0.715 -0.697 0.061 8 6 7 0 0
-0.0350 0.0411 -0.4623 0.898 0.439 -0.039 102 88 69 0 0
-0.0292 0.0410 -0.5127 0.991 0.125 0.039 132 117 86 0 0
-0.0292 0.0409 -0.5146 0.943 0.225 0.244 133 118 88 0 0
-0.0293 0.0408 -0.5205 0.977 0.071 -0.201 102 87 58 0 0
-0.0307 0.0404 -0.5231 0.995 -0.063 0.072 148 134 98 0 0
-0.0356 0.0389 -0.5451 0.928 0.322 -0.187 103 89 58 0 0
0.0399 0.0537 -0.5609 0.799 -0.599 0.057 87 76 60 0 0
0.0312 0.0479 -0.7234 0.990 0.115 0.081 115 97 66 0 0
0.0319 0.0477 -0.7335 0.998 -0.026 0.054 151 133 92 0 0
0.0366 0.0466 -0.8154 0.976 -0.052 0.209 162 143 101 0 0
0.0547 0.0610 -0.3324 0.833 0.065 0.549 119 103 69 0 0
-0.0349 0.0403 -0.4273 0.823 -0.566 0.046 32 26 22 0 0
-0.0470 0.0374 -0.4433 0.232 0.615 0.754 11 9 10 0 0
-0.0440 0.0380 -0.4457 0.172 0.497 0.851 10 8 8 0 0
-0.0418 0.0384 -0.4467 0.644 -0.239 0.727 9 7 7 0 0
-0.0383 0.0389 -0.4527 0.979 0.081 0.190 27 19 16 0 0
-0.0375 0.0391 -0.4542 0.869 0.279 0.409 42 33 27 0 0
-0.0366 0.0392 -0.4556 0.799 0.109 0.591 48 39 32 0 0
-0.0298 0.0389 -0.5189 0.998 0.053 -0.045 146 130 101 0 0
-0.0301 0.0388 -0.5210 0.968 -0.248 -0.044 127 112 83 0 0
-0.0307 0.0386 -0.5232 0.995 0.043 0.089 149 134 98 0 0
-0.0384 0.0363 -0.5546 0.937 0.326 -0.123 100 87 60 0 0
-0.0388 0.0361 -0.5568 0.870 0.492 -0.037 108 97 72 0 0
0.0337 0.0499 -0.5955 0.992 -0.048 0.116 143 128 95 0 0
0.0372 0.0450 -0.8107 0.984 0.044 0.174 168 150 106 0 0
0.0369 0.0449 -0.8132 0.952 0.149 0.266 169 152 109 0 0
0.0374 0.0449 -0.8150 0.952 0.149 0.266 168 150 108 0 0
0.0377 0.0449 -0.8170 0.978 0.188 0.089 164 145 103 0 0
0.0426 0.0589 -0.2562 0.644 0.657 0.391 177 161 125 0 0
0.0586 0.0603 -0.3279 0.815 0.036 0.579 100 84 54 0 0
0.0568 0.0599 -0.3302 0.797 0.564 0.217 111 94 64 0 0
-0.0358 0.0375 -0.4591 0.989 -0.066 0.133 72 57 43 0 0
-0.0297 0.0373 -0.5152 0.968 -0.155 0.199 92 77 47 0 0
-0.0300 0.0372 -0.5172 0.978 0.160 0.135 128 112 83 0 0
-0.0299 0.0371 -0.5191 0.981 0.194 -0.006 133 116 87 0 0
-0.0303 0.0370 -0.5212 0.999 -0.011 -0.038 123 107 74 0 0
-0.0345 0.0355 -0.5468 0.945 0.310 -0.105 135 116 81 0 0
-0.0376 0.0347 -0.5523 0.941 0.327 -0.082 129 113 89 0 0
-0.0378 0.0346 -0.5544 0.937 0.326 -0.123 122 106 80 0 0
0.0317 0.0478 -0.5929 0.892 -0.451 -0.019 106 94 69 0 0
0.0322 0.0479 -0.5946 0.925 -0.379 -0.000 100 87 61 0 0
0.0327 0.0479 -0.5963 0.930 -0.354 0.105 105 92 66 0 0
0.0257 0.0454 -0.6383 0.800 -0.597 -0.055 96 83 58 0 0
0.0257 0.0453 -0.6404 0.838 -0.543 -0.047 110 97 73 0 0
0.0361 0.0438 -0.7763 0.997 -0.012 0.076 158 136 95 0 0
0.0369 0.0432 -0.8067 0.984 -0.116 0.138 159 140 97 0 0
0.0375 0.0433 -0.8084 0.995 0.105 -0.002 165 146 101 0 0
0.0375 0.0432 -0.8107 0.987 -0.037 0.154 171 153 108 0 0
0.0377 0.0432 -0.8128 0.984 0.044 0.174 169 152 108 0 0
0.0492 0.0582 -0.2790 0.542 -0.822 0.173 90 87 72 0 0
0.0501 0.0583 -0.2803 0.622 -0.110 0.775 90 83 67 0 0
0.0487 0.0579 -0.2854 0.490 -0.867 -0.095 105 97 78 0 0
0.0497 0.0581 -0.2867 0.694 -0.667 -0.271 98 89 73 0 0
0.0553 0.0581 -0.3291 0.904 0.426 0.046 108 92 57 0 0
0.0547 0.0579 -0.3309 0.994 0.101 -0.036 118 102 67 0 0
-0.0387 0.0353 -0.4530 0.994 -0.091 0.058 45 37 34 0 0
-0.0381 0.0354 -0.4546 0.909 -0.293 0.298 41 36 30 0 0
-0.0376 0.0354 -0.4582 0.842 0.184 0.507 55 43 35 0 0
-0.0364 0.0356 -0.4595 0.814 0.279 0.510 74 60 47 0 0
-0.0355 0.0358 -0.4610 0.814 0.279 0.510 85 71 55 0 0
-0.0344 0.0360 -0.4624 0.921 0.334 0.200 108 95 77 0 0
-0.0329 0.0362 -0.4636 0.817 0.360 0.450 86 73 54 0 0
-0.0282 0.0369 -0.4765 0.980 -0.173 0.098 91 76 51 0 0
-0.0372 0.0329 -0.5562 0.888 0.454 -0.076 128 114 87 0 0
-0.0376 0.0327 -0.5584 0.955 0.201 -0.219 106 92 66 0 0
-0.0377 0.0326 -0.5605 0.941 0.220 -0.256 106 93 68 0 0
0.0360 0.0415 -0.7943 0.971 -0.055 0.232 151 132 90 0 0
0.0364 0.0415 -0.7985 0.996 -0.068 0.064 146 129 85 0 0
0.0409 0.0556 -0.2552 0.689 0.282 0.668 180 163 120 0 0
0.0497 0.0572 -0.2605 0.777 0.299 0.554 254 245 210 0 0
0.0523 0.0577 -0.2644 0.777 0.299 0.554 235 220 178 0 0
0.0448 0.0557 -0.2788 0.510 -0.857 0.071 72 68 59 0 0
0.0426 0.0552 -0.2810 0.342 -0.801 0.491 73 67 58 0 0
0.0539 0.0570 -0.3011 0.999 -0.032 -0.015 72 60 37 0 0
0.0570 0.0574 -0.3111 0.967 0.010 0.255 94 80 51 0 0
0.0557 0.0570 -0.3131 0.789 0.221 0.574 95 81 52 0 0
0.0579 0.0572 -0.3219 0.973 0.114 -0.199 111 94 62 0 0
-0.0441 0.0328 -0.4423 0.970 0.193 0.148 16 15 11 0 0
-0.0370 0.0338 -0.4580 0.922 -0.302 0.240 54 43 36 0 0
-0.0336 0.0344 -0.4621 0.941 -0.286 0.182 92 80 61 0 0
-0.0322 0.0346 -0.4653 0.836 0.189 0.514 78 62 46 0 0
-0.0286 0.0344 -0.4995 0.952 -0.062 0.299 108 94 69 0 0
-0.0362 0.0313 -0.5539 0.888 0.454 -0.076 107 92 63 0 0
0.0393 0.0530 -0.2804 0.339 -0.738 0.584 59 53 44 0 0
0.0387 0.0528 -0.2821 0.342 -0.801 0.491 64 58 48 0 0
-0.0421 0.0316 -0.4342 0.920 0.075 0.385 21 18 14 0 0
-0.0439 0.0311 -0.4405 0.895 0.408 -0.179 26 23 19 0 0
-0.0435 0.0310 -0.4459 0.907 -0.103 0.408 25 20 17 0 0
-0.0396 0.0316 -0.4555 0.917 -0.125 0.379 30 25 22 0 0
-0.0368 0.0294 -0.5523 0.987 -0.071 0.147 126 111 79 0 0
-0.0361 0.0295 -0.5540 0.954 0.006 0.301 124 110 80 0 0
-0.0361 0.0295 -0.5560 0.960 0.243 0.140 120 106 80 0 0
0.0213 0.0379 -0.6829 0.963 -0.264 -0.061 102 88 63 0 0
0.0315 0.0381 -0.7522 0.947 -0.044 0.320 141 122 80 0 0
0.0339 0.0381 -0.7700 0.980 -0.096 0.176 161 140 97 0 0
0.0199 0.0484 -0.2436 0.414 0.846 0.334 125 111 84 0 0
0.0367 0.0517 -0.2502 0.758 0.305 0.576 160 144 109 0 0
0.0399 0.0524 -0.2509 0.874 0.220 0.434 159 143 108 0 0
0.0500 0.0542 -0.2635 0.858 0.093 0.506 149 128 93 0 0
0.0506 0.0543 -0.2649 0.822 0.215 0.527 109 86 51 0 0
0.0168 0.0351 -0.6840 0.717 0.496 0.490 107 96 68 0 0
0.0191 0.0355 -0.6845 0.897 -0.380 0.224 104 93 70 0 0
0.0196 0.0356 -0.6862 0.877 -0.473 0.086 88 78 57 0 0
0.0173 0.0465 -0.2365 0.940 0.288 0.182 148 132 102 0 0
0.0485 0.0523 -0.2640 0.857 0.120 0.501 105 87 63 0 0
0.0504 0.0527 -0.2650 0.939 0.057 0.339 80 59 33 0 0
0.0544 0.0516 -0.3296 0.960 -0.258 0.105 134 119 80 0 0
-0.0322 0.0276 -0.5228 0.999 0.049 0.000 122 105 72 0 0
-0.0367 0.0262 -0.5407 0.836 0.372 0.404 137 120 89 0 0
0.0307 0.0342 -0.7511 0.932 0.039 0.359 161 142 102 0 0
0.0489 0.0509 -0.2639 0.652 0.444 0.614 54 39 22 0 0
0.0304 0.0463 -0.2846 0.333 0.755 0.565 66 60 48 0 0
0.0321 0.0466 -0.2873 0.522 0.666 0.533 59 50 38 0 0
-0.0361 0.0284 -0.4084 0.985 -0.173 -0.022 46 36 28 0 0
-0.0360 0.0246 -0.5385 0.933 0.120 0.339 130 114 81 0 0
-0.0109 0.0265 -0.6541 0.958 0.266 -0.109 102 90 63 0 0
-0.0091 0.0264 -0.6698 0.976 0.057 0.210 76 63 46 0 0
0.0327 0.0327 -0.7564 0.960 0.039 0.276 153 135 91 0 0
0.0181 0.0440 -0.2241 0.971 -0.125 -0.203 170 168 163 0 0
0.0169 0.0436 -0.2259 0.961 0.247 0.125 154 149 138 0 0
0.0163 0.0435 -0.2276 0.891 0.443 0.101 144 136 119 0 0
0.0177 0.0437 -0.2303 0.586 0.708 0.393 149 139 108 0 0
0.0181 0.0437 -0.2317 0.621 0.727 0.294 154 140 105 0 0
0.0177 0.0436 -0.2334 0.601 0.646 0.470 152 136 103 0 0
0.0187 0.0437 -0.2347 0.580 0.576 0.576 159 142 112 0 0
0.0494 0.0496 -0.2592 0.860 0.184 0.476 78 64 39 0 0
0.0492 0.0494 -0.2638 0.728 0.362 0.582 52 38 19 0 0
0.0317 0.0451 -0.2811 0.307 0.935 -0.179 58 49 40 0 0
0.0480 0.0482 -0.2937 0.572 0.490 0.658 74 66 47 0 0
-0.0366 0.0268 -0.4032 0.980 0.021 -0.200 53 43 33 0 0
-0.0383 0.0263 -0.4075 0.995 0.063 0.076 40 34 26 0 0
-0.0382 0.0262 -0.4093 0.973 0.199 0.117 52 43 37 0 0
-0.0382 0.0262 -0.4111 0.951 0.232 -0.205 69 59 48 0 0
-0.0391 0.0259 -0.4132 0.873 0.346 -0.344 76 63 52 0 0
-0.0405 0.0255 -0.4174 0.756 0.533 -0.380 89 76 66 0 0
-0.0420 0.0249 -0.4272 0.932 0.355 0.065 56 48 40 0 0
-0.0411 0.0214 -0.5471 0.925 0.182 0.334 128 113 82 0 0
-0.0398 0.0216 -0.5485 0.981 0.045 0.187 141 126 95 0 0
-0.0390 0.0218 -0.5501 0.896 -0.222 0.384 126 111 80 0 0
-0.0417 0.0202 -0.5816 0.967 0.038 0.251 55 43 29 0 0
-0.0424 0.0198 -0.5922 0.874 -0.461 0.154 44 35 25 0 0
-0.0406 0.0197 -0.6055 0.835 0.466 0.291 76 62 38 0 0
-0.0120 0.0243 -0.6550 0.977 0.052 0.205 84 72 48 0 0
-0.0116 0.0244 -0.6568 0.981 0.081 0.174 81 69 46 0 0
0.0141 0.0286 -0.6990 0.830 -0.489 0.269 127 112 82 0 0
0.0142 0.0286 -0.7011 0.690 -0.634 0.348 136 121 93 0 0
0.0335 0.0293 -0.8113 0.885 -0.205 0.418 161 147 105 0 0
0.0163 0.0420 -0.2230 0.801 0.497 0.333 162 162 159 0 0
0.0168 0.0421 -0.2244 0.801 0.497 0.333 147 139 128 0 0
0.0171 0.0421 -0.2259 0.758 0.628 0.180 131 117 98 0 0
0.0362 0.0446 -0.2783 0.283 0.916 -0.284 38 30 21 0 0
0.0488 0.0469 -0.2935 0.781 0.386 0.491 79 71 52 0 0
-0.0385 0.0245 -0.4077 0.993 0.010 0.121 41 34 28 0 0
-0.0382 0.0245 -0.4094 0.976 0.119 0.181 46 37 30 0 0
-0.0379 0.0245 -0.4111 0.975 0.161 -0.153 65 55 43 0 0
-0.0384 0.0243 -0.4131 0.873 0.346 -0.344 86 73 60 0 0
-0.0391 0.0241 -0.4152 0.860 0.386 -0.332 74 61 50 0 0
-0.0399 0.0239 -0.4173 0.832 0.444 -0.333 82 69 60 0 0
-0.0407 0.0197 -0.5471 0.944 0.232 0.235 132 117 86 0 0
-0.0397 0.0198 -0.5486 0.984 0.133 -0.118 132 117 86 0 0
-0.0395 0.0198 -0.5524 0.920 -0.262 0.292 127 112 81 0 0
-0.0424 0.0179 -0.5923 0.853 -0.430 0.296 27 22 11 0 0
-0.0375 0.0182 -0.6163 0.612 0.134 0.779 101 90 71 0 0
-0.0368 0.0183 -0.6180 0.792 -0.308 0.527 106 93 72 0 0
-0.0353 0.0186 -0.6192 0.683 -0.088 0.725 136 121 99 0 0
-0.0194 0.0213 -0.6410 0.986 0.049 0.160 58 47 28 0 0
-0.0191 0.0214 -0.6429 0.986 0.049 0.160 62 51 33 0 0
-0.0191 0.0213 -0.6449 0.986 0.092 0.137 104 93 74 0 0
-0.0181 0.0215 -0.6464 0.943 0.257 0.213 98 87 67 0 0
-0.0123 0.0225 -0.6533 0.956 0.189 0.224 59 46 26 0 0
-0.0114 0.0226 -0.6569 0.981 0.081 0.174 96 84 61 0 0
-0.0113 0.0225 -0.6590 0.992 0.053 0.116 103 90 71 0 0
-0.0103 0.0226 -0.6646 0.871 0.330 0.363 72 59 40 0 0
-0.0096 0.0227 -0.6663 0.890 0.281 0.359 60 48 28 0 0
-0.0089 0.0227 -0.6700 0.996 0.048 0.071 69 57 37 0 0
0.0149 0.0264 -0.7157 0.825 -0.457 0.333 84 70 50 0 0
0.0294 0.0285 -0.7506 0.988 -0.087 0.129 159 141 98 0 0
0.0317 0.0264 -0.8335 0.982 -0.165 -0.097 143 126 85 0 0
0.0111 0.0394 -0.2211 0.176 0.858 0.483 175 175 171 0 0
0.0165 0.0405 -0.2230 0.159 0.778 0.607 144 136 122 0 0
0.0447 0.0458 -0.2513 0.955 0.022 0.295 125 110 82 0 0
0.0472 0.0460 -0.2598 0.893 0.272 0.358 37 25 14 0 0
0.0505 0.0466 -0.2636 0.765 0.463 0.447 44 31 18 0 0
0.0387 0.0436 -0.2777 0.268 0.926 -0.267 32 25 17 0 0
-0.0370 0.0232 -0.4035 0.998 0.062 0.031 75 67 55 0 0
-0.0383 0.0228 -0.4059 0.884 0.369 0.288 66 58 46 0 0
-0.0380 0.0229 -0.4075 0.967 0.255 0.010 59 50 43 0 0
-0.0375 0.0229 -0.4092 0.940 0.342 -0.009 76 68 59 0 0
-0.0374 0.0229 -0.4109 0.911 0.339 -0.237 91 81 67 0 0
-0.0378 0.0227 -0.4129 0.867 0.416 -0.276 102 90 75 0 0
-0.0383 0.0226 -0.4149 0.867 0.416 -0.276 95 82 69 0 0
-0.0389 0.0224 -0.4170 0.867 0.416 -0.276 94 82 70 0 0
-0.0395 0.0222 -0.4190 0.877 0.392 -0.278 94 82 69 0 0
-0.0464 0.0200 -0.4421 0.876 0.472 0.105 59 50 41 0 0
-0.0392 0.0206 -0.4691 0.929 0.058 0.364 94 82 62 0 0
-0.0393 0.0206 -0.4710 0.863 -0.060 0.502 80 68 46 0 0
-0.0389 0.0182 -0.5483 0.955 -0.254 0.151 128 111 81 0 0
-0.0421 0.0170 -0.5659 0.982 -0.185 -0.036 50 38 27 0 0
-0.0432 0.0163 -0.5786 0.896 0.151 0.418 66 51 37 0 0
-0.0425 0.0164 -0.5803 0.932 0.226 0.284 69 59 43 0 0
-0.0415 0.0166 -0.5818 0.967 0.038 0.251 71 59 45 0 0
-0.0403 0.0158 -0.6140 0.917 0.198 0.346 66 53 34 0 0
-0.0186 0.0196 -0.6427 0.974 0.082 0.213 71 60 42 0 0
-0.0177 0.0197 -0.6463 0.833 0.251 0.493 110 99 79 0 0
-0.0168 0.0199 -0.6479 0.833 0.251 0.493 110 98 74 0 0
-0.0114 0.0207 -0.6592 0.958 0.238 0.158 109 96 77 0 0
-0.0110 0.0207 -0.6610 0.897 0.351 0.268 100 87 68 0 0
-0.0106 0.0207 -0.6629 0.781 0.309 0.543 87 74 55 0 0
-0.0096 0.0209 -0.6644 0.781 0.309 0.543 66 54 34 0 0
-0.0090 0.0210 -0.6661 0.871 0.330 0.363 74 63 41 0 0
-0.0087 0.0209 -0.6701 0.983 0.035 0.179 63 51 29 0 0
0.0331 0.0271 -0.7612 0.990 0.100 0.101 153 135 92 0 0
0.0149 0.0388 -0.2172 0.440 0.598 0.670 177 177 176 0 0
0.0446 0.0442 -0.2514 0.982 -0.004 0.187 86 74 56 0 0
0.0499 0.0449 -0.2653 0.984 -0.021 0.177 41 26 15 0 0
0.0452 0.0417 -0.3331 0.537 -0.654 0.533 70 60 45 0 0
-0.0250 0.0247 -0.3849 0.557 0.562 -0.612 55 45 36 0 0
-0.0359 0.0218 -0.4014 0.913 0.242 -0.328 49 38 26 0 0
-0.0371 0.0215 -0.4037 0.931 0.366 0.013 58 48 36 0 0
-0.0372 0.0212 -0.4091 0.887 0.449 0.108 81 71 57 0 0
-0.0372 0.0211 -0.4128 0.911 0.339 -0.237 95 83 67 0 0
-0.0378 0.0209 -0.4148 0.934 0.312 -0.173 98 86 71 0 0
-0.0456 0.0184 -0.4418 0.876 0.472 0.105 63 54 46 0 0
-0.0438 0.0182 -0.4580 0.791 -0.288 0.540 37 30 19 0 0
-0.0408 0.0187 -0.4642 0.938 -0.052 0.343 50 42 35 0 0
-0.0402 0.0188 -0.4658 0.938 -0.052 0.343 46 37 27 0 0
-0.0400 0.0188 -0.4676 0.943 0.161 0.292 64 55 39 0 0
-0.0395 0.0188 -0.4693 0.923 0.179 0.341 92 81 60 0 0
-0.0390 0.0189 -0.4709 0.896 0.232 0.378 72 60 37 0 0
-0.0376 0.0191 -0.4741 0.928 0.157 0.339 60 45 28 0 0
-0.0435 0.0137 -0.5994 0.959 0.067 0.274 56 43 24 0 0
-0.0186 0.0178 -0.6429 0.898 0.149 0.414 68 56 38 0 0
-0.0181 0.0178 -0.6447 0.970 0.092 0.223 99 87 67 0 0
-0.0174 0.0179 -0.6463 0.872 0.123 0.473 100 88 69 0 0
-0.0145 0.0184 -0.6509 0.755 0.094 0.649 139 125 104 0 0
-0.0120 0.0187 -0.6577 0.937 -0.020 0.349 73 60 42 0 0
-0.0114 0.0188 -0.6594 0.896 0.329 0.299 80 67 47 0 0
-0.0109 0.0189 -0.6611 0.896 0.329 0.299 84 69 49 0 0
-0.0092 0.0191 -0.6643 0.800 0.200 0.566 61 49 30 0 0
-0.0085 0.0192 -0.6659 0.875 0.124 0.468 101 90 68 0 0
-0.0100 0.0185 -0.6775 0.812 0.578 0.080 44 32 15 0 0
0.0293 0.0221 -0.8338 0.959 0.241 0.150 146 130 89 0 0
0.0294 0.0220 -0.8359 0.944 0.329 0.028 152 136 95 0 0
0.0162 0.0376 -0.2169 0.440 0.598 0.670 175 177 175 0 0
0.0452 0.0428 -0.2512 0.854 0.312 0.417 49 37 24 0 0
0.0473 0.0430 -0.2583 0.911 0.178 0.372 35 25 15 0 0
0.0512 0.0437 -0.2634 0.698 0.388 0.602 37 25 16 0 0
0.0523 0.0439 -0.2647 0.838 0.493 0.232 42 27 16 0 0
0.0421 0.0411 -0.2815 0.563 0.821 0.095 34 27 18 0 0
0.0432 0.0413 -0.2843 0.488 0.728 0.481 43 37 25 0 0
0.0442 0.0415 -0.2856 0.488 0.728 0.481 47 40 28 0 0
0.0452 0.0416 -0.2869 0.488 0.728 0.481 40 34 22 0 0
0.0494 0.0417 -0.3140 0.832 -0.240 0.500 117 101 69 0 0
-0.0153 0.0255 -0.3727 0.757 0.602 -0.255 68 58 40 0 0
-0.0148 0.0256 -0.3742 0.814 0.562 -0.148 62 53 35 0 0
-0.0364 0.0199 -0.4035 0.931 0.366 0.013 65 55 41 0 0
-0.0365 0.0197 -0.4090 0.973 0.222 0.066 63 51 35 0 0
-0.0368 0.0196 -0.4109 0.995 0.017 -0.100 75 63 47 0 0
-0.0370 0.0195 -0.4128 0.995 0.017 -0.100 76 64 48 0 0
-0.0371 0.0193 -0.4146 0.995 0.017 -0.100 70 58 42 0 0
-0.0449 0.0167 -0.4417 0.902 0.347 0.257 62 53 46 0 0
-0.0450 0.0167 -0.4436 0.939 0.341 -0.041 43 35 28 0 0
-0.0414 0.0168 -0.4646 0.882 0.148 0.446 33 24 17 0 0
-0.0406 0.0169 -0.4661 0.882 0.148 0.446 37 27 18 0 0
-0.0397 0.0170 -0.4676 0.943 0.161 0.292 62 52 37 0 0
-0.0390 0.0172 -0.4692 0.871 -0.033 0.490 91 80 61 0 0
-0.0406 0.0142 -0.5475 0.968 -0.213 0.132 130 116 85 0 0
-0.0423 0.0122 -0.5989 0.738 0.261 0.622 63 50 31 0 0
-0.0182 0.0160 -0.6428 0.864 0.295 0.407 57 44 27 0 0
-0.0178 0.0160 -0.6468 0.982 -0.097 0.162 91 78 61 0 0
-0.0158 0.0163 -0.6518 0.835 0.188 0.518 125 113 94 0 0
-0.0127 0.0168 -0.6562 0.851 0.139 0.506 55 42 25 0 0
-0.0118 0.0169 -0.6578 0.851 0.139 0.506 81 68 51 0 0
-0.0111 0.0170 -0.6615 0.878 0.150 0.454 93 78 57 0 0
-0.0102 0.0171 -0.6630 0.865 0.111 0.490 86 72 51 0 0
-0.0089 0.0173 -0.6664 0.925 -0.009 0.380 110 96 74 0 0
-0.0089 0.0169 -0.6770 0.862 0.473 0.181 42 29 13 0 0
0.0214 0.0220 -0.7269 0.788 -0.181 0.589 97 83 56 0 0
0.0236 0.0224 -0.7296 0.788 -0.181 0.589 72 57 37 0 0
0.0255 0.0224 -0.7412 0.964 -0.002 0.267 126 110 75 0 0
0.0294 0.0202 -0.8339 0.982 -0.049 0.181 154 136 96 0 0
0.0300 0.0203 -0.8357 0.944 0.329 0.028 153 136 96 0 0
0.0075 0.0140 -0.8779 0.946 -0.205 -0.252 100 95 89 0 0
0.0171 0.0362 -0.2168 0.556 0.385 0.737 169 168 162 0 0
0.0463 0.0415 -0.2525 0.854 0.312 0.417 42 30 17 0 0
0.0499 0.0411 -0.2871 0.789 0.381 0.482 36 28 17 0 0
0.0507 0.0413 -0.2884 0.905 0.219 0.366 39 28 19 0 0
0.0470 0.0395 -0.3164 0.819 -0.384 0.425 130 114 80 0 0
0.0459 0.0392 -0.3184 0.924 -0.171 0.342 129 113 79 0 0
0.0465 0.0393 -0.3198 0.924 -0.171 0.342 124 108 74 0 0
-0.0134 0.0244 -0.3686 0.973 0.154 -0.172 58 44 28 0 0
-0.0137 0.0241 -0.3739 0.838 0.508 -0.199 70 58 41 0 0
-0.0343 0.0187 -0.4010 0.852 0.461 -0.247 63 54 38 0 0
-0.0357 0.0183 -0.4033 0.878 0.464 0.113 67 60 43 0 0
-0.0361 0.0180 -0.4089 0.973 0.222 0.066 74 62 47 0 0
-0.0366 0.0178 -0.4109 0.979 0.101 -0.176 71 59 44 0 0
-0.0369 0.0177 -0.4128 0.995 0.017 -0.100 57 45 30 0 0
-0.0373 0.0176 -0.4148 0.978 0.166 -0.127 65 53 38 0 0
-0.0461 0.0145 -0.4497 0.890 0.392 0.235 22 18 13 0 0
-0.0310 0.0121 -0.6215 0.883 0.156 0.442 69 60 44 0 0
-0.0303 0.0122 -0.6232 0.912 0.130 0.388 58 47 31 0 0
-0.0293 0.0123 -0.6247 0.887 0.289 0.361 85 71 53 0 0
-0.0100 0.0154 -0.6610 0.944 0.118 0.309 82 69 50 0 0
-0.0102 0.0148 -0.6780 0.975 -0.061 0.214 40 27 12 0 0
0.0084 0.0177 -0.7126 0.821 -0.377 0.429 143 128 105 0 0
0.0084 0.0175 -0.7191 0.526 0.213 0.823 136 122 95 0 0
0.0214 0.0201 -0.7271 0.825 -0.120 0.552 109 94 66 0 0
0.0285 0.0204 -0.7654 0.936 -0.056 0.349 138 117 80 0 0
0.0295 0.0183 -0.8342 0.981 0.193 0.012 155 137 97 0 0
0.0167 0.0346 -0.2153 0.585 0.477 0.656 173 171 170 0 0
0.0179 0.0348 -0.2166 0.272 0.593 0.758 160 152 141 0 0
0.0458 0.0399 -0.2511 0.893 0.217 0.395 41 31 18 0 0
0.0465 0.0400 -0.2525 0.874 0.193 0.446 42 30 17 0 0
0.0469 0.0400 -0.2539 0.933 0.216 0.288 41 29 15 0 0
0.0451 0.0375 -0.3171 0.759 -0.245 0.603 131 115 81 0 0
0.0452 0.0374 -0.3187 0.900 -0.213 0.380 133 117 83 0 0
-0.0120 0.0230 -0.3682 0.895 0.438 -0.080 69 54 39 0 0
-0.0127 0.0228 -0.3719 0.775 0.631 0.036 78 65 48 0 0
-0.0128 0.0227 -0.3736 0.823 0.484 -0.298 74 60 43 0 0
-0.0368 0.0159 -0.4147 0.968 0.235 -0.090 70 58 43 0 0
-0.0370 0.0158 -0.4184 0.996 0.084 0.025 66 54 38 0 0
-0.0376 0.0154 -0.4241 0.939 0.221 -0.263 75 66 51 0 0
-0.0478 0.0125 -0.4449 0.763 0.598 -0.247 52 44 33 0 0
-0.0467 0.0125 -0.4501 0.997 0.068 0.042 23 19 15 0 0
-0.0449 0.0125 -0.4625 0.857 0.130 0.499 64 53 42 0 0
-0.0449 0.0091 -0.5640 0.888 -0.457 -0.041 71 62 49 0 0
-0.0400 0.0084 -0.6145 0.918 0.012 0.397 70 57 40 0 0
-0.0102 0.0129 -0.6782 0.959 -0.281 0.033 44 31 15 0 0
-0.0103 0.0125 -0.6889 0.487 0.699 0.524 52 40 27 0 0
0.0284 0.0186 -0.7635 0.989 0.063 0.132 124 108 72 0 0
0.0153 0.0328 -0.2141 0.293 0.503 0.813 178 178 176 0 0
0.0181 0.0334 -0.2151 0.300 0.707 0.640 175 168 162 0 0
0.0200 0.0338 -0.2162 0.275 0.689 0.670 146 135 116 0 0
0.0449 0.0383 -0.2453 0.921 0.290 0.261 49 33 17 0 0
0.0463 0.0384 -0.2511 0.910 0.267 0.318 40 30 17 0 0
0.0468 0.0385 -0.2525 0.893 0.217 0.395 43 31 19 0 0
0.0462 0.0383 -0.2541 0.943 0.197 0.270 44 31 20 0 0
0.0470 0.0384 -0.2555 0.930 0.110 0.352 43 30 21 0 0
0.0463 0.0365 -0.3088 0.975 0.179 0.128 116 101 70 0 0
0.0475 0.0367 -0.3100 0.907 -0.039 0.419 125 111 79 0 0
0.0448 0.0358 -0.3173 0.847 -0.136 0.514 134 118 84 0 0
-0.0111 0.0216 -0.3662 0.790 0.611 -0.054 53 42 34 0 0
-0.0110 0.0215 -0.3714 0.857 0.495 -0.142 76 62 47 0 0
-0.0117 0.0212 -0.3734 0.801 0.490 -0.345 64 50 34 0 0
-0.0294 0.0166 -0.3939 0.824 0.370 -0.430 61 54 43 0 0
-0.0303 0.0163 -0.3960 0.872 0.285 -0.399 67 58 47 0 0
-0.0317 0.0159 -0.3984 0.885 0.323 -0.334 66 56 44 0 0
-0.0398 0.0132 -0.4251 0.975 -0.157 -0.157 74 65 50 0 0
-0.0384 0.0101 -0.5231 0.950 -0.311 0.022 100 90 63 0 0
-0.0110 0.0115 -0.6599 0.770 0.011 0.638 82 71 51 0 0
-0.0139 0.0100 -0.6829 0.941 -0.165 0.297 120 108 85 0 0
-0.0114 0.0104 -0.6877 0.994 0.086 0.074 68 55 37 0 0
-0.0138 0.0098 -0.6914 0.954 -0.067 -0.294 46 36 23 0 0
0.0447 0.0368 -0.2454 0.899 0.203 0.389 55 40 22 0 0
0.0462 0.0369 -0.2511 0.892 0.046 0.449 40 29 16 0 0
0.0469 0.0370 -0.2525 0.892 0.046 0.449 49 37 23 0 0
0.0471 0.0352 -0.3054 0.952 0.278 -0.125 108 93 62 0 0
0.0466 0.0349 -0.3088 0.981 0.189 0.036 113 99 67 0 0
0.0465 0.0349 -0.3104 0.976 0.215 -0.018 124 110 77 0 0
0.0457 0.0346 -0.3122 0.963 -0.196 0.184 123 108 75 0 0
0.0457 0.0345 -0.3154 0.939 -0.326 0.106 135 120 86 0 0
0.0445 0.0342 -0.3174 0.756 0.291 0.586 130 114 80 0 0
0.0453 0.0341 -0.3252 0.969 0.124 -0.214 132 118 89 0 0
0.0447 0.0339 -0.3270 0.810 0.586 0.004 81 70 50 0 0
0.0427 0.0333 -0.3293 0.567 0.814 0.123 33 24 14 0 0
-0.0096 0.0204 -0.3622 0.803 0.569 0.179 30 21 18 0 0
-0.0093 0.0204 -0.3639 0.751 0.643 0.151 38 29 25 0 0
-0.0090 0.0204 -0.3655 0.751 0.643 0.151 53 44 35 0 0
-0.0096 0.0202 -0.3674 0.777 0.620 -0.106 64 53 42 0 0
-0.0278 0.0152 -0.3934 0.706 0.484 -0.517 45 38 28 0 0
-0.0296 0.0147 -0.3958 0.807 0.458 -0.373 46 38 28 0 0
-0.0410 0.0111 -0.4257 0.990 -0.106 -0.097 75 64 50 0 0
-0.0445 0.0098 -0.4400 0.971 -0.080 -0.224 68 58 47 0 0
-0.0469 0.0087 -0.4579 0.786 -0.379 0.488 46 38 28 0 0
-0.0453 0.0090 -0.4591 0.707 -0.293 0.644 39 30 19 0 0
-0.0429 0.0044 -0.6061 0.949 0.239 0.205 82 69 43 0 0
-0.0425 0.0043 -0.6100 0.878 0.210 0.429 95 79 56 0 0
-0.0249 0.0073 -0.6372 0.935 0.098 0.341 59 50 31 0 0
-0.0136 0.0085 -0.6765 0.714 -0.124 0.689 88 78 59 0 0
0.0471 0.0356 -0.2509 0.926 -0.016 0.378 42 29 17 0 0
0.0476 0.0356 -0.2523 0.974 -0.045 0.224 44 32 19 0 0
0.0468 0.0334 -0.3087 0.981 0.189 0.036 117 103 70 0 0
0.0468 0.0334 -0.3103 0.976 0.215 -0.018 124 110 76 0 0
0.0468 0.0333 -0.3119 0.976 0.215 -0.018 119 104 70 0 0
0.0451 0.0328 -0.3141 0.999 -0.026 -0.037 132 118 83 0 0
-0.0079 0.0192 -0.3617 0.686 0.546 0.481 35 27 24 0 0
-0.0415 0.0092 -0.4260 0.983 -0.169 -0.073 70 57 42 0 0
-0.0443 0.0074 -0.4607 0.939 -0.199 0.279 35 26 15 0 0
-0.0391 0.0080 -0.4773 0.992 0.024 0.122 82 71 45 0 0
-0.0388 0.0079 -0.4791 0.992 0.024 0.122 87 74 50 0 0
-0.0109 0.0068 -0.6878 0.984 -0.069 0.165 62 48 34 0 0
0.0203 0.0125 -0.7266 0.701 -0.225 0.677 121 107 78 0 0
0.0218 0.0128 -0.7278 0.978 -0.185 0.092 81 66 42 0 0
0.0229 0.0125 -0.7421 0.971 0.061 0.229 129 109 77 0 0
0.0234 0.0126 -0.7439 0.971 0.061 0.229 141 119 86 0 0
0.0221 0.0298 -0.2112 0.388 0.836 0.387 178 178 180 0 0
0.0219 0.0297 -0.2128 0.265 0.682 0.682 175 174 169 0 0
0.0237 0.0300 -0.2139 0.265 0.682 0.682 166 158 144 0 0
0.0310 0.0316 -0.2168 0.482 0.548 0.684 164 144 108 0 0
0.0336 0.0322 -0.2178 0.767 0.460 0.447 180 159 119 0 0
0.0344 0.0323 -0.2191 0.886 0.357 0.296 213 190 143 0 0
0.0353 0.0324 -0.2204 0.924 0.219 0.314 222 201 149 0 0
0.0359 0.0325 -0.2217 0.826 0.306 0.473 189 168 120 0 0
0.0451 0.0338 -0.2453 0.735 0.139 0.664 58 42 22 0 0
0.0475 0.0341 -0.2523 0.974 -0.045 0.224 39 26 16 0 0
0.0471 0.0319 -0.3087 0.981 0.189 0.036 129 113 80 0 0
0.0449 0.0312 -0.3142 0.997 0.012 -0.073 128 113 79 0 0
-0.0101 0.0171 -0.3574 0.739 0.295 0.606 73 66 58 0 0
-0.0079 0.0175 -0.3601 0.734 0.470 0.490 41 32 29 0 0
-0.0062 0.0177 -0.3647 0.846 0.504 0.175 40 31 22 0 0
-0.0457 0.0049 -0.4690 0.864 0.498 0.076 49 36 23 0 0
-0.0442 0.0053 -0.4702 0.937 0.153 0.314 69 56 40 0 0
-0.0428 0.0055 -0.4715 0.819 0.026 0.573 77 64 46 0 0
-0.0427 0.0005 -0.6104 0.954 -0.180 0.241 103 88 63 0 0
0.0017 0.0069 -0.7140 0.585 -0.177 0.792 117 103 77 0 0
0.0214 0.0107 -0.7326 0.845 0.283 0.454 73 58 39 0 0
0.0258 0.0104 -0.7665 0.884 0.132 0.448 166 146 109 0 0
0.0269 0.0107 -0.7678 0.860 0.336 0.385 149 128 92 0 0
0.0281 0.0109 -0.7692 0.940 0.237 0.244 165 145 103 0 0
0.0283 0.0109 -0.7712 0.953 0.285 0.105 165 146 105 0 0
0.0273 0.0098 -0.7942 0.956 -0.122 0.265 142 124 86 0 0
0.0071 0.0023 -0.8752 0.588 -0.123 0.799 105 101 97 0 0
0.0343 0.0308 -0.2176 0.767 0.460 0.447 200 179 133 0 0
0.0349 0.0309 -0.2190 0.862 0.329 0.386 220 199 151 0 0
0.0356 0.0310 -0.2203 0.910 0.099 0.402 239 218 170 0 0
0.0364 0.0311 -0.2217 0.826 0.306 0.473 193 171 125 0 0
0.0480 0.0308 -0.3037 0.989 -0.071 0.126 108 91 61 0 0
0.0471 0.0305 -0.3056 0.998 -0.039 -0.055 111 94 64 0 0
0.0469 0.0304 -0.3072 0.994 -0.050 0.095 116 100 68 0 0
0.0432 0.0291 -0.3196 0.939 -0.340 0.055 139 121 88 0 0
-0.0098 0.0155 -0.3574 0.870 0.361 0.336 74 65 58 0 0
-0.0053 0.0164 -0.3627 0.911 0.163 0.379 64 56 50 0 0
-0.0537 0.0018 -0.4573 0.965 0.081 0.248 23 18 14 0 0
-0.0464 0.0033 -0.4618 0.999 0.025 0.045 32 23 15 0 0
-0.0458 0.0032 -0.4672 0.866 0.054 0.497 55 41 28 0 0
-0.0450 0.0033 -0.4687 0.866 0.054 0.497 70 57 42 0 0
-0.0412 0.0040 -0.4747 0.951 -0.079 0.300 76 63 46 0 0
-0.0490 -0.0020 -0.5893 0.975 -0.158 0.154 65 54 37 0 0
-0.0328 0.0004 -0.6237 0.921 -0.003 0.390 38 31 18 0 0
0.0219 0.0090 -0.7324 0.845 0.283 0.454 71 57 37 0 0
0.0247 0.0088 -0.7543 1.000 0.005 -0.003 152 134 96 0 0
0.0245 0.0086 -0.7589 0.970 -0.110 0.215 151 132 92 0 0
0.0281 0.0091 -0.7672 0.977 -0.030 0.211 159 139 103 0 0
0.0285 0.0091 -0.7691 0.981 0.090 0.171 156 137 96 0 0
0.0362 0.0296 -0.2202 0.826 0.306 0.473 195 173 131 0 0
0.0366 0.0296 -0.2216 0.769 0.464 0.439 156 134 97 0 0
0.0443 0.0291 -0.2827 0.815 0.284 0.506 80 64 38 0 0
0.0470 0.0292 -0.2977 0.968 -0.036 0.249 108 95 63 0 0
0.0469 0.0289 -0.3041 0.997 -0.082 0.004 113 98 65 0 0
0.0468 0.0288 -0.3057 0.999 -0.020 -0.032 117 102 69 0 0
0.0457 0.0284 -0.3092 0.947 -0.276 0.164 125 109 76 0 0
0.0433 0.0276 -0.3164 0.859 -0.508 -0.066 127 111 77 0 0
-0.0060 0.0145 -0.3630 0.886 0.091 0.454 46 39 36 0 0
-0.0535 -0.0001 -0.4592 0.757 0.457 0.467 30 25 19 0 0
-0.0462 0.0014 -0.4637 0.999 0.025 0.045 39 29 20 0 0
-0.0456 0.0015 -0.4653 0.992 0.081 -0.093 85 73 61 0 0
-0.0457 0.0014 -0.4673 0.866 0.054 0.497 65 51 38 0 0
-0.0448 0.0016 -0.4688 0.866 0.054 0.497 69 56 40 0 0
-0.0444 0.0016 -0.4705 0.942 0.039 0.333 82 69 53 0 0
-0.0500 -0.0042 -0.5900 0.973 -0.190 0.130 81 71 52 0 0
-0.0493 -0.0041 -0.5937 0.962 -0.018 0.274 79 67 44 0 0
-0.0494 -0.0042 -0.5959 1.000 -0.015 -0.008 76 64 42 0 0
-0.0166 0.0007 -0.6665 0.889 -0.457 -0.008 71 58 39 0 0
-0.0229 -0.0020 -0.7006 0.984 -0.176 0.031 19 16 11 0 0
0.0243 0.0051 -0.8016 0.998 -0.065 0.025 158 139 98 0 0
0.0241 0.0049 -0.8040 0.982 -0.162 0.101 160 141 98 0 0
0.0250 0.0049 -0.8101 0.943 0.063 0.326 159 141 99 0 0
0.0309 0.0271 -0.2139 0.465 0.425 0.776 196 181 148 0 0
0.0362 0.0280 -0.2202 0.760 0.358 0.542 141 121 82 0 0
0.0386 0.0285 -0.2242 0.773 0.515 0.371 81 64 39 0 0
0.0462 0.0298 -0.2360 0.907 0.327 0.267 29 20 11 0 0
0.0433 0.0278 -0.2706 0.977 -0.075 0.197 59 42 26 0 0
0.0440 0.0278 -0.2750 0.926 0.090 0.366 91 76 53 0 0
0.0466 0.0281 -0.2821 0.720 0.560 0.409 84 69 42 0 0
0.0466 0.0275 -0.2979 0.929 -0.099 0.355 103 89 58 0 0
-0.0520 -0.0012 -0.4511 0.944 -0.271 -0.189 27 22 18 0 0
-0.0529 -0.0016 -0.4552 0.992 -0.115 0.044 31 27 24 0 0
-0.0533 -0.0017 -0.4573 0.877 0.091 0.471 26 22 18 0 0
-0.0465 -0.0004 -0.4639 0.991 -0.131 0.010 44 34 24 0 0
-0.0456 -0.0003 -0.4673 0.866 0.054 0.497 81 67 54 0 0
-0.0521 -0.0046 -0.5405 0.997 0.074 -0.030 69 56 37 0 0
-0.0522 -0.0047 -0.5426 0.997 0.074 -0.030 84 71 52 0 0
-0.0520 -0.0049 -0.5485 0.979 0.108 0.171 96 85 66 0 0
-0.0525 -0.0056 -0.5649 0.988 0.067 -0.136 44 34 24 0 0
-0.0523 -0.0061 -0.5770 0.925 0.091 0.369 57 46 36 0 0
-0.0495 -0.0061 -0.5961 0.965 -0.176 0.195 74 62 38 0 0
-0.0482 -0.0059 -0.5974 0.973 0.205 0.109 77 65 44 0 0
-0.0356 -0.0037 -0.6173 0.877 -0.251 0.410 118 102 77 0 0
-0.0348 -0.0036 -0.6189 0.877 -0.251 0.410 123 110 88 0 0
-0.0170 -0.0029 -0.7099 0.610 -0.127 0.782 105 92 77 0 0
0.0244 0.0033 -0.7996 1.000 0.004 -0.007 156 137 97 0 0
0.0243 0.0031 -0.8042 0.993 0.102 -0.054 170 153 109 0 0
0.0249 0.0031 -0.8059 0.990 0.104 0.093 167 150 105 0 0
0.0245 0.0030 -0.8085 0.988 -0.066 0.139 155 139 96 0 0
0.0248 0.0029 -0.8105 0.988 -0.066 0.139 146 130 90 0 0
0.0361 0.0265 -0.2188 0.927 0.130 0.351 145 128 84 0 0
0.0362 0.0265 -0.2202 0.866 0.166 0.472 128 112 74 0 0
0.0391 0.0270 -0.2241 0.815 0.198 0.545 70 53 29 0 0
0.0514 0.0293 -0.2408 0.696 0.666 0.267 39 30 19 0 0
0.0434 0.0262 -0.2706 0.884 -0.154 0.441 62 45 26 0 0
0.0437 0.0263 -0.2720 0.948 -0.052 0.315 69 53 32 0 0
0.0442 0.0263 -0.2735 0.932 0.205 0.299 80 62 40 0 0
0.0443 0.0263 -0.2750 0.906 0.362 0.221 80 64 41 0 0
-0.0528 -0.0032 -0.4516 0.960 -0.201 -0.193 33 27 24 0 0
-0.0512 -0.0060 -0.5342 0.994 0.040 0.106 109 96 77 0 0
-0.0510 -0.0061 -0.5361 0.994 0.040 0.106 94 81 63 0 0
-0.0509 -0.0077 -0.5805 0.792 -0.298 0.533 76 68 56 0 0
-0.0350 -0.0055 -0.6192 0.952 -0.108 0.285 132 118 94 0 0
-0.0341 -0.0054 -0.6207 0.848 -0.033 0.528 67 53 35 0 0
-0.0217 -0.0032 -0.6406 0.850 0.337 0.405 147 133 106 0 0
-0.0236 -0.0061 -0.7037 0.875 0.193 0.445 27 23 17 0 0
0.0244 0.0012 -0.8043 0.972 0.214 -0.095 169 153 109 0 0
0.0251 0.0013 -0.8060 0.990 0.104 0.093 164 146 103 0 0
0.0247 0.0010 -0.8109 0.988 -0.066 0.139 157 140 99 0 0
0.0049 -0.0060 -0.8736 0.917 -0.321 -0.238 97 94 89 0 0
-0.0124 0.0138 -0.2139 0.190 0.912 0.364 178 178 179 0 0
0.0374 0.0253 -0.2200 0.865 0.207 0.457 81 60 33 0 0
0.0458 0.0242 -0.2982 0.918 -0.085 0.387 101 86 55 0 0
0.0432 0.0228 -0.3182 0.870 -0.354 -0.345 132 117 84 0 0
0.0411 0.0221 -0.3221 0.734 -0.197 0.650 67 55 36 0 0
-0.0047 0.0094 -0.3731 0.986 0.144 0.086 58 42 24 0 0
-0.0533 -0.0054 -0.4575 0.724 0.282 0.630 20 16 12 0 0
-0.0504 -0.0048 -0.4601 0.797 0.358 0.486 27 20 12 0 0
-0.0230 -0.0073 -0.6883 0.814 -0.384 0.437 82 71 48 0 0
-0.0243 -0.0082 -0.7044 0.870 0.286 0.402 28 24 18 0 0
-0.0019 -0.0035 -0.7176 0.690 -0.093 0.717 102 90 68 0 0
0.0026 -0.0025 -0.7188 0.890 0.283 0.358 90 75 54 0 0
0.0033 -0.0024 -0.7205 0.890 0.283 0.358 83 68 45 0 0
-0.0094 0.0129 -0.2133 0.190 0.912 0.364 179 179 177 0 0
0.0109 0.0177 -0.2137 0.094 -0.186 0.978 175 172 165 0 0
0.0378 0.0238 -0.2199 0.865 0.207 0.457 64 43 22 0 0
0.0436 0.0232 -0.2690 0.951 0.022 0.308 84 69 42 0 0
0.0478 0.0233 -0.2929 0.884 0.456 0.107 91 74 45 0 0
0.0432 0.0213 -0.3150 0.901 -0.405 -0.155 131 112 78 0 0
0.0391 0.0202 -0.3196 0.897 -0.249 0.366 124 111 81 0 0
0.0404 0.0204 -0.3208 0.887 -0.245 0.392 92 82 60 0 0
0.0411 0.0205 -0.3222 0.921 -0.206 0.330 46 36 21 0 0
-0.0096 0.0074 -0.3524 0.602 0.473 0.643 54 44 39 0 0
-0.0045 0.0077 -0.3731 0.986 0.144 0.086 64 46 27 0 0
-0.0041 0.0072 -0.3887 0.806 0.590 0.038 81 70 48 0 0
-0.0546 -0.0072 -0.4506 0.891 -0.243 -0.382 28 20 17 0 0
-0.0451 -0.0065 -0.4885 0.981 0.195 0.001 108 95 76 0 0
-0.0473 -0.0079 -0.5128 0.991 -0.004 0.135 97 84 65 0 0
-0.0510 -0.0094 -0.5265 0.982 -0.123 0.141 80 67 48 0 0
-0.0527 -0.0104 -0.5432 0.956 -0.199 0.214 96 83 64 0 0
-0.0358 -0.0095 -0.6200 0.775 -0.159 0.611 64 54 36 0 0
-0.0223 -0.0074 -0.6476 0.951 -0.220 0.218 46 34 19 0 0
-0.0214 -0.0073 -0.6512 0.950 -0.238 0.201 32 19 10 0 0
-0.0196 -0.0075 -0.6671 0.978 -0.196 0.069 68 57 36 0 0
-0.0228 -0.0090 -0.6841 0.979 0.124 0.160 108 96 72 0 0
-0.0235 -0.0092 -0.6867 0.878 0.370 0.304 92 81 56 0 0
-0.0238 -0.0094 -0.6891 0.958 0.065 0.279 82 71 49 0 0
-0.0245 -0.0097 -0.6917 0.982 -0.108 0.156 86 75 56 0 0
-0.0244 -0.0104 -0.7112 0.866 0.130 0.483 78 67 56 0 0
0.0031 -0.0042 -0.7186 0.890 0.283 0.358 100 85 62 0 0
0.0036 -0.0042 -0.7205 0.772 0.361 0.524 101 86 62 0 0
0.0119 -0.0024 -0.7256 0.828 0.386 0.407 115 97 72 0 0
0.0142 -0.0021 -0.7304 0.886 0.141 0.442 93 80 55 0 0
-0.0133 0.0108 -0.2048 0.209 0.960 0.187 178 177 181 0 0
-0.0113 0.0110 -0.2091 0.099 0.945 0.313 178 178 179 0 0
-0.0065 0.0121 -0.2127 0.190 0.912 0.364 173 173 167 0 0
0.0098 0.0159 -0.2139 0.094 -0.186 0.978 155 148 130 0 0
0.0346 0.0217 -0.2161 0.758 0.195 0.623 196 179 137 0 0
0.0407 0.0217 -0.2512 0.749 -0.169 0.640 87 77 52 0 0
0.0435 0.0219 -0.2628 0.946 -0.264 0.188 59 44 28 0 0
0.0394 0.0186 -0.3212 0.949 -0.165 0.270 64 56 38 0 0
-0.0034 0.0061 -0.3798 0.828 0.559 -0.034 49 30 16 0 0
-0.0035 0.0057 -0.3886 0.940 0.234 0.247 93 82 62 0 0
-0.0215 0.0007 -0.4043 0.473 0.419 -0.775 72 61 48 0 0
-0.0546 -0.0089 -0.4488 0.900 -0.278 -0.335 52 45 38 0 0
-0.0553 -0.0092 -0.4510 0.880 -0.289 -0.377 21 15 12 0 0
-0.0569 -0.0097 -0.4536 0.943 -0.297 0.151 32 27 24 0 0
-0.0506 -0.0105 -0.5125 0.965 0.224 0.140 69 56 38 0 0
-0.0232 -0.0110 -0.6846 0.971 -0.150 0.187 81 69 46 0 0
-0.0261 -0.0120 -0.6929 0.997 0.010 0.077 90 79 60 0 0
0.0029 -0.0062 -0.7191 0.883 -0.054 0.466 117 99 74 0 0
0.0045 -0.0059 -0.7223 0.899 0.044 0.435 108 93 65 0 0
0.0055 -0.0057 -0.7237 0.834 0.248 0.493 148 134 105 0 0
0.0141 -0.0040 -0.7308 0.860 0.381 0.339 107 91 66 0 0
0.0153 -0.0037 -0.7321 0.886 0.141 0.442 89 75 55 0 0
0.0167 -0.0036 -0.7376 0.905 -0.006 0.426 118 104 79 0 0
-0.0134 0.0096 -0.1940 0.258 0.962 0.092 179 179 179 0 0
-0.0004 0.0118 -0.2145 0.398 0.681 0.615 149 139 120 0 0
-0.0076 0.0045 -0.3519 0.849 0.279 0.449 50 40 32 0 0
-0.0044 0.0047 -0.3663 0.873 0.440 0.212 66 48 39 0 0
-0.0040 0.0047 -0.3679 0.873 0.440 0.212 74 55 40 0 0
-0.0030 0.0040 -0.3902 0.993 0.078 0.094 100 88 67 0 0
-0.0031 0.0039 -0.3920 0.998 0.054 0.030 100 89 69 0 0
-0.0575 -0.0116 -0.4539 0.943 -0.297 0.151 28 23 20 0 0
-0.0516 -0.0122 -0.5034 0.939 0.145 0.312 75 62 45 0 0
-0.0505 -0.0123 -0.5107 0.980 0.176 0.098 69 56 38 0 0
-0.0503 -0.0123 -0.5126 0.890 0.291 0.352 67 54 37 0 0
-0.0499 -0.0123 -0.5143 0.936 0.239 0.256 82 69 53 0 0
-0.0575 -0.0172 -0.5909 0.915 -0.031 0.402 126 116 99 0 0
-0.0248 -0.0144 -0.7119 0.624 -0.191 0.758 98 85 72 0 0
0.0166 -0.0055 -0.7357 0.972 -0.162 0.170 108 94 68 0 0
0.0169 -0.0055 -0.7377 0.909 -0.140 0.393 94 81 55 0 0
-0.0008 -0.0154 -0.8772 0.869 -0.166 0.466 114 109 105 0 0
-0.0124 0.0085 -0.1861 0.361 0.861 0.358 178 178 178 0 0
0.0012 0.0106 -0.2142 0.346 0.781 0.520 147 133 108 0 0
0.0412 0.0172 -0.2886 0.988 0.026 0.149 99 84 55 0 0
0.0414 0.0172 -0.2902 0.986 0.042 0.159 100 85 56 0 0
-0.0082 0.0027 -0.3505 0.886 0.330 0.326 47 39 30 0 0
-0.0072 0.0028 -0.3535 0.886 0.330 0.326 40 32 26 0 0
-0.0033 0.0024 -0.3869 0.991 0.006 0.132 47 30 13 0 0
-0.0026 0.0025 -0.3884 0.920 0.171 0.352 62 47 25 0 0
-0.0031 0.0023 -0.3903 0.859 -0.099 0.503 70 56 32 0 0
-0.0032 0.0022 -0.3921 0.999 0.035 0.003 101 87 65 0 0
-0.0049 0.0017 -0.3945 0.855 0.111 -0.507 85 72 54 0 0
-0.0068 0.0011 -0.3970 0.700 0.267 -0.662 53 40 25 0 0
-0.0586 -0.0136 -0.4507 0.958 -0.255 -0.130 30 24 20 0 0
-0.0594 -0.0139 -0.4529 0.974 0.137 0.181 24 19 16 0 0
-0.0498 -0.0126 -0.4775 0.856 0.302 0.418 74 62 42 0 0
-0.0506 -0.0131 -0.4855 0.990 -0.109 0.086 73 59 44 0 0
-0.0509 -0.0139 -0.5031 0.909 0.358 0.213 62 51 36 0 0
-0.0505 -0.0140 -0.5088 0.997 -0.080 0.024 63 51 37 0 0
-0.0505 -0.0141 -0.5108 0.980 0.091 0.176 57 46 33 0 0
-0.0506 -0.0142 -0.5128 0.956 0.020 0.293 61 50 37 0 0
-0.0582 -0.0192 -0.5894 0.975 -0.213 -0.060 117 109 91 0 0
-0.0578 -0.0192 -0.5912 0.970 -0.104 0.218 122 114 95 0 0
0.0005 -0.0105 -0.7190 0.891 -0.026 0.454 156 140 102 0 0
0.0012 -0.0104 -0.7206 0.954 0.058 0.293 163 148 112 0 0
0.0167 -0.0076 -0.7424 0.955 -0.245 0.170 143 127 93 0 0
0.0249 -0.0108 -0.8676 -0.057 0.037 0.998 168 164 161 0 0
0.0328 -0.0087 -0.8633 0.033 -0.039 0.999 170 168 164 0 0
-0.0124 0.0070 -0.1846 0.268 0.784 0.560 178 178 178 0 0
-0.0103 0.0075 -0.1857 0.361 0.861 0.358 179 179 179 0 0
-0.0094 0.0076 -0.1871 0.361 0.861 0.358 178 178 178 0 0
-0.0085 0.0078 -0.1885 0.370 0.894 0.251 179 179 179 0 0
-0.0080 0.0079 -0.1899 0.347 0.912 0.217 179 179 178 0 0
0.0377 0.0172 -0.2291 0.942 -0.062 0.331 43 32 18 0 0
0.0390 0.0175 -0.2303 0.844 0.026 0.536 36 26 14 0 0
0.0397 0.0168 -0.2516 0.530 0.486 0.695 60 47 28 0 0
0.0405 0.0155 -0.2873 0.965 -0.124 0.233 86 72 43 0 0
0.0415 0.0157 -0.2886 0.990 -0.055 0.131 96 81 52 0 0
0.0418 0.0157 -0.2901 0.998 -0.053 0.035 96 81 52 0 0
