ply
format ascii 1.0
element vertex 654
property float x
property float y
property float z
property uchar diffuse_red
property uchar diffuse_green
property uchar diffuse_blue
end_header
0.001977567404722977 -0.0402515905676617 -0.8398423959277532 134 122 93
0.001486066056962096 -0.03849221949356679 -0.8436106032395699 132 120 91
0.0012222203483540223 -0.037718809238975304 -0.8465815937818686 127 117 93
0.0007021210922200788 -0.03583902334722039 -0.8504690196012754 109 103 85
0.0001690736388027525 -0.033905149988897765 -0.8544128206790913 73 70 57
-0.0002774857904260797 -0.03234667906601102 -0.8580583474932572 48 48 41
-0.0007259793414868126 -0.03078148908136552 -0.8617198351335147 45 44 35
-0.0012615515072753603 -0.028842142238888868 -0.8657027482053314 62 59 50
-0.0017585490833201267 -0.027071114490015147 -0.8695575366375854 89 86 80
-0.001930858632381724 -0.026702105072325455 -0.8722521275104678 108 105 102
-0.002311522642720318 -0.025435678313475263 -0.8757037920316305 125 125 122
-0.0014486591776688151 -0.029529642000997225 -0.8746608886426213 138 137 133
-0.001308367390708276 -0.030508439433703793 -0.8762272704545326 149 148 144
-0.0004585578083381586 -0.03491601758743479 -0.8772819033071066 165 164 159
0.018351745788875343 -0.007607842429738505 -0.16546024506026347 177 174 171
0.019397158723107696 -0.012876334499979124 -0.16609244314192886 137 131 124
0.019829044675503248 -0.015207379215252385 -0.1672020854881705 124 116 101
0.020083419427739044 -0.01668855816282474 -0.16844999368306285 105 94 75
0.02028186322962344 -0.0179018592879968 -0.16974092542103125 108 95 71
0.020485686294966346 -0.01914057420389459 -0.17102579797983417 111 96 68
0.020693072082163665 -0.02039600166479414 -0.17230600302191165 120 105 75
0.02119425525775468 -0.023054904717845173 -0.1733401734197804 119 106 74
0.021225292157198157 -0.023466929098685023 -0.17476267002784487 120 105 76
0.020988239856385434 -0.02259872314634863 -0.17641207105805512 123 108 79
0.021072543476956015 -0.02326558103462014 -0.17779203303470456 139 124 95
0.02135564083744909 -0.02488132215374448 -0.17900135564444608 130 115 86
0.02151363865424883 -0.02589956155069849 -0.18031599567408174 110 95 66
0.021638678706897865 -0.026760352665194442 -0.18165818921920376 110 94 64
0.021765614558173253 -0.027630057321272564 -0.18299801137358498 109 93 63
0.02180181343568945 -0.028066940434131986 -0.18441728279163108 107 91 62
0.021932713390133654 -0.028955384445426578 -0.18575270211330316 110 94 68
0.02206357491051309 -0.02984350194675292 -0.18708736880665722 115 99 73
0.02210516821763408 -0.030306112099119778 -0.18850189073993523 117 100 74
0.02212701273329009 -0.03067471276048729 -0.18993476783678875 121 105 76
0.022094372407847666 -0.030783940419458325 -0.1914182261839248 127 112 80
0.02205937854739013 -0.030882209990322353 -0.19290521943945493 123 108 76
0.02206066658996637 -0.03115344338147099 -0.1943598768306864 129 114 83
0.021905542327893816 -0.03068047447938254 -0.19596189578818196 133 118 87
0.02180079109158794 -0.03044771419457848 -0.19751940095765064 134 119 87
0.021695856868787562 -0.03021450582398174 -0.19907939906227334 128 113 81
0.021773204154095727 -0.030848545420581297 -0.20046745043178751 124 108 77
0.021928650871100384 -0.03185387174081253 -0.20178023753323254 116 101 71
0.021921554834657866 -0.03208642754111825 -0.20324945778027848 111 98 67
0.021935346301339493 -0.03241842519068312 -0.20469932924659454 112 97 65
0.021953040396856624 -0.03276910096937301 -0.20614612583488268 131 116 83
0.021968479795942526 -0.0331091973075938 -0.20759586105575367 131 116 83
0.02203159318983237 -0.03367579348116027 -0.2089988644893255 126 111 80
0.021976220732888074 -0.03367995877203882 -0.21052074198338538 121 105 77
0.021877994667902988 -0.03348105628875107 -0.21208753857097218 119 103 77
0.021807656271266712 -0.03341487849998008 -0.21362826163049842 116 100 74
0.021790122048452213 -0.03359951252408556 -0.21511688595429881 97 83 55
0.021948715594705535 -0.03461958570833273 -0.21642546939619317 104 93 64
0.021842557075100855 -0.03438427486847585 -0.2180070646939838 104 94 65
0.02187662554193088 -0.03481403168519997 -0.21944487372641544 109 97 68
0.02191069358803912 -0.03524387713145557 -0.22088318087313832 94 80 53
0.021842965000581364 -0.0351915721933527 -0.22242943829204592 106 92 68
0.021963253740440666 -0.03603007127490213 -0.2237778352778944 114 100 74
0.0218736995063838 -0.03587487263279876 -0.22534988174490664 108 94 68
0.021728608600002523 -0.03545717417068949 -0.2269838124011978 104 89 65
0.02191950174559558 -0.03663002634876946 -0.228257017460892 105 90 67
0.02188642884059143 -0.03674295539875407 -0.22977251313492905 92 78 55
0.021854403146074647 -0.03686109269678047 -0.2312882615042076 93 81 59
0.021801636819150292 -0.03688140467519223 -0.23282826013621594 93 81 59
0.021802960143968573 -0.03715773239298877 -0.23430993879184056 90 78 55
0.021804280107336548 -0.03743421596156584 -0.23579256432845896 77 65 43
0.021839296959754326 -0.037870093346758706 -0.23723831154193753 90 78 56
0.021692542603251187 -0.03744739149743135 -0.2388897969257573 93 81 59
0.02166844776618994 -0.03760450528721975 -0.2404048931926956 85 71 49
0.0216443662567795 -0.03776191670716871 -0.2419212631520169 76 61 37
0.021616561222716685 -0.03790198713928756 -0.24344320255954938 103 88 65
0.02156850654260317 -0.03794674367508745 -0.24498989252981784 109 95 70
0.02153219691225312 -0.038047204886396145 -0.24652454113793862 106 93 67
0.021472777184694678 -0.03803893176863798 -0.24808767568095796 97 85 59
0.021454080682596938 -0.03822300442334678 -0.24960468152815135 97 85 59
0.021451122394916266 -0.03848149138450982 -0.2511042932129006 95 83 59
0.021427273329828397 -0.03864170732841817 -0.25262977214932963 88 76 52
0.02136332699656266 -0.038613235545377746 -0.25420452312602637 91 78 55
0.021429701908814047 -0.039198964441470245 -0.2556243038405064 93 81 57
0.021405098288290788 -0.03935627393045332 -0.25715424824180866 92 80 56
0.02135981575030963 -0.03941646679593403 -0.258710664133999 100 88 64
0.021294848030498317 -0.03938429699950764 -0.2602927570502796 95 83 59
0.021272083302409102 -0.039551050834040855 -0.26182478558835115 86 74 49
0.021134633234401155 -0.039178532204485146 -0.26349998207676095 103 91 69
0.02106632081942271 -0.03913168647857627 -0.26509202468505355 106 95 72
0.02099311751800384 -0.03906219282915256 -0.26669209473460526 108 96 71
0.020931356049310602 -0.03904684216789978 -0.2682797556106779 104 93 67
0.02089610906862098 -0.03915642313981845 -0.2698357197220039 98 87 61
0.020557218890470186 -0.03783973958939809 -0.27177910763311786 96 85 59
0.02044652650984054 -0.037595878317971426 -0.2734364841198218 102 91 63
0.020765019802282614 -0.039367744069048485 -0.27454497983904125 110 98 69
0.020745757238794606 -0.03955346210590996 -0.27608634559867173 118 104 75
0.020764141982551804 -0.039916090611861896 -0.2775800859828463 118 103 74
0.020713206086782197 -0.03995361236906017 -0.279165043065256 120 106 79
0.020578065194309575 -0.03959646957174785 -0.2808621663396451 120 106 79
0.020725584663844283 -0.040565339568150796 -0.28218934776638493 119 105 78
0.020801902348438393 -0.04120022155435711 -0.28360989787305885 123 109 81
0.020719689203778542 -0.0410920820567208 -0.2852416453346278 117 103 74
0.02056129189232844 -0.040627359175212374 -0.28697755440163497 117 103 74
0.020469991825223546 -0.04047752172005667 -0.2886263047072103 119 105 76
0.020309988888373775 -0.040006350413565456 -0.2903702674311686 122 108 78
0.020329881735134166 -0.04037801039673394 -0.29187277950426754 123 109 80
0.02029772178286993 -0.040506163779030074 -0.29344716750801253 126 112 83
0.020141458850849864 -0.04005385652038641 -0.2951934787989617 115 101 73
0.02024554129691372 -0.040820050252113244 -0.29658352316321096 114 100 73
0.020103547331809135 -0.040435299986937207 -0.2983145565438569 125 110 80
0.019876049771185993 -0.03965130740405165 -0.3001677712435402 137 121 92
0.01967913055452507 -0.039011003408866596 -0.301982282560225 151 136 108
0.019411804790107436 -0.03804236075941096 -0.30389965891320525 145 129 103
0.018721651263331328 -0.03509918730690878 -0.30642003563550213 132 116 90
0.01821605811821399 -0.03301993948838129 -0.30868852842502753 140 125 97
0.017786493500291847 -0.03129715149250159 -0.3108563944131222 142 127 99
0.017131740897170847 -0.028524436651767668 -0.31335452670937197 137 123 95
0.016170355955038428 -0.02432256125522428 -0.3163050985987962 137 126 108
0.015206763574878667 -0.020112997393754842 -0.31927320608123755 137 131 123
0.013982793707782326 -0.014691575044261496 -0.32263492819954454 181 180 177
-0.014077220085092282 0.09293290322373512 -0.49121636345521774 188 188 192
-0.016749886238403774 0.10481373189057494 -0.49832316524777426 185 185 189
-0.016547688892336446 0.10354549225297005 -0.49981418835541125 181 180 184
-0.01629316466155413 0.10203842504805091 -0.5012002199391289 168 167 171
-0.01609771424885159 0.10080168578291784 -0.5027009012504777 153 153 157
-0.016370416463768536 0.10170342242150379 -0.5051312512216289 136 137 140
-0.016251591388358647 0.1008165032062541 -0.5067851792367895 122 122 126
-0.015616021140832485 0.09757091203768678 -0.5074032221335001 104 105 106
-0.015756130689347836 0.0978664438282422 -0.509573201054168 101 102 102
-0.015614553568037731 0.09687632154698303 -0.5111779601265725 100 101 101
-0.01578341463718129 0.09730214314780763 -0.5134107697580538 95 96 95
-0.01582759478120918 0.09715882212392493 -0.5153938554874568 96 96 94
-0.015927373217444668 0.09726856640144224 -0.5174923048697926 98 99 96
-0.01617445998378201 0.09804904428208322 -0.519895125973766 101 102 99
-0.016387878755404095 0.09867526060909063 -0.5222336662272808 99 100 98
-0.016531894093222893 0.09898461058183447 -0.5244334948457602 100 100 100
-0.01667617325226444 0.09929454213565753 -0.5266372715855455 100 100 100
-0.016894777756887025 0.09994213085254092 -0.5289988259724496 102 102 102
-0.0171088274926771 0.10056817520475869 -0.5313553916611466 105 106 106
-0.01732337313669273 0.10119566634874796 -0.5337174369042297 112 113 113
-0.018297664474705592 0.10527713757174817 -0.5376786223040644 119 120 120
-0.01848217155616448 0.10576543354416712 -0.5399919003426504 125 126 126
-0.018629361556428435 0.10608340477768616 -0.5422303259391211 133 133 134
-0.018299117309059698 0.104231626815173 -0.5434595604194651 141 141 141
-0.018518705683262887 0.1048778002340911 -0.5458555217714155 145 145 146
-0.01873880722608095 0.10552547487374062 -0.5482571310322133 155 157 156
-0.01894883990399708 0.10612661337372292 -0.550641724750514 166 168 168
-0.019163701767814546 0.10674886139022235 -0.5530411240330552 173 175 177
-0.019376633300701898 0.10736153368710541 -0.5554408535596314 184 184 187
-0.019553200635528414 0.10780847255877157 -0.5577663123916634 190 190 192
-0.019714597778996187 0.10818591486960624 -0.5600627474965463 194 194 197
-0.019955584070823845 0.10892341877651765 -0.5625364201822174 199 200 204
-0.02010735524670071 0.10925578241288003 -0.5648198256108972 203 204 208
-0.020258078373529304 0.10958274626994924 -0.5671045128617933 204 205 209
-0.02043369401607459 0.11002178461138556 -0.5694475953346494 204 205 209
-0.014972218633333936 0.06499076029683554 -0.6688943573846681 61 60 56
-0.01504580437525073 0.06495479474020455 -0.6710839285494206 61 57 53
-0.012279452821329556 0.05192908690307599 -0.6677282507596337 66 59 53
-0.011655365705519852 0.0487952480693829 -0.6680434488855224 66 62 53
-0.010461711092007768 0.04313244950258682 -0.6668279597344606 65 61 52
-0.010231746403173356 0.04175288439358715 -0.6681786490461001 80 75 64
-0.009537128643265766 0.03831067511036221 -0.6682779637460905 88 81 68
-0.008227541310163886 0.032140605290433055 -0.6667097981510621 90 82 69
-0.008052712952651211 0.03100907452939375 -0.6681909736195082 90 81 70
-0.00793849686223208 0.030146649762755245 -0.6698351571234391 85 77 61
-0.007820167086284725 0.029266058963782787 -0.6714677399048892 83 76 57
-0.007413656927375056 0.02710808401925724 -0.6723138939690522 78 71 50
-0.007619828370048223 0.027666093246702467 -0.6748308111840388 86 78 56
-0.0074394048742554425 0.026510634100855468 -0.6762919260960092 110 97 75
-0.007435078291648786 0.026135306374901135 -0.678235978861795 106 91 70
-0.007415236027489863 0.025691050776398355 -0.6801385319873572 80 67 45
-0.007178654754746119 0.02428736250790381 -0.6814425785458663 49 38 19
-0.007218066153461836 0.02410518909732942 -0.6835099330381563 29 19 8
-0.007333191284624396 0.024257530651427633 -0.6857899065220688 23 14 7
-0.007531804286207554 0.024778436334299214 -0.6883059677987172 23 16 8
-0.007685961691684742 0.02510202760688604 -0.6907021465011972 35 27 18
-0.007885885515342021 0.02562715387503703 -0.6932305153100996 47 38 28
-0.008311204853176907 0.027147080331241608 -0.6963975063294705 47 39 30
-0.008128680293474952 0.025981424866509867 -0.697857737657015 20 18 13
-0.007965449066815095 0.024901207235556333 -0.6993710670857369 9 9 8
-0.00786682041474901 0.024106291457571205 -0.7010664848309908 8 7 7
-0.00896793626609231 0.028604077924099386 -0.7061747025116458 9 7 8
-0.008994931263062667 0.02836151072375559 -0.7082375923909573 11 9 10
-0.008488301027803957 0.025766055518835207 -0.7087758688053377 15 13 14
-0.007766032591764935 0.02222144140377247 -0.7086890187472953 20 19 17
-0.008059616654748768 0.023154248907698377 -0.711514035812619 31 31 24
-0.00745731176688403 0.020140177014383615 -0.7117611852134534 51 47 37
-0.0065576991209153265 0.01581857363650377 -0.7111403756735929 65 59 49
-0.005846605823365422 0.01232906398425515 -0.7110534349269806 75 67 58
-0.005390183318607529 0.009961901937296458 -0.7116971862370761 84 75 66
-0.004894319060048932 0.007422316602022638 -0.7122200920636266 92 82 68
-0.004750349183659075 0.006431229859861165 -0.7137653727114657 98 87 71
-0.004442845108226005 0.004721464051912927 -0.714830327687662 106 94 77
-0.004456975841025543 0.004425670564214668 -0.71683726713402 111 97 78
-0.0042028439877437596 0.0029511653078564404 -0.7180551011527508 115 100 79
-0.0035412142975668887 -0.00031231579328072634 -0.7180659274301403 118 102 81
-0.003300891933581379 -0.0017246427282509025 -0.7193161386469219 125 108 83
-0.002992696204898046 -0.003434383320236767 -0.7203622312092157 149 131 99
-0.002572822945793349 -0.005633410068765665 -0.7210720723748862 161 142 107
-0.001955105148371647 -0.008699124494110866 -0.721185578786655 167 147 112
-0.0008130333250879612 -0.014062108118319289 -0.7197200145677544 170 152 116
-0.0007123875336692634 -0.01485784010071059 -0.7213653081085416 167 149 113
-0.0002180966324291586 -0.01737815821339414 -0.7218249973498265 166 148 114
2.2119724872607383e-05 -0.018784513383317547 -0.7230452832942609 163 144 110
0.00010234558462277055 -0.01948993909635574 -0.7247474375197235 153 135 99
0.0003655939571284919 -0.02099643574486837 -0.725894162143983 145 128 92
0.0007576460218792838 -0.023065976424564788 -0.7266460627900856 143 126 92
0.001229281257033553 -0.025482711601217373 -0.7271502257258798 142 126 91
0.0016908031186894448 -0.027854099986013348 -0.727679140623433 148 132 97
0.0018252828326709505 -0.028794899707846683 -0.729205171971474 143 125 91
0.0021264882881489866 -0.03046406519444883 -0.7302176747496917 144 126 93
0.0023690099487893856 -0.03187626631984522 -0.7314076572943164 139 121 89
0.002281441082058598 -0.03184664218677655 -0.7336155720570761 130 111 79
0.0037496998810943663 -0.038608884342446914 -0.7310039870003742 122 106 76
0.004253651342067184 -0.04115917698312946 -0.7313667630087048 135 119 89
0.004207962707406046 -0.041310613125116 -0.7334352511168067 150 132 99
0.004212654229941631 -0.041682125857727154 -0.7353484737794796 153 137 104
0.0031542298898876303 -0.03741950004379202 -0.7405924042750884 155 139 106
0.0036256285160265467 -0.039826848853293184 -0.741051425616288 156 140 107
0.003924888378621372 -0.041483174039158494 -0.7420460832838973 151 135 102
0.0040278754659643715 -0.04228413570881784 -0.7436567147133406 149 133 99
0.003978920018602318 -0.04242358603980034 -0.7457478173991988 143 127 93
0.003722374130131212 -0.041660024722972644 -0.7484996093233479 146 130 96
0.0037690698246811774 -0.04221669336319209 -0.7502925420126041 151 135 101
0.003897024801742331 -0.0431268661034141 -0.7518270128041578 150 134 100
0.003900066398479271 -0.04349385915716589 -0.7537600804440484 157 139 106
0.003986918178693712 -0.04422533142080895 -0.7554259018078615 163 144 109
0.0041155297428654425 -0.04513822376885629 -0.7569575331580526 166 146 111
0.004188486120134206 -0.045809277346444466 -0.7586677208620238 168 148 113
0.0042598530978800245 -0.04647346712098188 -0.760383241845315 159 139 104
0.004287982773096541 -0.046950046862283185 -0.7622389579516 156 136 101
0.00426588993417544 -0.04720890348308876 -0.7642585964038309 161 141 106
0.003964929838771239 -0.046258613981354474 -0.7671872865815437 165 145 110
0.003843898762709047 -0.046089569434413585 -0.7695354140771173 164 144 107
0.0037739782185987683 -0.046142657084318334 -0.7717197926774565 167 147 110
0.003931957820398027 -0.04718360825669696 -0.7731596515594747 166 146 109
0.004048103871489191 -0.04804315809786877 -0.7747358004016942 166 146 108
0.003991361626309829 -0.04815407614098746 -0.7768810115126105 161 142 103
0.003986717554013773 -0.048490906529096406 -0.7788564963831569 163 143 104
0.003817711922931191 -0.04811687395526118 -0.7813776281318676 165 146 106
0.003886109275873184 -0.04877040397920501 -0.7831150007336531 167 148 108
0.0038757023234736315 -0.049083264016290234 -0.7851148566809271 168 149 109
0.0038630444380803597 -0.04938668302895119 -0.7871238011936579 169 150 110
0.0038389280704690387 -0.049640888814098616 -0.7891726782592036 170 151 111
0.003804624105861694 -0.04985142234698908 -0.7912575126429545 171 152 112
0.0038439897736322476 -0.050380396396786015 -0.793096788746779 169 150 110
0.0038450660316426896 -0.05074424719838963 -0.7950658043777401 168 149 109
0.0036909378792302147 -0.05043869975443935 -0.797560282052551 168 149 108
0.003642432202618104 -0.05058943953502529 -0.7997012068882079 165 146 105
0.0036328998755386713 -0.050908623356255595 -0.8017121137960678 165 146 105
0.003552364430458553 -0.05092206157386678 -0.8039661094087913 163 144 103
0.00344823008175682 -0.050834322761847184 -0.8063033258219585 155 138 95
0.0034388757134013806 -0.05115538721552712 -0.8083197429872598 152 135 92
0.0033369399048908885 -0.05107811959312905 -0.8106549465101517 157 140 97
0.003141180787820677 -0.05059759424156693 -0.8133155052539768 162 145 104
0.0028769899465981436 -0.049823486730729005 -0.8162163395055702 166 148 108
0.002682277627215235 -0.04934927256474786 -0.8188832190970731 167 149 109
0.0023801980745887658 -0.04841427570279877 -0.8219261966579513 164 146 107
0.0020300702664701464 -0.04727394131541163 -0.8251422543044373 157 141 104
0.0018595143283511029 -0.0469064699675274 -0.8277413869804584 149 134 99
0.0016895613670422083 -0.04654236923481836 -0.830342706636852 144 129 97
0.001258531139026936 -0.045058108874982905 -0.8338601654435892 141 126 95
0.0011696580484356206 -0.04504395959890872 -0.836188370136328 138 123 93
0.0010113129953639582 -0.04473227779440547 -0.8387633167617006 137 123 94
0.00046244307979964594 -0.042746398141154496 -0.8427161148089217 133 121 94
5.2211012828748404e-05 -0.04135685588121085 -0.8461907021302807 124 115 93
-0.00046058857144805343 -0.039529234158840965 -0.850036131826426 106 100 82
-0.0010464372958875617 -0.0373904716855783 -0.8541504102482809 72 69 58
-0.0015102960545744643 -0.03577623118246981 -0.8578427702208878 48 46 36
-0.001976249290437035 -0.03415470863166231 -0.8615518397045251 43 40 31
-0.0024642201199275293 -0.032440648205092126 -0.865348765357536 60 57 48
-0.002978885053857183 -0.03061414520743644 -0.8692508361242766 86 83 76
-0.003496084895576651 -0.02877864704118216 -0.8731721315129941 106 106 99
-0.002431173647125112 -0.03370889045155395 -0.8714189327513961 122 121 117
-0.002461673518233773 -0.03395469152307762 -0.8735944634235304 137 136 132
-0.002554070073216008 -0.03393642629922955 -0.875995449334603 148 147 143
-0.0023903720660775896 -0.03501240325385163 -0.8774728539928514 158 157 153
-0.0009435883062962475 -0.04269146043940458 -0.8804774782409783 178 177 173
0.01670458305521471 -0.00694017470783409 -0.16404838697738816 177 178 173
0.017883939798951542 -0.012814430313050539 -0.16458829389458593 175 171 164
0.018748833493510454 -0.01719167275058154 -0.16536132506565934 106 98 83
0.019018986991178495 -0.018741421394738174 -0.1665958814903078 116 105 83
0.019342091505256124 -0.020542205067621118 -0.1677855222880984 120 105 80
0.019510104047752115 -0.021605916162246205 -0.16909693350913108 122 108 79
0.019634830707486617 -0.022463899540143044 -0.17044226466718443 118 103 72
0.0197952157250604 -0.02349099844552599 -0.17175769214493744 123 108 78
0.020074822407747578 -0.025083598337190205 -0.17297353543476757 120 105 75
0.02007333115253548 -0.02534220946232625 -0.17442056087811433 110 95 66
0.02013382032431326 -0.02589494606821799 -0.17581655148938705 118 103 74
0.02018381399889846 -0.02639794311771352 -0.17722154533515955 116 101 72
0.020241352084795057 -0.026936752637467164 -0.17862038579536366 104 88 59
0.02036049991340767 -0.027767568611684737 -0.1799665378467487 105 89 59
0.020554581731424854 -0.02895329932015543 -0.18124728148863933 112 95 64
0.020631290783520745 -0.029582774773488647 -0.18262865465102354 116 99 67
0.020732179730172804 -0.030326740319649846 -0.18398873274028463 127 110 77
0.020849457311793447 -0.031148222847810443 -0.18533393099073298 134 115 84
0.020991520706373726 -0.03208690826148992 -0.18665645060821534 128 110 80
0.02101793624535411 -0.03247818631657876 -0.1880817840867003 128 110 80
0.02105122043912458 -0.032902064393188435 -0.18950148971796427 127 109 78
0.021023257954781667 -0.03303636487657693 -0.19097742640860912 132 115 82
0.021007315285705534 -0.03322773599934652 -0.1924436352851835 126 108 75
0.02100328159496855 -0.0334756107320489 -0.19389998418772214 131 115 82
0.02097460218657242 -0.033607191809779266 -0.19538022640130803 127 111 80
0.02084955352749676 -0.03328369502179589 -0.19695199956379242 125 109 79
0.020732400667728496 -0.03299796580216184 -0.1985188950514835 129 112 80
0.02078507852619548 -0.03351468263393956 -0.19992702305262505 125 110 76
0.020867020063303376 -0.034169600508611474 -0.20130741748509562 111 96 64
0.02090564875746477 -0.03462005989716853 -0.20272935705026077 109 94 63
0.020944298150549292 -0.035070695129856916 -0.20415170194844998 117 101 69
0.0210282789778263 -0.035735258828080166 -0.2055302455860941 118 101 69
0.02106948275391576 -0.036198042933896675 -0.20695063498093322 124 107 75
0.021064259602558942 -0.036441993157193736 -0.20841732317732248 116 100 69
0.020970729865194805 -0.036269863375776014 -0.2099729131171501 107 90 60
0.020929885853162473 -0.036346421246851106 -0.21147788284304453 104 87 59
0.02085669439126372 -0.03627084748309737 -0.21301695255317532 104 87 59
0.020809423422475326 -0.0363177149273715 -0.2145316134598573 103 87 57
0.020853067457392814 -0.03679298936699313 -0.21595494653112415 103 88 59
0.020827750174337356 -0.03694367499518751 -0.21744956028485277 101 89 62
0.020846513518976227 -0.037302064235052175 -0.218899828924731 106 93 64
0.020855229756955494 -0.03761330580165732 -0.22036125690267053 98 84 56
0.020791813078891205 -0.03758537548872476 -0.22189912169605253 100 86 62
0.02091495653740389 -0.038435152985458174 -0.22324198608009807 101 87 61
0.020848320582064053 -0.038392515478868273 -0.22478560205032705 98 84 57
0.02083613469486693 -0.03860615660537774 -0.22627289161699596 92 78 51
0.0209029900203426 -0.03919143819516097 -0.22767634494448766 108 94 68
0.02082869294099578 -0.03911358861359127 -0.22923249150436786 104 91 65
0.020803128574805145 -0.03926498443878006 -0.2307375539312013 101 89 64
0.020800890915987497 -0.03952615057647415 -0.23221837231850842 103 91 67
0.020749403065454534 -0.03955629712343975 -0.23375440939875783 100 88 63
0.020771387468154517 -0.03993156244300256 -0.23521068187067423 95 83 58
0.02084008450619229 -0.04052612235279229 -0.23661554937098997 94 82 57
0.020673141272657965 -0.0400153660241304 -0.23828466707403784 102 90 65
0.02064391701177396 -0.04015102707389955 -0.23980162992857668 99 86 61
0.02064196186501634 -0.04041478052735013 -0.2412889997009897 94 80 54
0.02060720334586054 -0.04052496381733846 -0.24281479028527642 97 83 57
0.02057243971025478 -0.04063538456632409 -0.24434200939109846 102 88 62
0.020660880510151358 -0.0413232290971026 -0.24572839655578382 97 85 59
0.020661809439787307 -0.04160118314389279 -0.24721619041830345 95 83 57
0.020531402831538065 -0.041264381546446724 -0.2488583349661168 94 82 56
0.02054918366055246 -0.041621728042082536 -0.25032911021791315 93 82 57
0.020438917873642964 -0.04137999230810914 -0.2519518870676641 89 78 53
0.020419568086489016 -0.04156405006537475 -0.25346908759414016 83 73 48
0.02055719170545426 -0.04248252911745926 -0.25479995589521676 86 75 51
0.020555316675959938 -0.04274855510115548 -0.2562975572597874 98 86 62
0.02049042592267519 -0.04272018180778928 -0.25787229091548824 106 94 70
0.02045740246712977 -0.04284107844097033 -0.2594101465175565 100 88 64
0.02029080853302727 -0.042338158890585315 -0.26111260201629993 89 79 52
0.020216778884158154 -0.04226819971682066 -0.2627045597568498 104 93 70
0.020167640049396522 -0.04231483718150116 -0.26426774189219815 105 94 74
0.020090855170821844 -0.04223270842559652 -0.26586689437198735 102 91 69
0.02002779221372257 -0.04221499349427449 -0.26745092282427096 102 91 70
0.019977484221470672 -0.04225712979817756 -0.269020765266557 100 89 68
0.0199473505541148 -0.04239368017285254 -0.27056680037655867 100 89 68
0.019884706973466438 -0.04237887249036797 -0.2721554741962757 101 90 68
0.019768037513268964 -0.04211251349547999 -0.27381489587219976 99 87 64
0.01979231100442476 -0.042503573347308074 -0.27529612074074755 111 98 72
0.020089912819490987 -0.04416842233167403 -0.27642560976812197 119 105 78
0.019998765411676236 -0.04402168151016422 -0.27805587767211276 115 101 74
0.019907504635759674 -0.04387482036424479 -0.27968851170572717 121 107 80
0.019816081924050474 -0.04372761357875186 -0.2813235799430404 118 104 77
0.01972454630386333 -0.043580290373504554 -0.2829610233104808 119 105 77
0.019632873614183345 -0.04343273913440638 -0.28460087825039293 109 95 66
0.01947707621108364 -0.04298726681134596 -0.28632825187079697 103 89 60
0.019354896867729076 -0.04269872730532907 -0.288013794446558 121 107 78
0.019396240944129537 -0.043171037414061295 -0.2894822830819216 123 109 81
0.01946041516634057 -0.0437495548736592 -0.2909203708464455 118 104 77
0.01935324979636673 -0.04353181715605524 -0.2925911217865977 124 110 83
0.01935832678906436 -0.043836020759855446 -0.29411122553240665 118 104 77
0.019125651840474683 -0.04303607169359347 -0.2959581805990672 118 104 76
0.019099484130902303 -0.043195826315081134 -0.29752480640899664 125 111 81
0.019066333025184404 -0.04332341077422969 -0.2991024567313072 128 112 87
0.018874624344234207 -0.04271538295772606 -0.30090217138937825 139 126 100
0.018478633637474207 -0.04116018773706766 -0.30299113931098837 138 125 98
0.017805891341234708 -0.03832244185720221 -0.30547538452185075 135 122 95
0.01742579762167244 -0.03684367708377187 -0.3075566608472767 121 107 81
0.017035299698604567 -0.03531782115648613 -0.3096589195732297 135 121 93
0.01632072804825 -0.03229112240479953 -0.31222955678243347 143 128 98
0.015213147779409481 -0.027445396869520383 -0.31537400235237883 134 122 98
0.014245891079640787 -0.02325267110035943 -0.3183327083108357 119 109 96
0.013066313294521778 -0.018079318172761247 -0.32161280453846086 161 157 151
0.011737703761433228 -0.012219158910061506 -0.3251267200278224 179 179 180
-0.007344376853600711 0.071029434509928 -0.380588554810385 180 181 183
-0.008603796242852887 0.0765126818090592 -0.38430981985028656 180 181 183
-0.018600431989031337 0.10590404570841563 -0.4907490550144409 188 188 190
-0.01823700362354333 0.10390696595001053 -0.49193238037384845 185 185 187
-0.01794266104644679 0.10222438906502959 -0.4932451879651397 171 171 173
-0.01766829875459662 0.10063307955422893 -0.49459375577480835 153 152 153
-0.017427222862741384 0.09919335697802892 -0.4960044077195405 133 132 132
-0.017103812325927212 0.09738042209464748 -0.49725201741336705 117 116 115
-0.017000517056017468 0.09656666490082008 -0.49892776091273827 101 99 98
-0.016782242474341555 0.09523150008277728 -0.5003770219645767 95 92 90
-0.016607478756217528 0.09409395461164988 -0.5019103214220969 90 87 84
-0.017013837214150465 0.09559058446840407 -0.5045942531345784 86 83 80
-0.016954862760438213 0.09497739448568102 -0.5063595762735473 81 78 75
-0.016808425859185246 0.09396793735218362 -0.507950675367648 78 76 72
-0.0168052952730134 0.09360760319787961 -0.5098280911795474 75 72 68
-0.016864431500813584 0.09352893845503008 -0.5118319555171896 75 72 68
-0.016979142840678016 0.09370140822463649 -0.5139501179576027 72 72 67
-0.017094048588329698 0.09387421856913053 -0.5160716074381048 74 73 69
-0.017243991667138164 0.09420496919281926 -0.5182672647286262 77 76 72
-0.017376807124613772 0.09445763704325325 -0.5204314294094124 77 76 73
-0.017517767056863955 0.09474653301767821 -0.5226154753970864 76 75 73
-0.017660198212204728 0.09504146624106621 -0.5248058718280677 74 73 71
-0.017834398662610364 0.09547931196951531 -0.5270651301320001 74 73 71
-0.018026356395570264 0.09599665670070956 -0.5293649528047097 75 75 73
-0.01869057239276451 0.09864557232102258 -0.532649559735328 78 78 77
-0.018747064873146604 0.0985493174431637 -0.5346786970911539 82 82 81
-0.01873652344236834 0.09815018527941519 -0.5365697651025455 85 85 83
-0.018811575556937174 0.09813696818686338 -0.5386415899083614 86 86 84
-0.019918691861794124 0.10277770359839355 -0.5428891702786046 88 88 87
-0.02010892158666463 0.10328149203456485 -0.5452167165119405 91 91 89
-0.020196122829960264 0.10332017015181433 -0.5473298781422749 96 98 94
-0.020311019057944427 0.10348316089321624 -0.5495045494419221 102 104 101
-0.020536150699202477 0.1041421473079121 -0.5519175779311264 110 112 110
-0.020742047571544145 0.1047136714295877 -0.5542940056811081 121 122 122
-0.020957007008771282 0.10532519656098996 -0.5566942479601583 131 131 130
-0.021235915821362666 0.10622369541666254 -0.5592369091347662 142 142 142
-0.02142668240803472 0.10672464698023593 -0.5615941984888518 160 161 163
-0.02160306452375956 0.10716014458474635 -0.5639243690865663 180 181 184
-0.0216822538040157 0.10715791452701154 -0.5660466479349391 190 191 193
-0.02188370682313919 0.107704796489511 -0.5684387566953761 196 197 199
-0.022100968519446262 0.10832192746171454 -0.570869841495327 202 203 205
-0.022236616954633276 0.10857159995216495 -0.5731257959568279 204 205 209
-0.018056237064627514 0.07103683612726358 -0.6659854250208175 74 71 67
-0.017459825767710907 0.0680339885320744 -0.6664335957774783 74 69 66
-0.01682059069801605 0.0648433852415844 -0.6667623617337323 66 64 59
-0.01134271278977085 0.03884993363159828 -0.6622432384189887 74 68 57
-0.010944168006396415 0.036733103006283324 -0.6631424726338158 81 74 62
-0.010326118388133992 0.0336496238697524 -0.6634528245830857 93 84 72
-0.00984412404308782 0.031167152132815817 -0.6641181072542008 98 88 74
-0.009322179418135762 0.02850981804213898 -0.6646703927099881 102 90 76
-0.009144797012576589 0.027371001690578295 -0.6661408282113284 112 100 85
-0.008967614173252425 0.026233318869716193 -0.6676104131689816 109 97 81
-0.00889569238301234 0.02555911159952845 -0.669362769526712 104 92 76
-0.008792348346430195 0.02474662566633884 -0.6710302957097711 90 78 61
-0.00880508813325661 0.024444703951616437 -0.6730127428084934 87 75 58
-0.008734417972229104 0.023775792108137017 -0.6747696349139825 97 84 67
-0.008595314714690445 0.022806069045074262 -0.6763399308715607 106 92 71
-0.008516015469487624 0.02209924684462311 -0.678073182598094 104 89 68
-0.00835569334424438 0.021036536557745622 -0.6795840729703836 86 72 50
-0.00837952957358963 0.020782623787183485 -0.681600954092962 69 57 39
-0.008499917224527358 0.020952187343895312 -0.6838861870295825 47 37 23
-0.00881175480242638 0.021961216405155748 -0.6867048215536531 31 24 11
-0.009087648327177837 0.022811438126543127 -0.6894298452961375 30 22 11
-0.0093986469452004 0.023814557290173094 -0.6922582841792914 39 30 19
-0.009730730389480441 0.024908963101791914 -0.6951518109178473 39 33 22
-0.009895234846604026 0.025267809290619198 -0.6975825947438462 17 15 10
-0.009965230063326037 0.025211913119516316 -0.6997519166494269 9 8 8
-0.009996712425029405 0.024986904716829128 -0.7018152536303635 9 6 7
-0.010316304656738502 0.02602285718045047 -0.7046940156168773 7 5 6
-0.009874913116058148 0.023727252479311844 -0.7054243571468766 10 8 9
-0.009930254560567738 0.023605861946018214 -0.7075596041326419 16 14 15
-0.009175708871735848 0.019941977518001974 -0.7073911686919385 21 20 18
-0.009129592454630936 0.01937734098586502 -0.7092349037086932 31 31 24
-0.00894965860333416 0.01822771169716267 -0.7106961921917481 49 45 35
-0.00883185964519008 0.01734982879533295 -0.7123344122070097 58 52 42
-0.008041614670413276 0.013534928544942648 -0.7120364890324786 73 66 57
-0.00780620610451635 0.012144662741884749 -0.7133290275663109 84 76 66
-0.00698104144491353 0.008180593912402834 -0.7129123383858572 90 81 68
-0.006703914386881643 0.006609995660707579 -0.7140745291499713 95 85 71
-0.0063560766889235315 0.0047315047668034516 -0.7150279695362141 103 92 78
-0.006081685615178023 0.0031740363007702888 -0.7161916170555371 106 94 77
-0.005345806037131209 -0.0003945751501099881 -0.716002125893691 109 96 76
-0.005189409445539944 -0.0014361101559038913 -0.7175023894456064 118 103 80
-0.004954104900727313 -0.002821184750412653 -0.718769450730908 123 108 81
-0.0047276791649776065 -0.004167163909622906 -0.7200603579131695 160 144 111
-0.004422223875234166 -0.005856779279551805 -0.7211153483428454 181 162 126
-0.003884572462067762 -0.008556247082979668 -0.7214783773251198 184 165 129
-0.003396916929665414 -0.011036901467391086 -0.7219829177677357 168 150 114
-0.0027819881198027155 -0.01406989605498249 -0.7221017068148997 166 148 112
-0.0021645629818188225 -0.01711220527948898 -0.7222046642298465 166 147 114
-0.0016891937308324487 -0.019535585423353735 -0.7227249250257939 153 134 101
-0.0015813787955268124 -0.020360957146423997 -0.7243434367230961 142 123 90
-0.0010850927262216342 -0.022873447522704288 -0.7247912431083323 140 122 88
-0.0007070698804333975 -0.024871279775110916 -0.7255897666502109 142 125 91
-0.00023146664241767423 -0.027291778350227225 -0.7260881117550704 146 127 92
0.00022261799211069355 -0.029617773405906322 -0.7266455982048305 148 129 93
0.00047420811294394266 -0.031064413159106963 -0.7278137205588284 139 121 85
0.0007209536620143703 -0.03248956143254084 -0.728993984883969 140 121 86
0.000992453422836874 -0.03402153083193282 -0.7300959180644321 143 124 91
0.00086475030477174 -0.03382325005090542 -0.7324198140603467 141 124 91
0.0029434517221367043 -0.043182479151456454 -0.7279592687756069 127 110 81
0.002813248001672243 -0.04297138268149869 -0.7302800585700596 134 117 88
0.002619035106736646 -0.04248385418760878 -0.7328022256529125 147 131 98
0.0026322375946839574 -0.04289463683187128 -0.7346857835214378 150 134 101
0.0029087343548358513 -0.044444523267932495 -0.7357520619158253 156 140 107
0.0028768219192021674 -0.04466025955341499 -0.7377764027792677 161 145 112
0.0025526479258301954 -0.04361300780717095 -0.7407157667191686 158 142 109
0.0025885058127679134 -0.04412270748924407 -0.7425339083552733 146 129 98
0.0026031389986647946 -0.044540868657616 -0.7444194944851439 137 120 88
0.0026857697071397957 -0.04525286324500333 -0.7460921199260829 142 126 93
0.00270655136851939 -0.045697880842357375 -0.7479600137087143 145 130 97
0.002690393155374546 -0.0459836844519923 -0.7499458408966713 142 127 94
0.002738867990260678 -0.0465485981299075 -0.751728239697734 139 123 90
0.002805546102074133 -0.047192117596918604 -0.7534533291778218 151 132 98
0.002828756820645678 -0.04764831302521058 -0.7553173228575701 163 143 108
0.0029534372603653436 -0.04854195577974579 -0.7568579338216791 166 146 111
0.0030418630085503884 -0.04927930250968282 -0.7585140989602395 166 146 111
0.003086203893905945 -0.04982679520203298 -0.760311854372788 163 143 108
0.003107735776491323 -0.05027621969983853 -0.7621837382357024 156 136 101
0.0031729395993499165 -0.050913769514003726 -0.7639156276935211 157 137 102
0.00296842814262039 -0.05039109704053635 -0.7665209752854953 161 141 104
0.0027061060524016106 -0.04962067891950886 -0.7693186317850547 162 142 105
0.0027628839947565972 -0.05022307471647042 -0.7710837461049114 161 141 104
0.0028011007992700954 -0.05074579105306959 -0.7729098629919099 165 145 106
0.002794106969435696 -0.05107442712770663 -0.7748845704868297 165 146 105
0.0029244679862394443 -0.05199319876040234 -0.7764105562736846 163 144 102
0.0026504961896871015 -0.05117606460276192 -0.7792644251607236 162 143 103
0.0028198960439094964 -0.05226270471985667 -0.7806636421393192 164 145 105
0.002821298169241933 -0.052628394343844725 -0.7826162589015189 162 143 103
0.002714781166627149 -0.05253153121788065 -0.7849274980659156 165 146 106
0.002787122552122559 -0.05320199903939116 -0.7866483245225381 169 150 110
0.002750281167777549 -0.05340461027422344 -0.7887325834640815 171 152 112
0.0027480585461684345 -0.053755893772478164 -0.7907033942115554 171 152 112
0.0027186699806215284 -0.053991104686569646 -0.792766457322755 173 154 113
0.002645591066141581 -0.05403962580456059 -0.7949778170646352 173 154 112
0.0025724033252629633 -0.05408815882303611 -0.797192141444415 172 153 110
0.002499106995722186 -0.05413670576164545 -0.7994094351175275 169 150 108
0.00239751374242355 -0.05406472236221119 -0.8017248603553024 167 148 106
0.002213648885349591 -0.05364159978794103 -0.8043217637065326 161 144 101
0.002253727389646118 -0.05417629256677278 -0.8061634445842505 154 137 94
0.0021668821621460693 -0.05416891869512208 -0.808437468325392 153 136 93
0.0020136241442349975 -0.05387845861573895 -0.8109407079305941 156 138 97
0.0017280659831176506 -0.053023948844569346 -0.8138999292743676 162 144 103
0.0014326742159481015 -0.05212859995637234 -0.8168989502105968 167 150 106
0.0011809505390909664 -0.05142068818638787 -0.8197543343523431 168 151 108
0.0010331589561105858 -0.05115700251805791 -0.8222576095125885 165 148 107
0.0009704044670299089 -0.051256525489045635 -0.8244713936006435 159 142 105
0.0008702253859578513 -0.051197024154044535 -0.826817059473352 152 137 103
0.0007459935164028236 -0.05103563045546672 -0.8292491867057267 146 130 97
0.0005429473998933565 -0.050539265489593754 -0.8319586455985257 141 125 93
0.00026088477447734626 -0.0497074283161969 -0.8349480998178634 140 125 94
-0.00014582460824352772 -0.04834631322169819 -0.8383788153713392 138 124 95
-0.0006732711417283682 -0.04647312087397959 -0.8422402147714049 132 119 92
-0.001132237802301872 -0.044892990304139235 -0.8458716013221967 123 114 91
-0.0018215039500317498 -0.042335600775446736 -0.8503217743930693 103 97 81
-0.0022694804035228305 -0.04080585410228543 -0.8539344815742775 68 65 51
-0.0027194084316470857 -0.039269454177102425 -0.8575629869325155 44 42 32
-0.003171329588869093 -0.03772623526438801 -0.8612074958771295 41 38 28
-0.0036772965697673687 -0.035955267866820795 -0.8650528123457197 54 52 42
-0.00430241191246411 -0.033680570208548144 -0.8693318984270886 84 84 75
-0.004832707756156768 -0.031810234470907084 -0.8732847677796293 105 104 99
-0.004587346596207076 -0.03323055138658404 -0.8744756308148909 123 122 118
-0.0039849885901891285 -0.03616349507623684 -0.8743849434296291 138 137 133
-0.003917371696946642 -0.03682922332800559 -0.8762058712502544 149 148 144
0.015730162468913608 -0.009455310094727706 -0.16212182508492343 177 178 174
0.016722957035404995 -0.014413125643418859 -0.16281444622782834 176 177 171
0.017187577016473936 -0.016875366818425677 -0.1639045541745367 158 153 141
0.017794351570287126 -0.020007582645645665 -0.1648785553217875 118 106 86
0.018200154591245042 -0.022190263698984435 -0.16600399781402797 126 113 86
0.018453569341956244 -0.023653302681837095 -0.1672461609455472 122 107 79
0.018509203871126728 -0.024183174133568866 -0.16864431351920006 112 99 71
0.01882597962914073 -0.025944314616731738 -0.16983192655926832 111 98 73
0.01898634282449521 -0.026967598716077595 -0.17114360384938918 120 105 81
0.019456602945467347 -0.029451037365986428 -0.17220006503903534 124 110 83
0.01962580079456066 -0.03051514609504446 -0.17350014121970833 120 105 77
0.019774766482700393 -0.03148372488981206 -0.17481579450700824 115 99 72
0.019908214726942992 -0.03237904693515452 -0.17614345841187737 117 102 73
0.01994605847956072 -0.03282414545721263 -0.17755115319206474 117 101 72
0.01943229653203287 -0.03067321213207478 -0.1794292616390179 119 102 72
0.01933985555973057 -0.030506103198918444 -0.18095320885501928 121 103 73
0.019472322259187037 -0.03139736528074339 -0.18228472735206908 124 107 74
0.019657523721848553 -0.032536483940414446 -0.18356949351373036 122 103 71
0.019801625069224837 -0.03348208892537626 -0.18488886004620134 120 102 71
0.01998626880656091 -0.034618085878531164 -0.18617142206853535 125 108 76
0.019896501653329776 -0.03446427903610034 -0.1876969627315821 128 109 76
0.01993443463867834 -0.0349108011764649 -0.18910999442143894 132 113 80
0.019893740753497896 -0.03498810232729245 -0.1905945133545866 132 112 81
0.019939697423870324 -0.03547255299471598 -0.19200160043508008 128 108 76
0.01994984798936963 -0.035788973026716596 -0.1934418350994712 118 100 67
0.019897693764803326 -0.035813126843765475 -0.19494038099539798 128 110 78
0.019741420089639975 -0.035349043499144424 -0.1965373320320121 135 118 85
0.019620853168839776 -0.03505300249100847 -0.1981038050749166 129 113 80
0.019690906907986278 -0.035651364654955504 -0.19949305494673314 120 105 71
0.019656013771558623 -0.035757693116634556 -0.20098194189271584 127 112 79
0.019624633309261997 -0.03588074191405368 -0.2024688502331363 119 104 72
0.019899773452297452 -0.03744039661248702 -0.2036621168990395 118 102 70
0.019901935876247598 -0.03772071134410388 -0.20511719682612956 118 101 70
0.01991032804876236 -0.03803037009532109 -0.20656709795246087 122 104 74
0.01995456799890697 -0.03850803318737439 -0.20798261638695628 109 92 63
0.01993146936152787 -0.03867053793776423 -0.20946504557170875 115 99 69
0.019917052882466653 -0.03887390293338346 -0.21094006648303823 120 104 73
0.019884081312264434 -0.038990660795794774 -0.21243478922262476 116 100 68
0.01980739419736741 -0.03890319068274293 -0.21397494365680883 101 85 53
0.019802552354082924 -0.03915205034505636 -0.215444136608056 91 75 47
0.01980049657635942 -0.0394141197934535 -0.2169114803707328 83 67 42
0.01982063103277737 -0.039780081726075986 -0.21835697797798556 106 91 63
0.019854204293649834 -0.04020896281260615 -0.21978924515554288 100 86 56
0.01988780150251069 -0.04063804734514128 -0.22122198129037376 96 82 56
0.019895869952997455 -0.04094799851813614 -0.22268195244596758 113 99 72
0.019822350357035126 -0.04087716892166517 -0.22422875301391404 119 104 77
0.019814652006002346 -0.04111393180081021 -0.22570764594015433 110 96 67
0.019900773222227258 -0.041788702152990416 -0.2270874514930106 108 96 66
0.019830164609091976 -0.041732238635267954 -0.22863536183213723 107 95 67
0.019755551752798528 -0.04165744589047133 -0.23018947002501353 109 96 69
0.019705692405135554 -0.04169843321031404 -0.2317185968429451 106 94 66
0.019693558788213078 -0.04191558217251025 -0.23320806692962814 100 87 61
0.019748792419894537 -0.04244689692714567 -0.23462452125516067 105 92 65
0.019770501758481825 -0.04282205449826455 -0.23607829598459723 110 97 70
0.01965720566383527 -0.042568480385746725 -0.23768305246608795 113 100 73
0.019633198113617474 -0.04273115522868967 -0.2391902445404024 106 94 67
0.019608310735825918 -0.042889968672116884 -0.24069969354092918 102 89 62
0.019565711918465255 -0.0429665847710516 -0.2422304941373899 103 90 63
0.01955409366957321 -0.043187636555582026 -0.24372749238123242 98 85 58
0.01952862604949511 -0.04334446811759781 -0.2452414753588016 101 88 63
0.019521990650554565 -0.043589120167997104 -0.2467350298854464 94 82 58
0.019493328683047498 -0.043731555365562544 -0.24825517388789942 97 85 60
0.019549994610480292 -0.044270854440372945 -0.2496771131621464 103 92 66
0.01954912956244375 -0.04454284936830194 -0.25116674860094884 99 88 61
0.019562660749099344 -0.04488190379139655 -0.25264036516699667 92 81 55
0.019566674144930928 -0.0451768972600486 -0.2541260507428532 87 76 51
0.01955952523100342 -0.0454202293788772 -0.2556259587114994 94 82 58
0.019486644909158003 -0.04535863380844783 -0.25720578932620397 101 89 65
0.019500338377330263 -0.04569916194575371 -0.25868309653087235 98 86 62
0.01938461154397094 -0.045439390007298394 -0.2603181974788948 97 85 60
0.019376679460647882 -0.04568006218779723 -0.2618243063229119 93 80 57
0.019314067168624695 -0.04566737982460565 -0.26339855472163876 93 80 57
0.019171281149564904 -0.045283364650029224 -0.2650734828817689 97 85 62
0.019065228901586455 -0.04507012664204323 -0.266705738693951 101 90 68
0.01896771098190493 -0.04489687333314469 -0.2683297425346796 105 93 72
0.018898481938879424 -0.0448550771822041 -0.26992056453264207 105 94 72
0.01871870367716122 -0.04430170206422266 -0.271652589561528 106 94 73
0.0188337137558332 -0.04511369220719792 -0.27301455191331897 112 99 77
0.018811843500115326 -0.04529205199795758 -0.2745502646586062 122 107 84
0.018956067516634402 -0.046239174495344676 -0.2758745972847211 109 94 70
0.018773592524671506 -0.04567486979726702 -0.2776184255247958 98 85 60
0.018789779595697227 -0.04602992633720812 -0.27910866801505035 112 98 71
0.018728431835268164 -0.046026655470009496 -0.2807004998306613 121 107 78
0.01866702311891571 -0.04602343723973319 -0.28229421472367455 112 99 70
0.018653676012115122 -0.04624263755284896 -0.2838265844727025 97 83 55
0.018567622991887238 -0.046126183340886875 -0.2854561366424144 109 95 67
0.018490917925699492 -0.04605329806002277 -0.2870754218967788 124 110 82
0.018306635225124376 -0.04548409503857688 -0.28884025782841627 121 107 79
0.018388112215889107 -0.046142230272618295 -0.29025218809480674 119 106 76
0.018507068706372518 -0.046973294380924284 -0.29161348638212514 122 108 79
0.018498831828586505 -0.04721746232549742 -0.29314644516009875 116 102 74
0.018096768954370162 -0.04564549458205609 -0.29521661774400193 125 111 83
0.01806039621173701 -0.04576083636816701 -0.29679293374239857 130 115 85
0.017941170744081757 -0.0454945418020264 -0.29848464389895163 127 112 85
0.017808225085769538 -0.04516550476257973 -0.3001979196016101 127 114 87
0.01737009810322079 -0.04343101600548352 -0.30233772339880505 135 123 95
0.017004780792818443 -0.04203315831734332 -0.3043828894015389 118 108 80
0.016947137264196274 -0.04205308418945773 -0.30600264601260363 106 95 72
0.016315599776238855 -0.039431582630692394 -0.3084327234376558 111 98 74
0.015298205918472318 -0.0350361686459361 -0.31141865093725885 134 120 93
0.014397969859612059 -0.03118251895735541 -0.3142527952757853 126 113 89
0.013356084998659177 -0.02667983022970151 -0.3173026887136974 117 105 89
0.012304336657280424 -0.022134612541287957 -0.32038198285467245 140 134 125
0.01102664710850318 -0.01655361987420953 -0.32380268716780175 178 177 175
-0.010151672756704616 0.07563882870705013 -0.38220243299914247 178 178 181
-0.019941225157923688 0.1036671611459227 -0.48786934771185636 182 182 184
-0.01943974623344058 0.10105675423878818 -0.48879154992939955 164 164 163
-0.018986139481441136 0.0986633533620655 -0.4897993184827435 133 133 132
-0.01862083143339993 0.09666904510081625 -0.49097121143986555 108 107 106
-0.018190022519427203 0.09438022976225682 -0.49201302895146753 95 91 89
-0.01809865406141893 0.09362189974636193 -0.4937058313249467 87 82 79
-0.017654608332979924 0.09127482869185777 -0.49471456650377554 87 82 78
-0.017439792224808764 0.08996104329605528 -0.49616440967750014 91 86 81
-0.017569054182500238 0.09019669912909073 -0.49828467224113904 90 85 77
