ply
format ascii 1.0
element vertex 854
property float x
property float y
property float z
property float nx
property float ny
property float nz
property uchar diffuse_red
property uchar diffuse_green
property uchar diffuse_blue
property uchar class
property uchar detection
end_header
-0.1054 0.1462 -0.7579 -0.512 0.600 -0.615 28 23 15 0 0
-0.0980 0.1324 -0.7812 -0.259 0.817 0.516 36 27 19 0 0
-0.0984 0.1335 -0.7824 -0.082 0.845 0.528 38 30 19 0 0
-0.1049 0.1480 -0.7944 -0.169 0.650 0.741 100 86 54 0 0
-0.1132 0.1679 -0.8287 -0.341 0.938 0.069 132 111 70 0 0
-0.0275 -0.0570 -0.1619 -0.375 0.896 0.237 179 180 178 0 0
-0.0273 -0.0570 -0.1650 -0.560 0.800 0.213 173 170 162 0 0
-0.0278 -0.0559 -0.1664 -0.473 0.880 0.051 157 150 138 0 0
-0.0278 -0.0557 -0.1680 -0.678 0.730 0.088 144 131 118 0 0
-0.0283 -0.0546 -0.1694 -0.538 0.762 0.360 144 128 107 0 0
-0.0282 -0.0548 -0.1710 -0.787 0.564 0.250 146 130 103 0 0
-0.0350 -0.0381 -0.2026 -0.711 0.540 0.451 144 130 103 0 0
-0.0352 -0.0377 -0.2042 -0.618 0.714 0.330 146 130 99 0 0
-0.0368 -0.0342 -0.2050 -0.876 0.380 0.299 161 143 108 0 0
-0.0393 -0.0287 -0.2086 -0.346 0.245 0.906 158 139 109 0 0
-0.0412 -0.0246 -0.2124 -0.634 0.338 0.695 175 152 115 0 0
-0.0470 -0.0098 -0.2473 -0.089 0.940 0.330 89 80 68 0 0
-0.0629 0.0256 -0.2774 0.149 0.845 0.513 114 99 70 0 0
-0.0672 0.0355 -0.2903 -0.467 0.861 0.203 157 140 109 0 0
-0.0774 0.0615 -0.3542 -0.135 0.991 -0.020 73 60 34 0 0
-0.0772 0.0613 -0.3559 -0.368 0.913 -0.177 83 71 44 0 0
-0.0767 0.0603 -0.3580 -0.317 0.875 -0.366 87 75 51 0 0
-0.0768 0.0607 -0.3595 -0.099 0.944 -0.315 71 58 36 0 0
-0.0762 0.0617 -0.3909 -0.607 0.690 0.394 71 57 39 0 0
-0.0758 0.0612 -0.3928 -0.495 0.838 0.230 67 53 35 0 0
-0.0758 0.0612 -0.3945 -0.602 0.783 0.155 71 58 39 0 0
-0.0758 0.0621 -0.4078 -0.311 0.934 0.177 39 27 17 0 0
-0.0755 0.0631 -0.4264 -0.386 0.887 0.253 39 29 20 0 0
-0.0757 0.0634 -0.4279 -0.386 0.887 0.253 39 29 20 0 0
-0.0772 0.0697 -0.4688 -0.460 0.861 0.215 40 33 27 0 0
-0.1205 0.1613 -0.4867 0.109 0.974 0.198 101 91 65 0 0
-0.1207 0.1617 -0.4881 -0.036 0.824 0.566 99 89 61 0 0
-0.1210 0.1625 -0.4893 -0.216 0.740 0.637 109 97 66 0 0
-0.1215 0.1637 -0.4920 -0.187 0.898 0.399 126 112 78 0 0
-0.1209 0.1636 -0.5074 -0.282 0.959 0.012 139 124 85 0 0
-0.1209 0.1641 -0.5140 -0.064 0.997 0.036 151 136 96 0 0
-0.1142 0.1530 -0.5512 -0.080 0.847 -0.525 100 84 57 0 0
-0.0807 0.0898 -0.6393 -0.079 0.475 0.876 59 50 41 0 0
-0.0816 0.0917 -0.6398 -0.277 0.572 0.772 51 44 34 0 0
-0.0821 0.0929 -0.6410 -0.163 0.826 0.539 44 37 27 0 0
-0.0937 0.1175 -0.6464 0.090 0.623 0.777 84 74 56 0 0
-0.1013 0.1335 -0.6517 0.008 0.880 0.476 150 126 95 0 0
-0.1134 0.1636 -0.7160 -0.266 0.898 0.350 86 72 46 0 0
-0.1139 0.1651 -0.7207 -0.368 0.789 0.492 111 96 66 0 0
-0.1142 0.1658 -0.7221 -0.418 0.901 0.118 114 101 61 0 0
-0.1074 0.1535 -0.7456 -0.174 0.843 -0.510 100 86 58 0 0
-0.1056 0.1501 -0.7508 -0.086 0.880 -0.466 71 60 41 0 0
-0.1045 0.1480 -0.7547 -0.052 0.883 -0.467 60 52 37 0 0
-0.1031 0.1454 -0.7592 -0.233 0.767 -0.598 44 38 29 0 0
-0.1058 0.1540 -0.8000 -0.299 0.869 0.394 88 64 35 0 0
-0.1067 0.1562 -0.8021 -0.422 0.702 0.574 71 56 30 0 0
-0.1122 0.1723 -0.8644 0.015 0.982 0.187 93 86 78 0 0
-0.1122 0.1727 -0.8707 0.093 0.846 0.526 177 175 178 0 0
-0.1121 0.1726 -0.8730 0.067 0.994 0.083 185 183 185 0 0
-0.0261 -0.0562 -0.1618 -0.657 0.730 0.187 176 171 163 0 0
-0.0266 -0.0549 -0.1647 -0.401 0.915 0.044 141 127 102 0 0
-0.0268 -0.0542 -0.1662 -0.516 0.834 0.195 126 110 82 0 0
-0.0355 -0.0333 -0.2033 -0.847 0.250 0.469 135 118 91 0 0
-0.0362 -0.0320 -0.2046 -0.884 0.251 0.395 151 132 100 0 0
-0.0401 -0.0231 -0.2122 -0.667 0.364 0.650 191 173 132 0 0
-0.0456 -0.0091 -0.2472 -0.316 0.905 -0.284 62 55 48 0 0
-0.0531 0.0073 -0.2588 0.513 0.600 0.614 18 14 13 0 0
-0.0754 0.0596 -0.3355 -0.172 0.982 0.072 54 43 29 0 0
-0.0749 0.0603 -0.3582 -0.031 0.891 -0.454 78 66 43 0 0
-0.0743 0.0592 -0.3603 -0.025 0.865 -0.502 75 63 43 0 0
-0.0742 0.0611 -0.3880 -0.696 0.669 0.261 67 55 32 0 0
-0.0749 0.0627 -0.3907 -0.545 0.819 0.180 84 72 50 0 0
-0.0746 0.0621 -0.3927 -0.279 0.864 0.419 75 62 44 0 0
-0.0742 0.0625 -0.4079 -0.238 0.958 0.162 38 28 18 0 0
-0.0758 0.0689 -0.4483 -0.285 0.869 0.405 25 21 18 0 0
-0.0756 0.0687 -0.4519 -0.334 0.904 0.267 23 19 16 0 0
-0.1194 0.1644 -0.5124 -0.197 0.980 -0.030 143 127 92 0 0
-0.1128 0.1535 -0.5496 0.019 0.905 -0.425 117 100 72 0 0
-0.0880 0.1089 -0.6415 -0.306 0.950 -0.061 60 49 42 0 0
-0.0999 0.1344 -0.6515 -0.289 0.655 0.698 130 110 80 0 0
-0.1003 0.1354 -0.6527 -0.641 0.576 0.507 148 127 97 0 0
-0.1037 0.1465 -0.7073 -0.179 0.834 0.521 22 15 8 0 0
-0.1108 0.1617 -0.7123 -0.021 0.902 0.430 135 119 85 0 0
-0.1111 0.1623 -0.7137 -0.021 0.902 0.430 134 118 84 0 0
-0.0961 0.1366 -0.7829 -0.876 0.455 0.160 70 60 50 0 0
-0.0963 0.1370 -0.7846 -0.918 0.387 0.090 91 79 69 0 0
-0.1078 0.1638 -0.8211 -0.366 0.625 0.690 120 106 72 0 0
-0.1074 0.1630 -0.8241 -0.687 0.574 0.446 77 65 39 0 0
-0.1076 0.1636 -0.8257 -0.406 0.746 0.527 73 57 31 0 0
-0.1109 0.1741 -0.8722 -0.092 0.986 0.136 186 184 187 0 0
-0.0259 -0.0525 -0.1660 -0.784 0.591 0.191 128 112 78 0 0
-0.0289 -0.0448 -0.1867 -0.589 0.352 0.727 182 168 129 0 0
-0.0364 -0.0277 -0.2054 -0.829 0.142 0.541 159 139 106 0 0
-0.0392 -0.0214 -0.2119 -0.462 0.617 0.637 215 200 156 0 0
-0.0711 0.0565 -0.3667 -0.279 0.954 0.111 49 39 28 0 0
-0.0711 0.0568 -0.3682 -0.274 0.893 0.358 32 25 17 0 0
-0.0720 0.0639 -0.4370 -0.627 0.772 0.104 42 33 24 0 0
-0.0735 0.0676 -0.4440 -0.658 0.673 0.338 34 28 23 0 0
-0.0737 0.0680 -0.4455 -0.577 0.803 0.150 44 39 33 0 0
-0.0731 0.0678 -0.4580 -0.442 0.795 0.415 26 22 16 0 0
-0.1107 0.1528 -0.5504 -0.013 0.906 -0.422 102 86 60 0 0
-0.0612 0.0565 -0.6318 0.240 0.968 0.074 61 54 46 0 0
-0.0697 0.0745 -0.6352 -0.480 0.405 0.778 64 55 46 0 0
-0.0858 0.1082 -0.6425 0.173 0.427 0.887 58 47 39 0 0
-0.1002 0.1389 -0.6524 -0.210 0.774 0.597 126 107 74 0 0
-0.1009 0.1405 -0.6550 -0.093 0.863 0.497 141 125 91 0 0
-0.1012 0.1413 -0.6564 0.016 0.986 0.166 141 120 84 0 0
-0.1030 0.1449 -0.6574 -0.628 0.646 0.434 178 159 117 0 0
-0.1021 0.1469 -0.7075 -0.371 0.710 0.599 21 13 9 0 0
-0.0934 0.1348 -0.7831 -0.410 0.559 0.720 28 19 10 0 0
-0.0942 0.1367 -0.7855 -0.589 0.671 0.450 35 23 17 0 0
-0.0945 0.1375 -0.7870 -0.589 0.671 0.450 34 22 18 0 0
-0.0951 0.1387 -0.7880 -0.510 0.437 0.741 45 34 23 0 0
-0.1029 0.1555 -0.7955 -0.163 0.892 0.421 99 86 54 0 0
-0.1046 0.1608 -0.8184 -0.331 0.564 0.757 120 100 71 0 0
-0.1064 0.1646 -0.8210 -0.366 0.625 0.690 130 117 84 0 0
-0.1058 0.1637 -0.8241 -0.473 0.732 0.491 74 66 40 0 0
-0.1060 0.1642 -0.8258 -0.151 0.833 0.533 78 68 44 0 0
-0.1088 0.1735 -0.8713 0.171 0.957 0.233 179 177 180 0 0
-0.0254 -0.0501 -0.1640 -0.831 0.379 0.407 180 164 122 0 0
-0.0277 -0.0436 -0.1849 -0.419 0.802 0.426 163 148 114 0 0
-0.0276 -0.0437 -0.1865 -0.364 0.587 0.723 175 159 127 0 0
-0.0340 -0.0293 -0.2027 -0.773 0.615 0.158 189 174 132 0 0
-0.0349 -0.0273 -0.2038 -0.666 0.643 0.378 189 172 131 0 0
-0.0351 -0.0267 -0.2053 -0.558 0.737 0.382 175 156 120 0 0
-0.0357 -0.0255 -0.2066 -0.497 0.625 0.602 182 161 120 0 0
-0.0416 -0.0096 -0.2540 0.745 0.649 0.155 63 54 45 0 0
-0.0663 0.0454 -0.3037 0.211 0.931 0.298 118 102 75 0 0
-0.0665 0.0459 -0.3051 0.156 0.955 0.253 104 88 63 0 0
-0.0667 0.0463 -0.3066 0.156 0.955 0.253 87 71 49 0 0
-0.0656 0.0443 -0.3105 -0.259 0.892 0.371 60 45 29 0 0
-0.0720 0.0599 -0.3390 -0.178 0.966 0.189 50 40 25 0 0
-0.0709 0.0605 -0.3769 -0.259 0.878 0.402 30 21 11 0 0
-0.0709 0.0652 -0.4349 -0.291 0.951 -0.106 56 46 37 0 0
-0.0707 0.0649 -0.4368 -0.627 0.772 0.104 49 39 30 0 0
-0.0730 0.0698 -0.4414 -0.422 0.727 0.541 72 62 53 0 0
-0.0720 0.0691 -0.4559 -0.421 0.907 -0.001 30 25 21 0 0
-0.0592 0.0565 -0.6322 0.383 0.875 0.298 60 53 44 0 0
-0.0664 0.0714 -0.6338 -0.336 0.898 0.284 63 54 45 0 0
-0.0676 0.0740 -0.6361 0.118 0.678 0.726 68 59 50 0 0
-0.0692 0.0775 -0.6376 0.134 0.404 0.905 66 57 48 0 0
-0.0836 0.1076 -0.6434 -0.070 0.382 0.921 70 60 50 0 0
-0.0850 0.1105 -0.6452 -0.062 0.698 0.713 74 65 50 0 0
-0.0995 0.1411 -0.6531 -0.336 0.581 0.741 160 142 98 0 0
-0.0995 0.1413 -0.6549 -0.567 0.690 0.450 166 151 109 0 0
-0.0998 0.1421 -0.6563 -0.668 0.498 0.553 162 141 102 0 0
-0.1004 0.1432 -0.6573 -0.637 0.329 0.697 181 160 117 0 0
-0.1013 0.1567 -0.8036 -0.368 0.889 0.273 68 53 30 0 0
-0.1030 0.1612 -0.8186 -0.280 0.743 0.608 109 90 58 0 0
-0.1036 0.1626 -0.8194 -0.211 0.660 0.721 169 149 102 0 0
-0.1042 0.1643 -0.8242 -0.210 0.830 0.517 76 72 47 0 0
-0.1073 0.1726 -0.8507 -0.346 0.865 0.362 133 110 70 0 0
-0.0230 -0.0520 -0.1566 -0.511 0.853 -0.107 178 174 169 0 0
-0.0266 -0.0430 -0.1754 -0.324 0.834 0.446 147 132 98 0 0
-0.0312 -0.0320 -0.1954 -0.744 0.667 -0.043 164 143 102 0 0
-0.0315 -0.0313 -0.1968 -0.266 0.659 0.704 177 156 114 0 0
-0.0320 -0.0301 -0.1981 -0.254 0.644 0.721 175 154 112 0 0
-0.0326 -0.0287 -0.1995 -0.248 0.477 0.843 169 151 107 0 0
-0.0393 -0.0132 -0.2214 -0.751 0.657 0.069 78 64 42 0 0
-0.0384 -0.0120 -0.2597 0.683 0.730 -0.018 23 22 22 0 0
-0.0642 0.0445 -0.3025 0.348 0.886 0.306 110 94 68 0 0
-0.0644 0.0450 -0.3040 0.327 0.904 0.274 90 73 48 0 0
-0.0646 0.0454 -0.3055 0.303 0.920 0.250 88 71 46 0 0
-0.0647 0.0459 -0.3069 0.303 0.920 0.250 94 77 53 0 0
-0.0636 0.0438 -0.3092 -0.427 0.748 0.508 96 80 56 0 0
-0.0715 0.0628 -0.3447 -0.300 0.640 0.707 106 94 73 0 0
-0.0696 0.0615 -0.3784 -0.531 0.824 0.198 72 59 39 0 0
-0.0700 0.0630 -0.3846 -0.591 0.792 0.154 97 84 65 0 0
-0.0700 0.0631 -0.3862 -0.434 0.884 0.174 83 70 52 0 0
-0.0695 0.0636 -0.4064 -0.603 0.759 0.246 38 28 19 0 0
-0.0697 0.0641 -0.4079 -0.240 0.877 0.416 42 31 20 0 0
-0.0701 0.0650 -0.4093 -0.569 0.740 0.360 46 35 23 0 0
-0.0713 0.0678 -0.4131 -0.286 0.952 -0.108 85 73 59 0 0
-0.0711 0.0676 -0.4149 -0.301 0.931 -0.206 110 101 85 0 0
-0.0695 0.0659 -0.4366 -0.357 0.918 0.171 43 33 24 0 0
-0.0709 0.0690 -0.4386 -0.375 0.760 0.531 48 37 31 0 0
-0.0704 0.0695 -0.4560 -0.204 0.979 -0.027 36 29 26 0 0
-0.0717 0.0739 -0.4787 -0.448 0.758 0.473 68 58 46 0 0
-0.0761 0.0832 -0.4825 -0.690 0.678 0.254 60 51 41 0 0
-0.0765 0.0841 -0.4838 -0.757 0.644 -0.111 46 36 32 0 0
-0.0766 0.0845 -0.4854 -0.755 0.656 -0.019 42 35 29 0 0
-0.0810 0.1059 -0.6412 -0.761 0.612 0.214 63 54 46 0 0
-0.0811 0.1061 -0.6430 -0.420 0.514 0.748 58 49 40 0 0
-0.0980 0.1417 -0.6531 -0.753 0.586 0.300 152 134 88 0 0
-0.1001 0.1466 -0.6590 -0.376 0.655 0.656 186 169 124 0 0
-0.1009 0.1482 -0.6597 -0.251 0.904 0.346 161 142 103 0 0
-0.1026 0.1542 -0.6903 0.073 0.997 -0.017 92 76 47 0 0
-0.1019 0.1544 -0.7122 -0.493 0.048 0.869 126 112 83 0 0
-0.0894 0.1346 -0.7845 -0.239 0.623 0.745 51 38 22 0 0
-0.0899 0.1357 -0.7856 -0.239 0.623 0.745 52 42 24 0 0
-0.0904 0.1368 -0.7868 -0.331 0.764 0.554 50 38 20 0 0
-0.0907 0.1375 -0.7883 -0.160 0.854 0.496 48 36 17 0 0
-0.0956 0.1481 -0.7954 -0.112 0.887 0.449 67 54 34 0 0
-0.1015 0.1621 -0.8184 -0.416 0.782 0.464 129 108 70 0 0
-0.1033 0.1698 -0.8701 0.033 0.999 0.010 130 127 120 0 0
-0.0306 -0.0297 -0.1918 -0.498 0.861 0.107 185 167 121 0 0
-0.0311 -0.0284 -0.1979 -0.404 0.831 0.381 193 173 125 0 0
-0.0315 -0.0274 -0.1993 -0.520 0.520 0.677 184 163 117 0 0
-0.0350 -0.0197 -0.2055 -0.167 0.724 0.670 240 225 178 0 0
-0.0622 0.0438 -0.3029 0.348 0.886 0.306 120 101 78 0 0
-0.0624 0.0444 -0.3044 0.348 0.886 0.306 135 118 90 0 0
-0.0626 0.0454 -0.3105 -0.317 0.834 0.451 154 141 103 0 0
-0.0693 0.0617 -0.3437 -0.013 0.926 0.378 65 53 36 0 0
-0.0657 0.0562 -0.3674 -0.319 0.757 0.570 34 26 17 0 0
-0.0692 0.0645 -0.3808 -0.676 0.713 0.186 84 69 47 0 0
-0.0686 0.0643 -0.3927 -0.452 0.848 0.275 55 43 28 0 0
-0.0683 0.0646 -0.4062 -0.769 0.624 0.137 43 32 21 0 0
-0.0684 0.0651 -0.4077 -0.545 0.750 0.376 47 36 24 0 0
-0.0682 0.0648 -0.4096 -0.256 0.892 0.373 53 41 29 0 0
-0.0685 0.0665 -0.4226 -0.419 0.739 0.528 52 44 31 0 0
-0.0685 0.0665 -0.4244 -0.233 0.785 0.574 34 26 15 0 0
-0.0752 0.0855 -0.4888 -0.782 0.373 0.499 43 36 31 0 0
-0.0556 0.0570 -0.6328 0.103 0.741 0.664 71 65 53 0 0
-0.0785 0.1041 -0.6351 -0.328 0.831 0.450 64 55 46 0 0
-0.0798 0.1071 -0.6408 -0.333 0.813 0.477 58 49 41 0 0
-0.0986 0.1470 -0.6573 0.229 0.879 0.419 193 177 128 0 0
-0.0985 0.1469 -0.6593 0.098 0.814 0.573 186 168 125 0 0
-0.1007 0.1556 -0.7117 -0.077 0.316 0.946 120 105 77 0 0
-0.1049 0.1648 -0.7178 -0.211 0.893 0.397 106 91 52 0 0
-0.0933 0.1473 -0.7947 -0.087 0.676 0.732 74 60 39 0 0
-0.0938 0.1484 -0.7957 0.008 0.728 0.686 77 65 42 0 0
-0.0984 0.1584 -0.8033 -0.077 0.901 0.428 58 43 26 0 0
-0.1027 0.1700 -0.8373 0.144 0.909 0.391 73 62 44 0 0
-0.1029 0.1705 -0.8390 0.128 0.950 0.283 72 58 40 0 0
-0.1031 0.1709 -0.8407 0.017 0.978 0.209 78 63 36 0 0
-0.1037 0.1724 -0.8435 -0.222 0.955 0.195 93 78 45 0 0
-0.1038 0.1728 -0.8453 -0.222 0.955 0.195 104 88 50 0 0
-0.1011 0.1700 -0.8796 0.069 0.682 0.728 186 184 187 0 0
-0.0217 -0.0472 -0.1559 -0.756 0.591 0.283 143 132 117 0 0
-0.0239 -0.0410 -0.1768 -0.730 0.678 0.089 150 137 95 0 0
-0.0292 -0.0292 -0.1903 -0.748 0.535 0.393 228 213 168 0 0
-0.0293 -0.0289 -0.1918 -0.498 0.861 0.107 195 177 129 0 0
-0.0296 -0.0276 -0.1978 -0.454 0.801 0.391 173 152 105 0 0
-0.0339 -0.0182 -0.2069 -0.144 0.706 0.693 213 200 160 0 0
-0.0601 0.0432 -0.3033 0.348 0.886 0.306 162 146 115 0 0
-0.0677 0.0619 -0.3438 -0.069 0.950 0.305 54 40 27 0 0
-0.0659 0.0596 -0.3579 -0.312 0.947 -0.082 25 19 10 0 0
-0.0670 0.0659 -0.4093 -0.451 0.739 0.501 55 43 30 0 0
-0.0673 0.0676 -0.4224 -0.559 0.706 0.435 63 54 38 0 0
-0.0675 0.0680 -0.4239 -0.372 0.879 0.299 45 35 26 0 0
-0.0740 0.0863 -0.4833 -0.393 0.869 0.302 56 44 35 0 0
-0.0741 0.0867 -0.4849 -0.717 0.635 0.287 39 31 25 0 0
-0.0659 0.0824 -0.6395 -0.119 0.668 0.734 71 63 52 0 0
-0.0664 0.0836 -0.6406 0.032 0.745 0.667 68 59 50 0 0
-0.0768 0.1044 -0.6353 -0.064 0.934 0.351 66 57 48 0 0
-0.1030 0.1644 -0.7167 -0.469 0.799 0.377 99 84 54 0 0
-0.0826 0.1279 -0.7791 -0.583 0.798 0.156 20 15 7 0 0
-0.0826 0.1280 -0.7811 -0.468 0.798 0.379 20 13 6 0 0
-0.0912 0.1467 -0.7938 -0.374 0.805 0.461 69 54 32 0 0
-0.0915 0.1475 -0.7952 -0.471 0.692 0.547 87 73 49 0 0
-0.0919 0.1484 -0.7965 -0.472 0.730 0.495 91 79 57 0 0
-0.0976 0.1606 -0.8039 -0.126 0.833 0.539 79 66 40 0 0
-0.1020 0.1728 -0.8438 -0.094 0.963 0.252 95 79 42 0 0
-0.1021 0.1732 -0.8456 -0.222 0.955 0.195 116 97 52 0 0
-0.0993 0.1696 -0.8718 -0.002 0.754 0.657 148 143 139 0 0
-0.1033 0.1778 -0.8718 -0.327 0.941 0.084 187 185 185 0 0
-0.0262 -0.0322 -0.1846 -0.555 0.545 0.629 165 147 104 0 0
-0.0284 -0.0266 -0.1977 -0.603 0.682 0.414 152 133 96 0 0
-0.0304 -0.0176 -0.2567 0.476 0.828 0.295 27 26 27 0 0
-0.0308 -0.0166 -0.2597 0.434 0.891 0.130 28 26 27 0 0
-0.0298 -0.0184 -0.2619 -0.040 0.867 -0.496 19 17 18 0 0
-0.0594 0.0467 -0.3202 -0.167 0.899 0.405 86 70 52 0 0
-0.0658 0.0646 -0.3795 -0.194 0.943 0.272 89 75 51 0 0
-0.0660 0.0685 -0.4222 -0.508 0.760 0.405 70 59 41 0 0
-0.0660 0.0686 -0.4239 -0.372 0.879 0.299 58 46 33 0 0
-0.0659 0.0687 -0.4256 -0.358 0.877 0.320 39 26 18 0 0
-0.0683 0.0759 -0.4554 -0.266 0.940 0.215 51 43 34 0 0
-0.0733 0.0885 -0.4842 -0.647 0.701 0.299 52 42 34 0 0
-0.0643 0.0831 -0.6394 0.028 0.773 0.633 69 61 52 0 0
-0.0957 0.1487 -0.6608 0.167 0.781 0.602 181 162 122 0 0
-0.0971 0.1521 -0.6679 -0.583 0.791 0.184 108 92 66 0 0
-0.0988 0.1593 -0.7137 0.153 0.701 0.696 116 101 67 0 0
-0.0996 0.1611 -0.7142 0.042 0.391 0.920 150 132 98 0 0
-0.0807 0.1282 -0.7837 -0.484 0.363 0.796 63 50 35 0 0
-0.0811 0.1293 -0.7849 -0.657 0.422 0.624 108 95 78 0 0
-0.0857 0.1389 -0.7889 0.047 0.788 0.614 90 76 52 0 0
-0.0862 0.1400 -0.7900 0.100 0.729 0.677 89 75 50 0 0
-0.1002 0.1731 -0.8443 -0.094 0.963 0.252 112 94 52 0 0
-0.0195 -0.0445 -0.1572 -0.783 0.279 0.556 147 128 92 0 0
-0.0223 -0.0380 -0.1654 -0.943 0.327 -0.056 180 162 122 0 0
-0.0209 -0.0399 -0.1767 -0.171 0.693 0.701 189 174 124 0 0
-0.0243 -0.0326 -0.1816 -0.696 0.706 0.130 180 162 115 0 0
-0.0244 -0.0322 -0.1831 -0.681 0.617 0.394 180 161 112 0 0
-0.0373 -0.0016 -0.2365 -0.370 0.816 0.445 58 46 30 0 0
-0.0375 -0.0010 -0.2396 -0.210 0.977 -0.022 43 33 23 0 0
-0.0281 -0.0182 -0.2620 -0.109 0.864 -0.491 41 39 40 0 0
-0.0642 0.0650 -0.3796 -0.194 0.943 0.272 86 74 52 0 0
-0.0652 0.0685 -0.3967 -0.661 0.625 0.415 78 64 47 0 0
-0.0654 0.0690 -0.3982 -0.698 0.690 0.191 64 48 32 0 0
-0.0648 0.0686 -0.4086 -0.548 0.512 0.662 70 59 42 0 0
-0.0639 0.0671 -0.4128 -0.250 0.903 0.348 66 53 34 0 0
-0.0649 0.0695 -0.4168 -0.814 0.554 -0.171 70 59 41 0 0
-0.0644 0.0686 -0.4190 -0.794 0.605 0.059 107 95 78 0 0
-0.0644 0.0688 -0.4206 -0.794 0.605 0.059 117 106 86 0 0
-0.0668 0.0763 -0.4536 -0.420 0.618 0.665 55 47 36 0 0
-0.0682 0.0793 -0.4539 -0.541 0.713 0.445 54 46 35 0 0
-0.0984 0.1457 -0.5164 0.700 0.708 0.094 104 92 69 0 0
-0.0983 0.1457 -0.5182 0.623 0.781 0.054 104 90 68 0 0
-0.0983 0.1459 -0.5198 0.670 0.726 0.154 108 94 73 0 0
-0.0986 0.1466 -0.5211 0.719 0.581 0.381 114 99 76 0 0
-0.0993 0.1481 -0.5220 0.714 0.577 0.398 121 105 80 0 0
-0.0628 0.0838 -0.6394 -0.150 0.463 0.874 64 57 50 0 0
-0.0632 0.0847 -0.6407 -0.392 0.592 0.704 65 59 47 0 0
-0.0942 0.1494 -0.6608 -0.685 0.640 0.348 193 174 138 0 0
-0.0940 0.1491 -0.6630 0.092 0.810 0.579 158 139 100 0 0
-0.0948 0.1511 -0.6672 -0.426 0.554 0.716 99 83 55 0 0
-0.1010 0.1684 -0.7244 -0.196 0.978 0.074 166 145 99 0 0
-0.0936 0.1604 -0.8076 -0.139 0.937 0.319 56 45 27 0 0
-0.0988 0.1739 -0.8419 -0.457 0.641 0.617 110 91 52 0 0
-0.0208 -0.0377 -0.1623 -0.855 0.221 0.469 154 133 91 0 0
-0.0199 -0.0387 -0.1734 -0.931 0.315 0.186 189 173 124 0 0
-0.0208 -0.0365 -0.1777 -0.386 0.744 0.545 179 160 114 0 0
-0.0235 -0.0304 -0.1844 -0.131 0.790 0.599 170 150 108 0 0
-0.0241 -0.0290 -0.1858 -0.536 0.631 0.561 129 113 79 0 0
-0.0265 -0.0175 -0.2652 -0.864 0.494 -0.098 16 16 14 0 0
-0.0543 0.0429 -0.3153 0.055 0.915 0.400 131 111 89 0 0
-0.0545 0.0435 -0.3168 0.055 0.915 0.400 161 144 115 0 0
-0.0544 0.0435 -0.3184 -0.151 0.763 0.628 201 188 152 0 0
-0.0627 0.0653 -0.3797 -0.194 0.943 0.272 83 70 51 0 0
-0.0638 0.0685 -0.3885 -0.527 0.760 0.381 89 78 59 0 0
-0.0638 0.0689 -0.3951 -0.240 0.842 0.483 99 88 69 0 0
-0.0644 0.0705 -0.3995 -0.551 0.658 0.513 62 51 33 0 0
-0.0663 0.0801 -0.4662 -0.468 0.810 0.352 31 24 21 0 0
-0.0733 0.0960 -0.4878 -0.611 0.734 0.298 84 74 58 0 0
-0.0735 0.0966 -0.4893 -0.701 0.677 0.225 108 97 78 0 0
-0.0732 0.0965 -0.4947 -0.872 0.479 0.101 72 63 53 0 0
-0.0726 0.0955 -0.4971 -0.829 0.556 0.055 65 56 46 0 0
-0.0957 0.1441 -0.5214 0.669 0.727 0.155 101 86 69 0 0
-0.0957 0.1442 -0.5231 0.663 0.665 0.344 101 86 65 0 0
-0.0963 0.1456 -0.5240 0.638 0.690 0.341 106 90 67 0 0
-0.0963 0.1457 -0.5257 0.616 0.728 0.300 114 99 74 0 0
-0.0500 0.0613 -0.6337 -0.689 -0.051 0.723 70 64 51 0 0
-0.0616 0.0851 -0.6389 0.023 0.319 0.947 55 47 38 0 0
-0.0625 0.0870 -0.6396 -0.086 0.351 0.932 60 53 41 0 0
-0.0739 0.1107 -0.6460 -0.658 0.484 0.577 71 62 49 0 0
-0.0872 0.1384 -0.6563 -0.409 0.826 0.389 146 130 100 0 0
-0.0921 0.1484 -0.6582 -0.629 0.766 0.133 109 89 62 0 0
-0.0922 0.1489 -0.6617 -0.697 0.699 0.163 145 127 94 0 0
-0.0945 0.1544 -0.6710 -0.453 0.612 0.648 101 84 57 0 0
-0.0947 0.1549 -0.6725 -0.355 0.878 0.321 129 112 80 0 0
-0.0889 0.1462 -0.7059 -0.301 0.946 -0.119 28 20 15 0 0
-0.0889 0.1462 -0.7079 -0.545 0.785 0.296 35 27 18 0 0
-0.0783 0.1307 -0.7784 -0.720 0.664 0.202 33 24 14 0 0
-0.0783 0.1310 -0.7803 -0.834 0.461 0.301 44 35 25 0 0
-0.0806 0.1364 -0.7904 -0.662 0.688 0.297 95 81 60 0 0
-0.0810 0.1374 -0.7916 -0.272 0.957 0.104 116 103 79 0 0
-0.0926 0.1625 -0.8127 -0.453 0.661 0.599 92 74 42 0 0
-0.0974 0.1748 -0.8417 -0.457 0.641 0.617 139 118 72 0 0
-0.0969 0.1758 -0.8651 0.055 0.616 0.786 141 139 136 0 0
-0.0235 -0.0267 -0.1854 -0.512 0.727 0.457 121 105 75 0 0
-0.0266 -0.0200 -0.1919 -0.766 0.504 0.399 85 73 51 0 0
-0.0268 -0.0193 -0.1933 -0.766 0.504 0.399 51 39 25 0 0
-0.0350 0.0013 -0.2408 -0.006 0.996 0.089 41 32 24 0 0
-0.0256 -0.0162 -0.2600 -0.508 0.844 0.174 10 9 7 0 0
-0.0256 -0.0159 -0.2616 -0.508 0.844 0.174 11 10 8 0 0
-0.0259 -0.0151 -0.2630 -0.675 0.725 -0.139 18 17 15 0 0
-0.0262 -0.0145 -0.2645 -0.530 0.719 0.450 17 16 14 0 0
-0.0520 0.0419 -0.3159 0.001 0.921 0.391 205 193 160 0 0
-0.0522 0.0425 -0.3173 0.018 0.889 0.458 221 210 177 0 0
-0.0542 0.0470 -0.3223 -0.389 0.737 0.553 182 170 138 0 0
-0.0557 0.0502 -0.3260 -0.394 0.839 0.376 132 119 88 0 0
-0.0557 0.0503 -0.3276 -0.150 0.941 0.303 117 103 76 0 0
-0.0625 0.0692 -0.3867 -0.403 0.584 0.705 111 100 81 0 0
-0.0622 0.0687 -0.3886 -0.197 0.824 0.531 105 93 72 0 0
-0.0623 0.0695 -0.3951 -0.602 0.634 0.486 110 98 78 0 0
-0.0626 0.0701 -0.3965 -0.462 0.523 0.717 91 78 59 0 0
-0.0721 0.0968 -0.4841 -0.734 0.533 0.421 60 48 36 0 0
-0.0726 0.0982 -0.4887 -0.677 0.734 0.060 112 99 78 0 0
-0.0726 0.0985 -0.4903 -0.573 0.783 0.240 125 115 91 0 0
-0.0726 0.0986 -0.4920 -0.747 0.649 0.143 119 109 87 0 0
-0.0725 0.0985 -0.4939 -0.826 0.561 0.062 78 67 51 0 0
-0.0724 0.0985 -0.4957 -0.849 0.486 0.207 58 46 35 0 0
-0.0730 0.0999 -0.4985 -0.756 0.365 0.543 60 50 38 0 0
-0.0929 0.1421 -0.5230 0.651 0.735 0.190 119 108 91 0 0
-0.0928 0.1421 -0.5248 0.587 0.756 0.290 107 94 73 0 0
-0.0933 0.1432 -0.5259 0.535 0.741 0.407 106 92 69 0 0
-0.0936 0.1439 -0.5272 0.129 0.978 0.162 113 99 77 0 0
-0.0930 0.1429 -0.5296 0.310 0.949 -0.057 110 95 72 0 0
-0.0939 0.1448 -0.5302 0.387 0.922 0.037 111 96 72 0 0
-0.0516 0.0683 -0.6332 -0.898 0.412 -0.156 71 65 53 0 0
-0.0525 0.0702 -0.6339 -0.698 0.715 -0.036 75 69 57 0 0
-0.0782 0.1235 -0.6507 -0.104 0.866 0.488 85 74 54 0 0
-0.0837 0.1347 -0.6538 -0.571 0.786 0.237 83 71 48 0 0
-0.0839 0.1354 -0.6552 -0.310 0.852 0.421 124 111 82 0 0
-0.0902 0.1483 -0.6588 -0.056 0.895 0.443 115 96 71 0 0
-0.0905 0.1490 -0.6601 -0.068 0.926 0.371 97 79 60 0 0
-0.0907 0.1496 -0.6616 -0.068 0.926 0.371 101 84 58 0 0
-0.0928 0.1583 -0.7123 -0.281 0.642 0.714 118 103 76 0 0
-0.0906 0.1622 -0.8115 -0.312 0.874 0.373 102 87 54 0 0
-0.0272 -0.0120 -0.2283 -0.166 0.976 0.142 176 159 119 0 0
-0.0246 -0.0146 -0.2581 -0.733 0.580 0.356 9 8 6 0 0
-0.0249 -0.0140 -0.2596 -0.733 0.580 0.356 10 9 7 0 0
-0.0256 -0.0121 -0.2640 -0.446 0.888 -0.112 20 19 17 0 0
-0.0311 0.0001 -0.2770 0.670 0.581 0.463 17 15 15 0 0
-0.0491 0.0389 -0.3089 0.028 0.847 0.531 187 173 142 0 0
-0.0539 0.0498 -0.3231 -0.326 0.837 0.439 74 58 37 0 0
-0.0540 0.0503 -0.3246 -0.267 0.906 0.328 89 73 50 0 0
-0.0542 0.0508 -0.3260 -0.190 0.941 0.280 127 116 86 0 0
-0.0604 0.0689 -0.3905 -0.222 0.974 0.034 84 69 50 0 0
-0.0602 0.0686 -0.3923 -0.385 0.920 0.072 65 49 32 0 0
-0.0661 0.0852 -0.4483 -0.492 0.498 0.714 75 64 49 0 0
-0.0707 0.0975 -0.4840 -0.588 0.593 0.550 70 56 40 0 0
-0.0710 0.0984 -0.4854 -0.588 0.593 0.550 75 62 44 0 0
-0.0714 0.0994 -0.4883 -0.695 0.706 0.134 120 104 81 0 0
-0.0715 0.0997 -0.4900 -0.692 0.637 0.340 133 120 93 0 0
-0.0715 0.0999 -0.4917 -0.747 0.649 0.143 125 114 86 0 0
-0.0718 0.1007 -0.4948 -0.850 0.450 0.275 61 48 32 0 0
-0.0730 0.1039 -0.5019 -0.636 0.771 -0.025 57 47 37 0 0
-0.0731 0.1041 -0.5036 -0.572 0.820 0.030 59 49 39 0 0
-0.0492 0.0671 -0.6305 -0.074 0.624 0.778 79 73 61 0 0
-0.0495 0.0679 -0.6320 -0.213 0.781 0.587 73 67 55 0 0
-0.0499 0.0688 -0.6334 -0.213 0.781 0.587 73 67 55 0 0
-0.0561 0.0815 -0.6364 -0.077 0.841 0.535 79 74 62 0 0
-0.0566 0.0827 -0.6376 -0.063 0.614 0.787 67 65 52 0 0
-0.0589 0.0875 -0.6402 -0.452 0.333 0.828 62 57 46 0 0
-0.0756 0.1219 -0.6504 -0.352 0.545 0.761 83 71 55 0 0
-0.0763 0.1234 -0.6512 -0.182 0.959 0.216 99 87 66 0 0
-0.0816 0.1343 -0.6546 -0.539 0.709 0.455 56 43 27 0 0
-0.0819 0.1350 -0.6560 -0.584 0.627 0.515 107 94 68 0 0
-0.0910 0.1694 -0.8400 -0.516 0.503 0.693 208 197 159 0 0
-0.0930 0.1738 -0.8463 -0.248 0.934 0.258 144 127 81 0 0
-0.0219 -0.0233 -0.1817 -0.422 0.731 0.536 88 74 51 0 0
-0.0221 -0.0227 -0.1832 -0.586 0.749 0.310 81 68 51 0 0
-0.0267 -0.0115 -0.2044 -0.428 0.845 0.321 59 49 37 0 0
-0.0235 -0.0125 -0.2659 -0.335 0.907 0.256 11 10 9 0 0
-0.0268 -0.0053 -0.2737 0.539 0.723 0.432 6 5 5 0 0
-0.0272 -0.0043 -0.2751 0.516 0.765 0.386 7 7 6 0 0
-0.0286 -0.0014 -0.2759 0.590 0.489 0.642 8 7 7 0 0
-0.0473 0.0389 -0.3091 0.028 0.847 0.531 131 117 90 0 0
-0.0553 0.0597 -0.3642 -0.475 0.781 0.405 43 36 27 0 0
-0.0603 0.0718 -0.3878 -0.093 0.587 0.804 121 108 82 0 0
-0.0688 0.0973 -0.4827 -0.659 0.265 0.704 93 77 54 0 0
-0.0691 0.0980 -0.4841 -0.740 0.475 0.476 83 67 46 0 0
-0.0694 0.0987 -0.4855 -0.781 0.455 0.427 88 73 49 0 0
-0.0700 0.1000 -0.4865 -0.913 0.356 0.199 102 86 61 0 0
-0.0717 0.1050 -0.5052 -0.148 0.988 -0.040 57 47 37 0 0
-0.0507 0.0745 -0.6359 0.080 0.600 0.796 75 70 57 0 0
-0.0650 0.1040 -0.6446 0.201 0.565 0.800 79 70 61 0 0
-0.0746 0.1238 -0.6514 -0.182 0.959 0.216 118 106 84 0 0
-0.0875 0.1547 -0.7104 -0.139 0.661 0.737 95 83 59 0 0
-0.0880 0.1558 -0.7115 -0.139 0.661 0.737 109 97 63 0 0
-0.0175 -0.0303 -0.1597 -0.252 0.805 0.536 171 153 122 0 0
-0.0184 -0.0282 -0.1640 -0.293 0.901 0.319 113 96 64 0 0
-0.0186 -0.0277 -0.1655 -0.293 0.901 0.319 119 101 62 0 0
-0.0212 -0.0208 -0.1845 -0.429 0.867 0.256 47 38 29 0 0
-0.0213 -0.0204 -0.1859 -0.429 0.867 0.256 47 38 28 0 0
-0.0215 -0.0200 -0.1874 -0.377 0.752 0.541 43 34 24 0 0
-0.0247 -0.0117 -0.2077 -0.442 0.770 0.460 38 26 22 0 0
-0.0253 -0.0098 -0.2152 -0.398 0.763 0.510 102 91 74 0 0
-0.0238 -0.0082 -0.2681 0.208 0.636 0.743 5 5 5 0 0
-0.0278 0.0008 -0.2787 0.532 0.523 0.666 7 6 4 0 0
-0.0290 0.0032 -0.2796 0.532 0.523 0.666 7 6 4 0 0
-0.0576 0.0703 -0.3920 -0.698 0.716 0.004 70 53 32 0 0
-0.0578 0.0709 -0.3935 -0.518 0.844 0.142 69 52 32 0 0
-0.0584 0.0723 -0.3962 -0.391 0.677 0.624 131 115 88 0 0
-0.0714 0.1082 -0.5073 -0.653 0.733 0.190 50 42 31 0 0
-0.0733 0.1247 -0.6512 -0.205 0.839 0.504 93 80 62 0 0
-0.0736 0.1255 -0.6526 -0.200 0.731 0.653 114 102 80 0 0
-0.0859 0.1551 -0.7106 -0.113 0.783 0.612 97 86 58 0 0
-0.0863 0.1561 -0.7118 -0.011 0.886 0.463 107 94 63 0 0
-0.0882 0.1599 -0.7125 -0.022 0.617 0.787 116 100 75 0 0
-0.0741 0.1381 -0.7826 0.024 0.902 0.432 50 35 20 0 0
-0.0818 0.1550 -0.8011 -0.483 0.725 0.491 68 52 36 0 0
-0.0868 0.1675 -0.8301 -0.341 0.916 0.210 113 98 70 0 0
-0.0882 0.1713 -0.8394 -0.604 0.579 0.548 140 126 85 0 0
-0.0152 -0.0316 -0.1585 -0.368 0.581 0.726 156 141 111 0 0
-0.0160 -0.0298 -0.1597 -0.252 0.805 0.536 184 170 136 0 0
-0.0165 -0.0286 -0.1626 -0.318 0.679 0.661 88 72 46 0 0
-0.0281 0.0017 -0.2428 -0.244 0.764 0.597 69 56 39 0 0
-0.0219 -0.0083 -0.2683 -0.111 0.594 0.797 7 5 7 0 0
-0.0226 -0.0069 -0.2695 -0.073 0.722 0.688 4 4 6 0 0
-0.0230 -0.0060 -0.2709 -0.048 0.563 0.825 5 5 5 0 0
-0.0243 -0.0032 -0.2718 0.214 0.977 -0.023 10 9 6 0 0
-0.0316 0.0135 -0.2948 0.208 0.459 0.864 13 11 11 0 0
-0.0574 0.0713 -0.3683 -0.509 0.553 0.660 78 61 35 0 0
-0.0580 0.0728 -0.3710 -0.243 0.675 0.697 80 68 46 0 0
-0.0579 0.0729 -0.3743 -0.632 0.618 0.467 76 63 46 0 0
-0.0567 0.0723 -0.3948 -0.453 0.714 0.533 83 66 42 0 0
-0.0724 0.1147 -0.5182 -0.663 0.692 0.285 43 36 28 0 0
-0.0658 0.1131 -0.6466 0.298 0.596 0.746 80 71 56 0 0
-0.0707 0.1232 -0.6509 0.073 0.473 0.878 50 36 24 0 0
-0.0714 0.1246 -0.6517 -0.123 0.930 0.347 70 57 41 0 0
-0.0716 0.1252 -0.6533 -0.123 0.930 0.347 105 92 73 0 0
-0.0835 0.1500 -0.6653 0.023 0.960 0.280 81 64 42 0 0
-0.0838 0.1507 -0.6668 -0.222 0.970 0.098 61 44 23 0 0
-0.0838 0.1508 -0.6686 -0.222 0.970 0.098 74 58 37 0 0
-0.0841 0.1516 -0.6700 -0.052 0.859 0.509 88 74 51 0 0
-0.0844 0.1524 -0.6713 -0.052 0.859 0.509 93 79 55 0 0
-0.0837 0.1518 -0.6817 0.221 0.944 0.244 109 95 61 0 0
-0.0836 0.1518 -0.6838 -0.091 0.996 -0.017 115 100 71 0 0
-0.0841 0.1553 -0.7110 0.146 0.855 0.498 95 84 57 0 0
-0.0863 0.1599 -0.7131 -0.094 0.609 0.788 109 93 72 0 0
-0.0726 0.1404 -0.7986 -0.268 0.959 0.088 75 61 39 0 0
-0.0726 0.1405 -0.8006 -0.243 0.945 0.217 62 49 31 0 0
-0.0144 -0.0295 -0.1597 -0.209 0.863 0.460 181 169 137 0 0
-0.0163 -0.0250 -0.1667 -0.508 0.783 0.358 110 97 71 0 0
-0.0175 -0.0214 -0.1800 -0.453 0.765 0.458 115 101 75 0 0
-0.0181 -0.0202 -0.1814 -0.601 0.760 0.247 82 72 50 0 0
-0.0232 -0.0080 -0.2039 -0.256 0.891 0.374 78 66 40 0 0
-0.0262 0.0015 -0.2430 -0.323 0.936 0.141 65 51 32 0 0
-0.0205 -0.0067 -0.2779 0.488 0.722 0.491 11 10 8 0 0
-0.0265 0.0059 -0.2841 0.596 0.763 0.250 9 9 7 0 0
-0.0251 0.0034 -0.2882 0.564 0.528 0.634 12 9 8 0 0
-0.0262 0.0056 -0.2891 0.595 0.553 0.583 15 11 12 0 0
-0.0305 0.0146 -0.2946 0.145 0.511 0.848 7 5 6 0 0
-0.0314 0.0166 -0.2956 0.145 0.511 0.848 7 5 6 0 0
-0.0553 0.0729 -0.3948 -0.566 0.588 0.578 66 48 27 0 0
-0.0559 0.0743 -0.3959 -0.622 0.647 0.440 102 86 61 0 0
-0.0677 0.1077 -0.5065 -0.711 0.592 0.380 49 37 27 0 0
-0.0711 0.1155 -0.5181 -0.484 0.847 0.221 35 28 20 0 0
-0.0715 0.1166 -0.5210 -0.620 0.743 0.253 33 26 20 0 0
-0.0783 0.1316 -0.5370 0.144 0.800 0.582 116 102 80 0 0
-0.0601 0.1052 -0.6431 -0.363 0.277 0.890 52 45 37 0 0
-0.0605 0.1060 -0.6445 -0.278 0.666 0.692 54 45 36 0 0
-0.0696 0.1247 -0.6522 -0.108 0.912 0.397 48 34 22 0 0
-0.0699 0.1255 -0.6536 -0.123 0.930 0.347 92 79 63 0 0
-0.0708 0.1273 -0.6541 0.082 0.613 0.786 123 108 87 0 0
-0.0714 0.1286 -0.6551 0.082 0.613 0.786 133 118 95 0 0
-0.0750 0.1408 -0.7098 -0.071 0.885 0.459 71 58 42 0 0
-0.0823 0.1554 -0.7115 0.146 0.855 0.498 99 87 62 0 0
-0.0848 0.1605 -0.7131 0.013 0.591 0.806 110 95 73 0 0
-0.0641 0.1255 -0.7784 -0.633 0.774 -0.001 55 46 38 0 0
-0.0640 0.1254 -0.7806 -0.361 0.932 0.017 52 43 34 0 0
-0.0640 0.1256 -0.7826 -0.016 0.861 0.508 65 57 44 0 0
-0.0710 0.1399 -0.7887 -0.268 0.959 0.088 54 40 23 0 0
-0.0719 0.1425 -0.7971 -0.787 0.451 0.422 74 60 38 0 0
-0.0725 0.1441 -0.8000 -0.769 0.459 0.445 68 57 36 0 0
-0.0792 0.1578 -0.8062 -0.368 0.822 0.435 51 42 25 0 0
-0.0830 0.1674 -0.8272 0.094 0.995 0.018 112 98 64 0 0
-0.0831 0.1677 -0.8291 -0.106 0.990 0.095 87 73 42 0 0
-0.0084 -0.0386 -0.1505 0.076 0.718 0.692 155 138 113 0 0
-0.0120 -0.0309 -0.1585 0.020 0.774 0.633 138 125 106 0 0
-0.0150 -0.0242 -0.1666 -0.354 0.803 0.479 98 85 60 0 0
-0.0176 -0.0171 -0.1871 -0.736 0.519 0.434 176 159 116 0 0
-0.0283 0.0139 -0.2950 0.311 0.435 0.845 12 10 10 0 0
-0.0291 0.0156 -0.2961 0.348 0.531 0.773 12 9 9 0 0
-0.0542 0.0740 -0.3912 -0.837 0.546 0.022 95 79 55 0 0
-0.0537 0.0732 -0.3932 -0.572 0.793 0.209 83 67 41 0 0
-0.0540 0.0739 -0.3946 -0.566 0.588 0.578 71 55 32 0 0
-0.0566 0.0831 -0.4385 -0.485 0.779 0.397 73 61 40 0 0
-0.0567 0.0838 -0.4434 -0.540 0.637 0.550 83 71 52 0 0
-0.0676 0.1106 -0.5015 -0.155 0.908 0.388 70 57 48 0 0
-0.0676 0.1109 -0.5032 -0.501 0.805 0.319 51 38 29 0 0
-0.0677 0.1111 -0.5049 -0.532 0.846 -0.031 52 40 29 0 0
-0.0676 0.1111 -0.5066 -0.792 0.491 0.362 59 47 34 0 0
-0.0673 0.1108 -0.5086 -0.667 0.744 0.039 62 50 37 0 0
-0.0582 0.1051 -0.6436 0.062 0.634 0.771 55 48 40 0 0
-0.0588 0.1064 -0.6447 -0.019 0.831 0.555 48 40 31 0 0
-0.0595 0.1080 -0.6455 0.167 0.882 0.441 58 49 39 0 0
-0.0677 0.1248 -0.6527 -0.004 0.939 0.343 42 28 17 0 0
-0.0689 0.1274 -0.6546 0.264 0.525 0.809 95 82 63 0 0
-0.0742 0.1422 -0.7030 0.092 0.894 -0.439 64 50 31 0 0
-0.0730 0.1402 -0.7068 0.121 0.973 -0.196 68 54 37 0 0
-0.0719 0.1383 -0.7104 -0.109 0.951 0.289 71 58 41 0 0
-0.0620 0.1252 -0.7792 -0.229 0.871 0.436 48 42 33 0 0
-0.0628 0.1268 -0.7800 -0.409 0.898 0.163 61 53 43 0 0
-0.0807 0.1669 -0.8306 0.174 0.860 0.480 110 95 62 0 0
-0.0802 0.1729 -0.9079 0.804 0.449 0.389 201 200 198 0 0
-0.0102 -0.0309 -0.1586 -0.114 0.775 0.622 134 123 107 0 0
-0.0120 -0.0273 -0.1595 -0.668 0.595 0.448 142 127 104 0 0
-0.0137 -0.0226 -0.1726 -0.635 0.706 0.312 127 111 81 0 0
-0.0145 -0.0206 -0.1785 -0.286 0.828 0.483 130 115 87 0 0
-0.0150 -0.0100 -0.2808 -0.894 0.310 -0.323 14 13 11 0 0
-0.0228 0.0068 -0.2974 0.601 0.489 0.632 18 16 15 0 0
-0.0237 0.0088 -0.2984 0.643 0.499 0.581 19 15 14 0 0
-0.0533 0.0732 -0.3632 -0.764 0.317 0.563 123 112 96 0 0
-0.0545 0.0766 -0.3751 -0.495 0.837 0.234 68 53 36 0 0
-0.0547 0.0770 -0.3766 -0.539 0.800 0.265 83 69 49 0 0
-0.0528 0.0750 -0.3944 -0.566 0.588 0.578 82 66 40 0 0
-0.0576 0.0868 -0.4197 -0.081 0.990 0.113 69 53 36 0 0
-0.0548 0.0831 -0.4388 -0.072 0.937 0.341 78 65 46 0 0
-0.0678 0.1154 -0.5098 -0.633 0.662 0.402 49 37 27 0 0
-0.0681 0.1160 -0.5113 -0.633 0.662 0.402 53 42 33 0 0
-0.0681 0.1163 -0.5129 -0.604 0.769 0.211 47 36 26 0 0
-0.0687 0.1179 -0.5192 -0.323 0.878 0.355 40 31 22 0 0
-0.0742 0.1429 -0.6707 0.053 0.967 0.249 137 124 86 0 0
-0.0718 0.1413 -0.7044 0.196 0.941 -0.274 65 52 35 0 0
-0.0712 0.1404 -0.7072 -0.126 0.974 -0.188 79 66 49 0 0
-0.0704 0.1390 -0.7104 -0.290 0.844 0.451 78 66 47 0 0
-0.0616 0.1285 -0.7833 -0.120 0.834 0.538 76 66 53 0 0
-0.0697 0.1455 -0.7934 -0.519 0.839 0.165 82 68 47 0 0
-0.0700 0.1462 -0.7950 -0.341 0.839 0.424 89 74 53 0 0
-0.0702 0.1468 -0.7965 -0.410 0.903 0.130 86 71 50 0 0
-0.0703 0.1472 -0.7983 -0.319 0.922 0.219 82 67 46 0 0
-0.0099 -0.0280 -0.1597 -0.338 0.933 0.122 150 134 106 0 0
-0.0214 0.0012 -0.2274 -0.426 0.869 0.252 82 64 43 0 0
-0.0150 -0.0065 -0.2799 -0.988 0.127 -0.086 17 16 14 0 0
-0.0541 0.0857 -0.4431 -0.616 0.428 0.661 90 76 58 0 0
-0.0674 0.1193 -0.5223 -0.650 0.718 0.249 63 50 35 0 0
-0.0676 0.1197 -0.5239 -0.570 0.793 0.216 64 51 36 0 0
-0.0721 0.1297 -0.5358 0.012 0.783 0.622 150 138 107 0 0
-0.0725 0.1306 -0.5370 0.133 0.893 0.431 145 132 98 0 0
-0.0726 0.1437 -0.6746 0.519 0.752 0.407 111 98 74 0 0
-0.0686 0.1390 -0.7089 0.191 0.980 0.059 99 86 67 0 0
-0.0682 0.1386 -0.7113 -0.341 0.896 0.286 88 77 55 0 0
-0.0764 0.1549 -0.7137 0.248 0.879 0.407 143 122 91 0 0
-0.0731 0.1582 -0.8188 -0.068 0.934 0.350 85 70 45 0 0
-0.0755 0.1637 -0.8265 -0.404 0.827 0.392 89 77 49 0 0
-0.0797 0.1730 -0.8368 -0.128 0.919 0.372 135 118 79 0 0
-0.0082 -0.0278 -0.1597 -0.585 0.737 0.340 171 154 113 0 0
-0.0154 -0.0108 -0.1892 -0.601 0.766 0.227 196 180 149 0 0
-0.0178 -0.0045 -0.2067 -0.573 0.668 0.475 99 82 60 0 0
-0.0181 -0.0037 -0.2081 -0.573 0.668 0.475 100 87 66 0 0
-0.0204 0.0027 -0.2288 -0.387 0.857 0.340 123 106 72 0 0
-0.0205 0.0031 -0.2303 -0.488 0.841 0.235 103 89 58 0 0
-0.0196 0.0030 -0.2479 -0.371 0.804 0.465 39 31 23 0 0
-0.0203 0.0046 -0.2507 -0.719 0.574 0.392 13 9 8 0 0
-0.0129 -0.0067 -0.2852 -0.915 0.331 -0.231 9 8 6 0 0
-0.0122 -0.0078 -0.2872 -0.303 0.814 0.496 9 8 6 0 0
-0.0486 0.0709 -0.3646 0.282 0.484 0.828 118 109 96 0 0
-0.0558 0.0931 -0.4501 -0.792 0.471 0.389 77 63 50 0 0
-0.0589 0.1007 -0.4671 -0.559 0.741 0.371 190 175 137 0 0
-0.0604 0.1041 -0.4724 -0.544 0.695 0.471 169 153 116 0 0
-0.0617 0.1068 -0.4727 -0.332 0.647 0.686 181 165 126 0 0
-0.0659 0.1203 -0.5275 -0.366 0.863 0.349 49 34 22 0 0
-0.0704 0.1299 -0.5360 0.010 0.642 0.766 142 130 98 0 0
-0.0707 0.1306 -0.5374 -0.007 0.713 0.701 157 144 107 0 0
-0.0713 0.1318 -0.5384 -0.049 0.819 0.572 146 132 99 0 0
-0.0719 0.1332 -0.5394 -0.096 0.769 0.632 131 116 84 0 0
-0.0723 0.1340 -0.5407 -0.249 0.796 0.551 133 119 85 0 0
-0.0195 0.0404 -0.6427 0.183 0.843 0.505 105 101 98 0 0
-0.0544 0.1091 -0.6481 0.196 0.532 0.824 49 41 35 0 0
-0.0549 0.1103 -0.6492 0.239 0.690 0.684 38 29 21 0 0
-0.0693 0.1403 -0.6698 0.267 0.923 0.276 91 79 58 0 0
-0.0697 0.1415 -0.6728 -0.007 0.980 0.201 137 123 90 0 0
-0.0678 0.1496 -0.7974 -0.333 0.875 0.351 80 65 42 0 0
-0.0686 0.1512 -0.7980 -0.477 0.680 0.556 90 76 51 0 0
-0.0697 0.1543 -0.8080 -0.174 0.954 0.245 72 57 37 0 0
-0.0773 0.1733 -0.8505 0.039 0.703 0.710 140 124 89 0 0
-0.0154 -0.0072 -0.1901 -0.540 0.649 0.535 85 71 54 0 0
-0.0184 0.0019 -0.2243 -0.382 0.858 0.345 68 53 29 0 0
-0.0192 0.0040 -0.2302 -0.410 0.844 0.346 147 134 97 0 0
-0.0106 -0.0069 -0.2921 -0.953 0.262 0.151 11 9 10 0 0
-0.0473 0.0717 -0.3645 -0.121 0.537 0.835 114 107 96 0 0
-0.0505 0.0792 -0.3764 -0.799 0.536 0.272 67 55 39 0 0
-0.0522 0.0887 -0.4404 -0.432 0.794 0.428 70 57 39 0 0
-0.0526 0.0895 -0.4417 -0.461 0.835 0.301 75 62 44 0 0
-0.0552 0.0953 -0.4493 -0.306 0.720 0.623 63 49 37 0 0
-0.0577 0.1020 -0.4685 -0.178 0.829 0.530 164 142 108 0 0
-0.0686 0.1298 -0.5365 -0.035 0.456 0.889 119 106 75 0 0
-0.0696 0.1321 -0.5387 -0.345 0.718 0.604 145 132 98 0 0
-0.0700 0.1330 -0.5399 -0.386 0.737 0.555 140 127 93 0 0
-0.0704 0.1337 -0.5412 -0.493 0.732 0.470 131 118 84 0 0
-0.0520 0.1084 -0.6492 0.399 0.629 0.667 74 65 56 0 0
-0.0726 0.1547 -0.7130 -0.468 0.448 0.762 128 113 84 0 0
-0.0730 0.1555 -0.7142 -0.198 0.680 0.706 102 86 61 0 0
-0.0734 0.1564 -0.7156 -0.327 0.842 0.429 126 109 80 0 0
-0.0574 0.1318 -0.7844 -0.172 0.773 0.611 27 24 17 0 0
-0.0657 0.1493 -0.7983 -0.130 0.986 0.107 106 91 66 0 0
-0.0693 0.1582 -0.8180 -0.215 0.888 0.406 96 82 50 0 0
-0.0696 0.1590 -0.8194 -0.338 0.801 0.494 116 99 62 0 0
-0.0071 -0.0223 -0.1651 -0.341 0.914 0.221 139 125 85 0 0
-0.0074 -0.0218 -0.1665 -0.349 0.689 0.635 123 109 69 0 0
-0.0145 -0.0056 -0.1899 -0.509 0.616 0.601 52 41 26 0 0
-0.0162 -0.0000 -0.2138 -0.275 0.674 0.686 164 147 109 0 0
-0.0173 0.0032 -0.2241 -0.273 0.956 0.107 77 62 39 0 0
-0.0177 0.0046 -0.2301 -0.396 0.852 0.341 130 118 83 0 0
-0.0106 -0.0036 -0.2879 -0.854 0.508 0.111 9 7 7 0 0
-0.0215 0.0209 -0.3219 -0.990 -0.078 0.118 108 107 109 0 0
-0.0217 0.0213 -0.3234 -0.998 0.004 -0.067 74 70 73 0 0
-0.0221 0.0222 -0.3248 0.387 0.765 0.515 52 47 49 0 0
-0.0457 0.0721 -0.3645 -0.121 0.537 0.835 114 107 97 0 0
-0.0495 0.0797 -0.3680 -0.245 0.596 0.765 162 142 102 0 0
-0.0496 0.0801 -0.3696 -0.490 0.789 0.370 87 69 46 0 0
-0.0490 0.0797 -0.3764 -0.613 0.650 0.450 71 59 42 0 0
-0.0563 0.1028 -0.4684 -0.264 0.787 0.557 140 120 86 0 0
-0.0604 0.1127 -0.4895 -0.205 0.922 0.327 99 82 57 0 0
-0.0678 0.1320 -0.5391 -0.190 0.856 0.480 133 121 90 0 0
-0.0681 0.1327 -0.5405 -0.340 0.908 0.246 135 122 88 0 0
-0.0685 0.1336 -0.5417 -0.582 0.809 0.081 127 114 80 0 0
-0.0171 0.0437 -0.6455 -0.588 0.246 0.771 108 105 102 0 0
-0.0172 0.0441 -0.6473 0.129 0.269 0.954 91 87 84 0 0
-0.0394 0.0869 -0.6434 0.268 0.553 0.789 53 49 42 0 0
-0.0577 0.1240 -0.6598 0.440 0.826 0.352 98 87 69 0 0
-0.0581 0.1249 -0.6610 0.462 0.793 0.398 70 59 43 0 0
-0.0586 0.1261 -0.6621 0.407 0.833 0.375 84 73 55 0 0
-0.0713 0.1556 -0.7127 -0.528 0.504 0.684 116 101 71 0 0
-0.0715 0.1562 -0.7142 -0.413 0.619 0.669 104 88 61 0 0
-0.0718 0.1570 -0.7156 -0.327 0.842 0.429 117 100 71 0 0
-0.0528 0.1266 -0.7833 -0.248 0.538 0.806 55 43 30 0 0
-0.0663 0.1554 -0.8105 -0.471 0.872 0.129 72 58 32 0 0
-0.0667 0.1570 -0.8177 -0.359 0.896 0.262 103 89 58 0 0
-0.0672 0.1580 -0.8189 -0.214 0.929 0.301 128 114 78 0 0
-0.0677 0.1591 -0.8200 -0.147 0.922 0.359 112 98 63 0 0
-0.0723 0.1712 -0.8519 0.024 0.830 0.558 104 93 65 0 0
-0.0136 -0.0036 -0.1927 -0.462 0.823 0.332 81 70 48 0 0
-0.0137 -0.0033 -0.1942 -0.151 0.958 0.244 105 91 67 0 0
-0.0139 -0.0011 -0.2125 -0.458 0.614 0.643 210 196 157 0 0
-0.0155 0.0023 -0.2165 -0.286 0.822 0.493 143 130 95 0 0
-0.0160 0.0037 -0.2193 -0.474 0.735 0.485 89 73 47 0 0
-0.0158 0.0036 -0.2241 -0.017 0.989 0.148 73 58 37 0 0
-0.0162 0.0055 -0.2348 -0.509 0.854 0.114 65 50 32 0 0
-0.0115 -0.0007 -0.2640 -0.703 0.710 -0.039 58 49 42 0 0
-0.0115 -0.0005 -0.2656 -0.598 0.699 0.392 53 41 33 0 0
-0.0096 -0.0020 -0.2876 -0.854 0.508 0.111 5 3 4 0 0
-0.0092 -0.0026 -0.2911 -0.871 0.480 -0.105 5 4 5 0 0
-0.0082 -0.0037 -0.2982 -0.507 0.743 0.438 6 5 6 0 0
-0.0049 -0.0087 -0.3134 -0.022 0.986 0.164 12 9 10 0 0
-0.0230 0.0275 -0.3248 -0.987 0.010 -0.159 136 134 139 0 0
-0.0486 0.0819 -0.3723 -0.583 0.734 0.349 59 47 31 0 0
-0.0487 0.0823 -0.3738 -0.552 0.777 0.304 67 54 36 0 0
-0.0497 0.0861 -0.3940 -0.392 0.904 0.170 56 40 26 0 0
-0.0499 0.0901 -0.4316 -0.071 0.874 0.481 64 48 32 0 0
-0.0548 0.1032 -0.4685 -0.381 0.721 0.578 156 136 102 0 0
-0.0576 0.1097 -0.4791 -0.379 0.921 0.084 69 53 33 0 0
-0.0579 0.1105 -0.4804 -0.235 0.855 0.463 85 71 49 0 0
-0.0586 0.1119 -0.4814 -0.344 0.878 0.333 96 80 57 0 0
-0.0183 0.0497 -0.6439 -0.996 -0.078 -0.052 180 180 180 0 0
-0.0174 0.0482 -0.6469 -0.986 0.161 0.029 144 144 143 0 0
-0.0219 0.0575 -0.6508 0.569 0.274 0.775 62 55 52 0 0
-0.0660 0.1491 -0.7128 0.017 0.283 0.959 105 90 68 0 0
-0.0697 0.1561 -0.7128 -0.762 0.504 0.406 105 90 61 0 0
-0.0699 0.1566 -0.7144 -0.644 0.700 0.308 115 101 69 0 0
-0.0705 0.1582 -0.7172 -0.565 0.724 0.396 123 106 77 0 0
-0.0707 0.1588 -0.7187 -0.565 0.724 0.396 136 120 93 0 0
-0.0715 0.1603 -0.7194 -0.383 0.817 0.432 119 105 79 0 0
-0.0079 -0.0133 -0.1729 -0.552 0.573 0.605 53 39 25 0 0
-0.0136 0.0022 -0.2166 -0.339 0.903 0.264 178 165 124 0 0
-0.0145 0.0042 -0.2209 -0.390 0.881 0.267 77 60 37 0 0
-0.0135 0.0050 -0.2463 -0.886 0.222 0.408 46 34 25 0 0
-0.0116 0.0039 -0.2743 -0.258 0.899 0.355 41 33 25 0 0
-0.0050 -0.0057 -0.3058 0.062 0.954 -0.294 7 6 5 0 0
-0.0047 -0.0060 -0.3076 -0.688 0.706 -0.170 7 5 5 0 0
-0.0047 -0.0052 -0.3159 -0.785 0.367 0.499 23 19 17 0 0
-0.0035 -0.0073 -0.3183 -0.367 0.883 -0.293 41 37 33 0 0
-0.0468 0.0813 -0.3678 -0.317 0.737 0.597 161 144 109 0 0
-0.0470 0.0819 -0.3692 -0.331 0.856 0.398 102 86 64 0 0
-0.0473 0.0827 -0.3722 -0.490 0.789 0.370 57 44 30 0 0
-0.0482 0.0867 -0.3940 -0.478 0.800 0.362 54 38 24 0 0
-0.0565 0.1112 -0.4804 -0.355 0.790 0.500 82 66 45 0 0
-0.0571 0.1124 -0.4815 -0.213 0.845 0.491 87 72 49 0 0
-0.0155 0.0490 -0.6511 -0.912 0.186 -0.367 101 100 99 0 0
-0.0165 0.0509 -0.6518 0.695 0.474 0.540 61 56 56 0 0
-0.0187 0.0551 -0.6509 0.507 0.152 0.848 53 48 47 0 0
-0.0186 0.0551 -0.6530 0.392 0.069 0.917 76 70 68 0 0
-0.0596 0.1405 -0.7146 0.346 0.909 0.233 84 72 49 0 0
-0.0610 0.1530 -0.8142 -0.405 0.744 0.531 82 69 44 0 0
0.0048 -0.0366 -0.1490 -0.934 0.042 -0.355 178 178 178 0 0
-0.0116 0.0014 -0.2138 -0.473 0.800 0.370 183 164 124 0 0
-0.0117 0.0017 -0.2153 -0.360 0.864 0.353 215 200 158 0 0
-0.0118 0.0022 -0.2167 -0.296 0.912 0.283 199 186 144 0 0
-0.0137 0.0078 -0.2377 -0.337 0.929 0.152 105 91 64 0 0
-0.0070 -0.0002 -0.2857 -0.744 0.667 -0.026 5 3 4 0 0
-0.0056 -0.0013 -0.3012 -0.108 0.993 -0.055 4 2 3 0 0
-0.0053 -0.0019 -0.3030 -0.398 0.857 -0.328 6 4 5 0 0
-0.0039 -0.0039 -0.3088 -0.941 0.272 -0.201 6 4 5 0 0
-0.0024 -0.0066 -0.3113 -0.930 0.329 0.161 6 4 5 0 0
-0.0552 0.1121 -0.4802 -0.474 0.731 0.491 87 72 50 0 0
-0.0556 0.1129 -0.4815 -0.487 0.794 0.365 83 68 47 0 0
-0.0558 0.1135 -0.4830 -0.487 0.794 0.365 90 74 51 0 0
-0.0134 0.0490 -0.6536 0.726 0.519 0.451 153 151 152 0 0
-0.0143 0.0508 -0.6545 0.610 0.400 0.684 98 94 94 0 0
-0.0545 0.1339 -0.7105 -0.497 0.569 0.655 112 100 76 0 0
-0.0579 0.1406 -0.7131 -0.339 0.525 0.781 89 77 54 0 0
-0.0484 0.1295 -0.7847 -0.112 0.642 0.758 109 93 71 0 0
-0.0489 0.1305 -0.7860 -0.144 0.605 0.783 92 77 57 0 0
-0.0491 0.1312 -0.7875 -0.396 0.684 0.613 46 36 18 0 0
-0.0627 0.1602 -0.8166 -0.597 0.743 0.303 83 67 40 0 0
-0.0671 0.1723 -0.8530 0.009 0.948 0.318 95 85 65 0 0
-0.0075 -0.0063 -0.1810 -0.371 0.787 0.493 130 116 89 0 0
-0.0112 0.0048 -0.2210 -0.414 0.775 0.477 70 55 33 0 0
-0.0115 0.0055 -0.2224 -0.480 0.745 0.463 67 52 32 0 0
-0.0091 0.0043 -0.2549 -0.702 0.709 0.066 38 30 21 0 0
-0.0038 -0.0009 -0.3046 -0.947 0.313 -0.077 6 4 5 0 0
-0.0037 -0.0010 -0.3063 -0.955 0.289 -0.071 7 5 6 0 0
-0.0036 -0.0010 -0.3080 -0.996 0.076 0.037 7 5 6 0 0
0.0036 -0.0134 -0.3224 0.159 0.870 -0.467 91 89 89 0 0
-0.0442 0.0903 -0.4393 -0.196 0.838 0.510 83 71 47 0 0
-0.0489 0.1017 -0.4632 -0.190 0.582 0.791 123 106 83 0 0
-0.0100 0.0464 -0.6560 0.681 0.510 0.526 209 208 210 0 0
-0.0401 0.1046 -0.6586 0.225 0.860 0.458 82 73 59 0 0
-0.0514 0.1314 -0.7090 -0.308 0.663 0.683 111 99 77 0 0
-0.0524 0.1333 -0.7095 -0.501 0.414 0.760 108 93 72 0 0
-0.0531 0.1348 -0.7102 -0.497 0.569 0.655 108 95 72 0 0
-0.0509 0.1355 -0.7603 -0.175 0.778 -0.603 58 48 35 0 0
-0.0471 0.1293 -0.7703 -0.077 0.883 -0.462 44 34 24 0 0
-0.0598 0.1597 -0.8288 -0.151 0.867 0.474 127 114 86 0 0
-0.0652 0.1724 -0.8536 0.211 0.891 0.402 92 83 64 0 0
0.0060 -0.0315 -0.1545 -0.774 0.070 0.630 159 152 137 0 0
-0.0061 -0.0056 -0.1810 -0.371 0.787 0.493 149 134 103 0 0
-0.0061 -0.0055 -0.1825 -0.338 0.832 0.440 150 135 104 0 0
-0.0071 -0.0022 -0.1959 -0.476 0.835 0.277 99 83 56 0 0
-0.0101 0.0049 -0.2100 -0.340 0.847 0.408 76 62 39 0 0
-0.0102 0.0053 -0.2115 -0.327 0.845 0.424 109 93 64 0 0
-0.0070 0.0039 -0.2584 -0.469 0.841 0.269 29 21 15 0 0
-0.0071 0.0044 -0.2599 -0.386 0.898 0.209 21 16 12 0 0
-0.0071 0.0046 -0.2631 -0.411 0.907 0.088 17 15 11 0 0
-0.0063 0.0131 -0.3601 0.616 0.455 0.643 125 124 124 0 0
-0.0424 0.0903 -0.4396 -0.371 0.797 0.476 72 57 39 0 0
-0.0426 0.0910 -0.4427 -0.210 0.696 0.687 71 56 37 0 0
-0.0071 0.0443 -0.6517 0.488 0.690 0.534 211 212 217 0 0
-0.0078 0.0457 -0.6528 0.497 0.752 0.433 211 212 216 0 0
-0.0437 0.1266 -0.7712 -0.073 0.909 -0.411 46 37 27 0 0
-0.0427 0.1251 -0.7748 -0.121 0.943 -0.311 49 40 28 0 0
-0.0418 0.1238 -0.7782 -0.066 0.947 0.314 68 57 44 0 0
-0.0589 0.1621 -0.8338 -0.065 0.914 0.401 132 118 75 0 0
-0.0088 0.0061 -0.2114 -0.340 0.847 0.408 104 88 61 0 0
-0.0052 0.0047 -0.2648 -0.507 0.747 0.430 19 16 10 0 0
-0.0052 0.0050 -0.2680 -0.508 0.779 0.366 22 18 11 0 0
0.0037 -0.0063 -0.3221 -0.605 0.543 0.582 177 181 184 0 0
-0.0055 0.0154 -0.3629 -0.993 0.091 -0.077 138 139 140 0 0
-0.0409 0.0853 -0.3855 -0.315 0.929 0.192 58 43 27 0 0
-0.0411 0.0858 -0.3870 -0.084 0.971 0.226 55 42 25 0 0
-0.0409 0.0909 -0.4396 -0.179 0.965 0.190 59 44 25 0 0
-0.0406 0.0904 -0.4416 0.098 0.848 0.522 64 48 30 0 0
-0.0410 0.0913 -0.4429 0.174 0.833 0.525 68 53 34 0 0
-0.0407 0.0929 -0.4633 0.343 0.848 0.405 97 85 67 0 0
-0.0059 0.0460 -0.6531 0.277 0.876 0.395 211 212 216 0 0
-0.0065 0.0475 -0.6562 -0.246 0.901 0.358 208 211 213 0 0
-0.0068 0.0482 -0.6578 -0.198 0.909 0.368 208 210 213 0 0
-0.0063 0.0475 -0.6604 0.127 0.986 0.110 210 210 213 0 0
-0.0386 0.1211 -0.7769 0.106 0.953 0.283 40 31 22 0 0
-0.0468 0.1388 -0.7955 0.114 0.875 0.470 78 66 42 0 0
-0.0524 0.1519 -0.8203 -0.596 0.797 0.095 89 73 48 0 0
-0.0567 0.1619 -0.8369 0.098 0.990 0.105 125 110 69 0 0
-0.0021 -0.0075 -0.1706 -0.397 0.731 0.556 175 157 119 0 0
-0.0047 0.0000 -0.1956 -0.503 0.803 0.319 78 64 37 0 0
-0.0074 0.0068 -0.2114 -0.370 0.868 0.332 95 78 51 0 0
-0.0076 0.0073 -0.2128 -0.370 0.868 0.332 110 91 59 0 0
-0.0082 0.0102 -0.2295 -0.348 0.871 0.347 56 40 22 0 0
-0.0083 0.0106 -0.2310 -0.366 0.841 0.398 59 44 24 0 0
-0.0088 0.0117 -0.2339 -0.405 0.876 0.263 92 78 52 0 0
-0.0089 0.0122 -0.2370 -0.341 0.876 0.342 63 47 29 0 0
-0.0046 0.0067 -0.2628 -0.319 0.900 0.297 34 28 21 0 0
-0.0066 0.0127 -0.2824 -0.265 0.848 0.460 11 9 7 0 0
0.0057 -0.0068 -0.3208 -0.761 0.518 0.391 174 174 177 0 0
0.0054 -0.0061 -0.3222 -0.527 0.844 0.105 177 181 184 0 0
-0.0390 0.0903 -0.4367 -0.074 0.970 0.233 73 57 41 0 0
-0.0053 0.0485 -0.6518 -0.281 0.956 -0.089 211 212 216 0 0
-0.0052 0.0486 -0.6538 -0.420 0.908 0.007 211 212 216 0 0
-0.0051 0.0486 -0.6559 -0.064 0.998 -0.021 210 213 214 0 0
-0.0594 0.1592 -0.7260 -0.023 0.990 -0.136 131 116 86 0 0
-0.0382 0.1246 -0.7809 -0.447 0.862 0.238 50 38 23 0 0
-0.0509 0.1518 -0.8100 -0.503 0.810 0.301 94 83 54 0 0
-0.0061 0.0070 -0.2051 -0.541 0.823 0.174 181 162 129 0 0
-0.0066 0.0090 -0.2141 -0.378 0.822 0.427 88 72 41 0 0
-0.0070 0.0099 -0.2170 -0.335 0.907 0.256 115 100 66 0 0
-0.0070 0.0113 -0.2294 -0.403 0.897 0.185 55 39 24 0 0
-0.0071 0.0117 -0.2309 -0.446 0.769 0.458 53 38 23 0 0
-0.0075 0.0132 -0.2385 -0.481 0.877 0.013 62 48 33 0 0
-0.0042 0.0110 -0.2781 -0.145 0.667 0.730 104 96 82 0 0
0.0068 -0.0053 -0.3204 -0.969 0.212 -0.126 179 180 182 0 0
0.0070 -0.0055 -0.3222 -0.969 0.212 -0.126 177 181 184 0 0
0.0065 -0.0044 -0.3236 -0.953 0.257 0.158 179 180 184 0 0
0.0064 -0.0041 -0.3252 -0.985 0.158 0.074 178 179 184 0 0
-0.0361 0.0852 -0.4082 -0.602 0.796 0.060 74 62 40 0 0
-0.0366 0.0886 -0.4308 -0.140 0.989 -0.054 70 55 36 0 0
-0.0368 0.0891 -0.4323 -0.205 0.842 0.499 71 56 37 0 0
-0.0375 0.0909 -0.4367 -0.203 0.931 0.302 63 47 31 0 0
-0.0361 0.0907 -0.4597 0.181 0.982 0.057 51 39 25 0 0
-0.0361 0.0908 -0.4615 0.247 0.965 0.087 36 23 13 0 0
-0.0481 0.1170 -0.4951 -0.329 0.913 0.242 80 68 43 0 0
-0.0484 0.1186 -0.5032 -0.215 0.936 0.280 87 75 50 0 0
-0.0486 0.1190 -0.5048 -0.215 0.936 0.280 89 76 52 0 0
-0.0070 0.0551 -0.6476 -0.003 0.816 -0.578 211 212 216 0 0
-0.0005 0.0446 -0.6635 -0.591 0.751 -0.294 104 103 100 0 0
-0.0415 0.1275 -0.7125 0.087 0.722 0.687 97 85 73 0 0
-0.0520 0.1476 -0.7160 -0.128 0.728 0.673 108 93 74 0 0
-0.0361 0.1243 -0.7796 -0.648 0.699 0.303 37 29 19 0 0
