ply
format ascii 1.0
element vertex 833
property float x
property float y
property float z
property float nx
property float ny
property float nz
property uchar diffuse_red
property uchar diffuse_green
property uchar diffuse_blue
property uchar class
property uchar detection
end_header
-0.0092 -0.0955 -0.2277 0.071 -0.820 0.568 132 117 94 0 0
-0.0055 -0.1028 -0.2606 0.626 -0.778 -0.055 70 54 31 0 0
-0.0067 -0.1016 -0.2626 0.887 -0.343 0.309 70 54 31 0 0
-0.0062 -0.1024 -0.2638 0.836 -0.450 0.314 69 52 32 0 0
-0.0061 -0.1026 -0.2653 0.775 -0.622 0.108 69 53 29 0 0
-0.0072 -0.1023 -0.2748 0.707 -0.557 0.436 89 73 44 0 0
-0.0079 -0.1025 -0.2842 0.615 -0.781 0.106 106 92 59 0 0
-0.0083 -0.1022 -0.2859 0.573 -0.781 0.249 107 93 60 0 0
-0.0072 -0.1035 -0.2869 0.810 -0.570 0.140 100 86 52 0 0
-0.0131 -0.1010 -0.3267 0.754 -0.311 -0.578 125 110 67 0 0
-0.0119 -0.1024 -0.3278 0.661 -0.589 -0.465 124 110 72 0 0
-0.0113 -0.1032 -0.3290 0.641 -0.726 -0.247 92 78 49 0 0
-0.0534 -0.0595 -0.3609 0.381 -0.919 0.102 18 13 10 0 0
-0.0607 -0.0530 -0.3764 0.253 -0.777 -0.576 34 30 26 0 0
-0.0603 -0.0536 -0.3779 -0.215 -0.929 -0.302 22 18 15 0 0
-0.0623 -0.0516 -0.3806 0.007 -0.952 -0.307 28 23 20 0 0
-0.0653 -0.0490 -0.3873 0.739 -0.656 0.153 36 29 23 0 0
-0.0654 -0.0495 -0.3943 0.339 -0.904 -0.261 29 25 22 0 0
-0.0667 -0.0485 -0.3984 0.560 -0.795 -0.235 35 30 26 0 0
-0.0671 -0.0482 -0.4004 0.632 -0.741 -0.227 37 31 27 0 0
-0.0676 -0.0479 -0.4024 0.588 -0.808 -0.032 45 37 31 0 0
-0.0752 -0.0430 -0.4384 0.697 -0.717 -0.030 97 84 68 0 0
-0.0753 -0.0432 -0.4402 0.732 -0.679 -0.050 74 62 48 0 0
-0.0766 -0.0423 -0.4464 0.829 -0.531 0.176 70 63 56 0 0
-0.0763 -0.0427 -0.4480 0.766 -0.596 0.241 32 26 23 0 0
-0.0711 -0.0516 -0.4792 0.582 -0.794 0.176 62 44 28 0 0
-0.0712 -0.0519 -0.4829 0.680 -0.730 0.064 88 74 51 0 0
-0.0814 -0.0466 -0.5438 0.596 -0.802 -0.046 30 26 23 0 0
-0.0816 -0.0466 -0.5459 0.442 -0.885 -0.145 31 27 24 0 0
-0.0762 -0.0566 -0.5860 0.484 -0.554 0.677 62 55 41 0 0
-0.0687 -0.0670 -0.6073 0.613 -0.595 0.520 56 47 37 0 0
-0.0256 -0.1157 -0.6152 0.681 -0.732 -0.034 149 128 86 0 0
-0.0264 -0.1166 -0.6329 0.783 -0.543 0.304 168 148 108 0 0
-0.0265 -0.1167 -0.6349 0.771 -0.637 0.004 151 131 88 0 0
-0.0267 -0.1168 -0.6389 0.879 -0.475 0.029 154 134 89 0 0
-0.0283 -0.1201 -0.6886 0.785 -0.482 0.389 182 166 118 0 0
-0.0287 -0.1198 -0.6909 0.811 -0.408 0.419 183 167 120 0 0
-0.0282 -0.1205 -0.6924 0.828 -0.507 0.239 182 169 122 0 0
-0.0310 -0.1219 -0.7369 0.818 -0.549 0.169 180 164 113 0 0
-0.0307 -0.1224 -0.7386 0.845 -0.448 0.293 183 168 119 0 0
-0.0411 -0.1239 -0.8693 0.908 -0.332 0.254 129 128 126 0 0
-0.0309 -0.0726 -0.2180 -0.198 -0.975 0.098 94 85 69 0 0
-0.0314 -0.0724 -0.2211 -0.085 -0.993 0.079 88 79 65 0 0
-0.0309 -0.0731 -0.2225 -0.217 -0.975 0.051 94 84 72 0 0
-0.0113 -0.0953 -0.2280 -0.128 -0.814 0.566 137 122 103 0 0
-0.0075 -0.1032 -0.2638 0.802 -0.494 0.337 69 52 32 0 0
-0.0078 -0.1037 -0.2730 0.504 -0.601 0.620 81 66 37 0 0
-0.0081 -0.1035 -0.2746 0.612 -0.539 0.579 86 70 41 0 0
-0.0080 -0.1046 -0.2837 0.756 -0.604 0.252 92 76 48 0 0
-0.0083 -0.1044 -0.2853 0.719 -0.559 0.412 90 74 45 0 0
-0.0077 -0.1052 -0.2866 0.694 -0.714 0.091 93 76 46 0 0
-0.0079 -0.1054 -0.2913 0.629 -0.762 0.153 98 81 50 0 0
-0.0092 -0.1064 -0.3149 0.689 -0.722 0.071 96 80 48 0 0
-0.0125 -0.1039 -0.3274 0.819 -0.387 -0.424 122 106 65 0 0
-0.0127 -0.1039 -0.3291 0.807 -0.590 0.043 122 106 68 0 0
-0.0550 -0.0602 -0.3610 0.403 -0.915 0.019 24 18 15 0 0
-0.0625 -0.0534 -0.3766 0.474 -0.539 -0.696 29 25 22 0 0
-0.0631 -0.0530 -0.3786 0.204 -0.840 -0.502 23 19 16 0 0
-0.0645 -0.0517 -0.3810 0.097 -0.959 -0.267 27 22 20 0 0
-0.0653 -0.0511 -0.3831 0.200 -0.916 -0.348 23 17 14 0 0
-0.0671 -0.0498 -0.3910 0.632 -0.766 0.120 18 13 11 0 0
-0.0672 -0.0499 -0.3927 0.536 -0.844 0.023 20 16 13 0 0
-0.0758 -0.0444 -0.4325 0.662 -0.745 -0.078 71 58 44 0 0
-0.0765 -0.0440 -0.4365 0.798 -0.567 0.203 75 62 49 0 0
-0.0765 -0.0443 -0.4401 0.697 -0.717 -0.030 71 59 46 0 0
-0.0781 -0.0429 -0.4428 0.788 -0.612 -0.059 51 43 35 0 0
-0.0783 -0.0430 -0.4465 0.826 -0.492 0.275 47 40 34 0 0
-0.0790 -0.0440 -0.4650 0.555 -0.789 0.263 30 26 19 0 0
-0.0731 -0.0516 -0.4759 0.470 -0.626 0.623 39 26 13 0 0
-0.0725 -0.0527 -0.4792 0.582 -0.794 0.176 64 46 29 0 0
-0.0725 -0.0534 -0.4864 0.675 -0.508 0.534 90 76 50 0 0
-0.0750 -0.0529 -0.5083 0.520 -0.667 0.533 95 80 55 0 0
-0.0755 -0.0526 -0.5124 0.475 -0.879 0.048 87 75 52 0 0
-0.0752 -0.0532 -0.5141 0.720 -0.693 0.037 89 77 55 0 0
-0.0766 -0.0529 -0.5262 0.654 -0.729 -0.203 52 46 32 0 0
-0.0828 -0.0477 -0.5438 0.665 -0.745 -0.049 21 18 15 0 0
-0.0856 -0.0464 -0.5611 0.286 -0.782 0.554 12 8 8 0 0
-0.0275 -0.1179 -0.6326 0.783 -0.543 0.304 158 139 95 0 0
-0.0302 -0.1200 -0.6832 0.757 -0.639 0.136 184 168 122 0 0
-0.0301 -0.1203 -0.6851 0.757 -0.639 0.136 182 165 119 0 0
-0.0294 -0.1212 -0.6863 0.699 -0.659 0.279 181 164 116 0 0
-0.0293 -0.1215 -0.6882 0.785 -0.482 0.389 181 164 117 0 0
-0.0327 -0.1203 -0.7131 0.608 -0.793 0.052 182 165 117 0 0
-0.0327 -0.1204 -0.7152 0.608 -0.793 0.052 182 165 116 0 0
-0.0324 -0.1211 -0.7189 0.423 -0.767 0.482 171 154 102 0 0
-0.0319 -0.1218 -0.7204 0.423 -0.767 0.482 172 152 102 0 0
-0.0324 -0.1236 -0.7429 0.476 -0.850 0.226 187 171 122 0 0
-0.0394 -0.1266 -0.8504 0.885 -0.407 -0.225 122 111 79 0 0
-0.0338 -0.0718 -0.2184 0.497 -0.803 0.330 103 95 82 0 0
-0.0335 -0.0722 -0.2199 0.499 -0.778 0.382 103 95 84 0 0
-0.0336 -0.0723 -0.2214 0.878 0.003 0.478 112 103 95 0 0
-0.0329 -0.0732 -0.2227 0.832 0.076 0.550 127 119 112 0 0
-0.0247 -0.0825 -0.2260 0.320 0.110 0.941 162 155 146 0 0
-0.0116 -0.0975 -0.2306 -0.057 -0.698 0.714 169 156 122 0 0
-0.0084 -0.1044 -0.2637 0.746 -0.540 0.389 72 57 34 0 0
-0.0080 -0.1052 -0.2680 0.748 -0.651 0.132 74 58 32 0 0
-0.0085 -0.1062 -0.2833 0.722 -0.490 0.489 97 80 51 0 0
-0.0080 -0.1070 -0.2846 0.817 -0.473 0.329 95 78 48 0 0
-0.0104 -0.1073 -0.3149 0.615 -0.755 0.226 99 84 51 0 0
-0.0098 -0.1084 -0.3192 0.430 -0.668 0.607 95 78 47 0 0
-0.0134 -0.1054 -0.3288 0.994 -0.104 -0.045 122 106 63 0 0
-0.0558 -0.0622 -0.3657 0.577 -0.649 0.497 75 68 60 0 0
-0.0640 -0.0543 -0.3766 0.372 -0.636 -0.676 26 22 19 0 0
-0.0651 -0.0533 -0.3788 0.204 -0.840 -0.502 21 17 15 0 0
-0.0666 -0.0519 -0.3814 0.176 -0.947 -0.269 17 11 11 0 0
-0.0685 -0.0508 -0.3909 0.451 -0.885 0.114 25 21 18 0 0
-0.0778 -0.0455 -0.4400 0.697 -0.717 -0.030 58 48 39 0 0
-0.0779 -0.0455 -0.4418 0.697 -0.717 -0.030 37 28 23 0 0
-0.0761 -0.0507 -0.4732 0.578 -0.588 0.565 69 55 35 0 0
-0.0758 -0.0513 -0.4767 0.598 -0.643 0.478 52 36 19 0 0
-0.0737 -0.0563 -0.5028 0.535 -0.822 0.195 112 100 73 0 0
-0.0764 -0.0543 -0.5120 0.720 -0.693 0.037 95 83 63 0 0
-0.0764 -0.0544 -0.5139 0.720 -0.693 0.037 89 77 53 0 0
-0.0781 -0.0530 -0.5188 0.629 -0.772 0.087 66 54 36 0 0
-0.0811 -0.0513 -0.5339 0.903 -0.427 0.041 26 24 21 0 0
-0.0822 -0.0504 -0.5366 0.753 -0.642 -0.146 20 19 15 0 0
-0.0809 -0.0569 -0.5873 0.452 -0.548 0.704 59 50 43 0 0
-0.0802 -0.0578 -0.5887 0.487 -0.774 0.406 60 50 40 0 0
-0.0781 -0.0613 -0.6007 0.292 -0.800 0.524 80 73 66 0 0
-0.0296 -0.1211 -0.6619 0.837 -0.437 0.329 166 144 102 0 0
-0.0315 -0.1212 -0.6830 0.631 -0.665 0.400 183 166 119 0 0
-0.0311 -0.1217 -0.6846 0.630 -0.656 0.416 177 160 112 0 0
-0.0307 -0.1224 -0.6862 0.630 -0.656 0.416 166 150 101 0 0
-0.0304 -0.1229 -0.6878 0.785 -0.482 0.389 160 144 96 0 0
-0.0302 -0.1232 -0.6897 0.705 -0.682 0.196 180 163 117 0 0
-0.0301 -0.1235 -0.6915 0.694 -0.710 0.117 177 160 115 0 0
-0.0312 -0.1252 -0.7202 0.422 -0.801 0.425 169 150 105 0 0
-0.0308 -0.1258 -0.7218 0.422 -0.801 0.425 168 149 102 0 0
-0.0307 -0.1262 -0.7236 0.785 -0.368 0.498 180 158 113 0 0
-0.0391 -0.1228 -0.7832 0.613 -0.743 0.268 100 88 57 0 0
-0.0390 -0.1233 -0.7873 0.701 -0.696 0.155 77 62 35 0 0
-0.0383 -0.1251 -0.7969 0.591 -0.659 0.466 123 104 68 0 0
-0.0379 -0.1258 -0.7984 0.591 -0.659 0.466 154 135 93 0 0
-0.0376 -0.1262 -0.8003 0.589 -0.718 0.370 171 153 108 0 0
-0.0252 -0.0843 -0.2257 0.343 0.099 0.934 172 171 165 0 0
-0.0226 -0.0872 -0.2264 -0.052 -0.097 0.994 155 146 132 0 0
-0.0091 -0.1075 -0.2800 0.848 -0.367 0.383 97 80 52 0 0
-0.0095 -0.1073 -0.2816 0.697 -0.587 0.412 99 82 53 0 0
-0.0091 -0.1078 -0.2830 0.697 -0.587 0.412 96 79 49 0 0
-0.0086 -0.1086 -0.2859 0.692 -0.718 -0.071 96 79 49 0 0
-0.0102 -0.1103 -0.3188 0.791 -0.534 0.299 102 86 52 0 0
-0.0101 -0.1105 -0.3203 0.655 -0.714 0.250 95 79 45 0 0
-0.0570 -0.0637 -0.3689 0.575 -0.725 0.379 21 16 13 0 0
-0.0655 -0.0551 -0.3766 0.372 -0.636 -0.676 23 19 16 0 0
-0.0671 -0.0537 -0.3791 0.204 -0.840 -0.502 23 19 16 0 0
-0.0771 -0.0466 -0.4192 0.634 -0.766 -0.105 73 60 42 0 0
-0.0774 -0.0466 -0.4211 0.634 -0.766 -0.105 73 60 46 0 0
-0.0766 -0.0475 -0.4225 0.764 -0.634 0.121 81 68 55 0 0
-0.0797 -0.0465 -0.4456 0.867 -0.494 0.067 43 37 33 0 0
-0.0770 -0.0524 -0.4747 0.510 -0.800 0.317 79 65 42 0 0
-0.0775 -0.0556 -0.5118 0.757 -0.651 -0.058 105 92 73 0 0
-0.0782 -0.0558 -0.5215 0.946 -0.317 -0.064 53 45 37 0 0
-0.0816 -0.0589 -0.5887 0.613 -0.634 0.473 61 51 42 0 0
-0.0811 -0.0598 -0.5922 0.466 -0.815 0.344 44 36 30 0 0
-0.0808 -0.0603 -0.5939 0.466 -0.815 0.344 32 25 22 0 0
-0.0806 -0.0607 -0.5957 0.355 -0.934 0.043 27 21 18 0 0
-0.0289 -0.1217 -0.6352 0.831 -0.511 0.220 159 139 97 0 0
-0.0403 -0.1250 -0.7912 0.696 -0.663 0.276 111 93 61 0 0
-0.0390 -0.1273 -0.8002 0.589 -0.718 0.370 136 117 79 0 0
-0.0429 -0.1286 -0.8554 0.915 -0.400 0.051 104 94 68 0 0
-0.0428 -0.1289 -0.8575 0.875 -0.481 0.052 41 38 28 0 0
-0.0157 -0.0974 -0.2311 -0.027 -0.531 0.847 136 119 99 0 0
-0.0143 -0.0991 -0.2321 -0.027 -0.531 0.847 156 140 114 0 0
-0.0129 -0.1007 -0.2331 -0.027 -0.531 0.847 167 153 124 0 0
-0.0099 -0.1078 -0.2692 0.880 -0.471 0.070 79 63 36 0 0
-0.0106 -0.1090 -0.2892 0.709 -0.699 -0.090 93 78 49 0 0
-0.0110 -0.1099 -0.3016 0.849 -0.440 0.292 109 95 60 0 0
-0.0106 -0.1104 -0.3030 0.824 -0.500 0.267 110 95 61 0 0
-0.0110 -0.1117 -0.3201 0.880 -0.426 0.210 101 84 52 0 0
-0.0117 -0.1115 -0.3251 0.951 -0.307 0.033 105 90 52 0 0
-0.0129 -0.1103 -0.3273 0.491 -0.718 -0.493 117 100 62 0 0
-0.0594 -0.0630 -0.3644 0.378 -0.868 0.324 63 56 47 0 0
-0.0593 -0.0634 -0.3660 0.429 -0.852 0.302 30 22 16 0 0
-0.0586 -0.0643 -0.3673 0.601 -0.724 0.338 23 18 15 0 0
-0.0671 -0.0560 -0.3784 0.671 -0.479 -0.566 24 20 16 0 0
-0.0729 -0.0514 -0.3951 0.246 -0.939 -0.241 37 31 23 0 0
-0.0785 -0.0476 -0.4192 0.702 -0.710 -0.048 65 54 40 0 0
-0.0787 -0.0476 -0.4210 0.702 -0.710 -0.048 67 55 43 0 0
-0.0822 -0.0477 -0.4588 0.533 -0.778 0.332 21 17 16 0 0
-0.0762 -0.0562 -0.4787 0.603 -0.629 0.490 63 47 23 0 0
-0.0783 -0.0581 -0.5187 0.861 -0.497 -0.108 51 42 34 0 0
-0.0786 -0.0579 -0.5208 0.902 -0.426 -0.072 36 29 24 0 0
-0.0905 -0.0472 -0.5442 0.141 -0.909 -0.393 12 11 10 0 0
-0.0938 -0.0454 -0.5618 -0.111 -0.767 0.632 7 5 7 0 0
-0.0283 -0.1192 -0.5794 0.945 -0.203 0.257 119 102 77 0 0
-0.0297 -0.1245 -0.6460 0.693 -0.719 -0.057 186 169 125 0 0
-0.0328 -0.1239 -0.6738 0.848 -0.527 0.045 180 162 114 0 0
-0.0443 -0.1227 -0.7857 0.259 -0.687 0.679 76 57 31 0 0
-0.0370 -0.1329 -0.8067 0.555 -0.795 0.244 166 148 101 0 0
-0.0168 -0.0985 -0.2309 -0.024 -0.731 0.681 140 124 105 0 0
-0.0154 -0.1003 -0.2334 -0.165 -0.541 0.825 140 124 99 0 0
-0.0096 -0.1082 -0.2492 0.599 -0.740 0.307 43 29 13 0 0
-0.0094 -0.1088 -0.2520 0.709 -0.587 0.392 54 38 23 0 0
-0.0109 -0.1083 -0.2631 0.772 -0.584 0.251 65 50 27 0 0
-0.0107 -0.1086 -0.2645 0.772 -0.584 0.251 63 48 25 0 0
-0.0108 -0.1098 -0.2766 0.787 -0.483 0.383 92 74 44 0 0
-0.0104 -0.1103 -0.2779 0.803 -0.482 0.350 94 77 43 0 0
-0.0100 -0.1109 -0.2793 0.867 -0.462 0.188 93 75 43 0 0
-0.0101 -0.1110 -0.2808 0.872 -0.472 -0.133 89 71 40 0 0
-0.0112 -0.1105 -0.2889 0.724 -0.645 -0.244 85 69 45 0 0
-0.0600 -0.0652 -0.3673 0.190 -0.834 0.518 22 17 14 0 0
-0.0733 -0.0530 -0.3912 0.405 -0.897 -0.178 27 23 18 0 0
-0.0737 -0.0528 -0.3931 0.389 -0.906 -0.166 33 27 18 0 0
-0.0747 -0.0519 -0.3953 0.366 -0.922 -0.128 42 35 25 0 0
-0.0751 -0.0517 -0.3973 0.375 -0.904 -0.203 53 46 35 0 0
-0.0756 -0.0513 -0.3993 0.359 -0.895 -0.265 49 42 32 0 0
-0.0802 -0.0582 -0.5153 0.756 -0.595 -0.273 56 45 35 0 0
-0.0809 -0.0576 -0.5177 0.876 -0.479 0.054 51 42 35 0 0
-0.0949 -0.0463 -0.5557 0.063 -0.997 0.046 7 7 8 0 0
-0.0943 -0.0486 -0.5727 0.896 -0.027 0.442 8 6 7 0 0
-0.0935 -0.0496 -0.5741 0.632 -0.614 0.472 8 7 8 0 0
-0.0930 -0.0504 -0.5756 0.544 -0.679 0.493 10 8 9 0 0
-0.0916 -0.0520 -0.5765 0.671 -0.717 0.188 12 10 11 0 0
-0.0917 -0.0523 -0.5805 0.543 -0.553 0.631 14 13 12 0 0
-0.0293 -0.1210 -0.5827 0.735 -0.675 0.067 147 128 90 0 0
-0.0293 -0.1212 -0.5845 0.735 -0.675 0.067 139 119 77 0 0
-0.0293 -0.1214 -0.5864 0.735 -0.675 0.067 154 132 87 0 0
-0.0295 -0.1213 -0.5884 0.850 -0.471 0.236 152 130 85 0 0
-0.0295 -0.1244 -0.6181 0.831 -0.502 0.241 188 173 130 0 0
-0.0309 -0.1243 -0.6325 0.882 -0.404 0.241 181 165 122 0 0
-0.0307 -0.1247 -0.6343 0.885 -0.424 0.191 175 157 116 0 0
-0.0307 -0.1249 -0.6361 0.830 -0.493 0.262 167 148 107 0 0
-0.0304 -0.1254 -0.6378 0.830 -0.493 0.262 173 154 110 0 0
-0.0305 -0.1255 -0.6397 0.854 -0.519 0.040 175 156 111 0 0
-0.0303 -0.1259 -0.6415 0.719 -0.678 -0.156 156 136 92 0 0
-0.0305 -0.1261 -0.6454 0.585 -0.809 0.047 181 165 119 0 0
-0.0402 -0.1267 -0.7552 0.596 -0.764 -0.245 132 114 75 0 0
-0.0483 -0.1206 -0.7822 0.491 -0.766 0.415 90 76 49 0 0
-0.0471 -0.1221 -0.7829 0.620 -0.596 0.510 68 52 26 0 0
-0.0392 -0.1344 -0.8180 0.696 -0.670 0.256 173 156 108 0 0
-0.0479 -0.1304 -0.8729 0.759 -0.102 0.643 139 136 133 0 0
-0.0107 -0.1094 -0.2506 0.396 -0.879 0.267 49 35 19 0 0
-0.0105 -0.1097 -0.2520 0.460 -0.861 0.217 50 34 18 0 0
-0.0124 -0.1150 -0.3226 0.734 -0.650 0.195 98 82 49 0 0
-0.0128 -0.1148 -0.3244 0.728 -0.546 0.415 98 82 48 0 0
-0.0748 -0.0528 -0.3809 0.485 -0.859 0.162 18 13 10 0 0
-0.0746 -0.0531 -0.3825 0.510 -0.758 0.407 21 16 12 0 0
-0.0746 -0.0537 -0.3877 0.490 -0.826 0.279 21 16 12 0 0
-0.0749 -0.0537 -0.3912 0.561 -0.785 -0.264 25 19 17 0 0
-0.0754 -0.0534 -0.3932 0.561 -0.740 -0.372 32 24 19 0 0
-0.0767 -0.0523 -0.3956 0.680 -0.690 -0.246 39 32 24 0 0
-0.0801 -0.0573 -0.4812 0.705 -0.498 0.505 87 71 49 0 0
-0.0776 -0.0603 -0.4832 0.460 -0.747 0.480 86 71 48 0 0
-0.0821 -0.0590 -0.5174 0.904 -0.400 0.148 38 31 26 0 0
-0.0858 -0.0555 -0.5237 0.243 -0.968 0.065 23 19 16 0 0
-0.0859 -0.0556 -0.5257 0.411 -0.902 -0.131 17 13 12 0 0
-0.0303 -0.1199 -0.5587 0.850 0.279 0.447 89 78 65 0 0
-0.0297 -0.1207 -0.5600 0.912 0.253 0.322 93 81 65 0 0
-0.0287 -0.1219 -0.5610 0.920 0.251 0.302 90 78 59 0 0
-0.0305 -0.1213 -0.5752 0.836 -0.548 0.027 130 109 78 0 0
-0.0303 -0.1219 -0.5787 0.733 -0.679 -0.024 138 118 79 0 0
-0.0304 -0.1220 -0.5807 0.733 -0.679 -0.024 146 124 80 0 0
-0.0304 -0.1222 -0.5825 0.735 -0.675 0.067 150 128 87 0 0
-0.0304 -0.1224 -0.5843 0.735 -0.675 0.067 148 127 85 0 0
-0.0305 -0.1225 -0.5862 0.767 -0.638 0.075 153 133 87 0 0
-0.0304 -0.1228 -0.5880 0.850 -0.471 0.236 156 136 92 0 0
-0.0305 -0.1258 -0.6178 0.687 -0.726 0.031 182 165 122 0 0
-0.0312 -0.1257 -0.6240 0.751 -0.660 0.006 165 148 103 0 0
-0.0317 -0.1259 -0.6320 0.882 -0.404 0.241 189 171 127 0 0
-0.0316 -0.1262 -0.6338 0.831 -0.507 0.232 173 155 113 0 0
-0.0316 -0.1264 -0.6357 0.865 -0.425 0.268 154 135 95 0 0
-0.0313 -0.1269 -0.6373 0.854 -0.393 0.340 160 141 99 0 0
-0.0313 -0.1275 -0.6430 0.632 -0.761 -0.149 173 155 110 0 0
-0.0321 -0.1269 -0.6456 0.683 -0.725 0.096 181 166 118 0 0
-0.0316 -0.1298 -0.6681 0.913 -0.390 0.119 163 142 95 0 0
-0.0369 -0.1313 -0.7381 0.615 -0.785 -0.075 184 166 118 0 0
-0.0503 -0.1212 -0.7827 -0.056 -0.680 0.731 80 66 39 0 0
-0.0385 -0.1369 -0.8094 0.553 -0.654 0.516 168 151 106 0 0
-0.0450 -0.1347 -0.8569 0.918 -0.337 -0.207 83 77 58 0 0
-0.0298 -0.0886 -0.2299 -0.256 -0.694 0.673 137 128 113 0 0
-0.0116 -0.1107 -0.2504 0.534 -0.730 0.428 58 44 28 0 0
-0.0112 -0.1112 -0.2517 0.534 -0.730 0.428 61 45 28 0 0
-0.0108 -0.1117 -0.2531 0.534 -0.730 0.428 67 51 32 0 0
-0.0127 -0.1110 -0.2657 0.759 -0.534 0.372 83 69 42 0 0
-0.0104 -0.1146 -0.2768 0.701 -0.295 0.649 90 75 43 0 0
-0.0150 -0.1116 -0.2955 0.566 -0.824 0.026 41 31 22 0 0
-0.0136 -0.1161 -0.3241 0.778 -0.433 0.454 103 86 53 0 0
-0.0775 -0.0524 -0.3815 0.217 -0.936 0.278 18 13 10 0 0
-0.0770 -0.0530 -0.3830 0.185 -0.901 0.392 29 24 20 0 0
-0.0776 -0.0535 -0.3936 0.203 -0.971 -0.128 28 20 17 0 0
-0.0779 -0.0533 -0.3955 0.358 -0.933 -0.037 30 22 17 0 0
-0.0787 -0.0624 -0.4903 0.671 -0.741 0.009 82 66 41 0 0
-0.0832 -0.0597 -0.5117 0.675 -0.697 -0.240 53 44 36 0 0
-0.0834 -0.0597 -0.5136 0.878 -0.420 -0.228 52 44 38 0 0
-0.0860 -0.0574 -0.5191 0.723 -0.637 -0.267 30 25 22 0 0
-0.0979 -0.0477 -0.5500 0.039 -0.997 -0.070 7 7 7 0 0
-0.0283 -0.1241 -0.5542 0.452 0.411 0.792 84 74 56 0 0
-0.0314 -0.1228 -0.5748 0.755 -0.656 0.019 142 123 85 0 0
-0.0314 -0.1230 -0.5767 0.755 -0.656 0.019 144 125 85 0 0
-0.0315 -0.1231 -0.5786 0.755 -0.656 0.019 146 128 86 0 0
-0.0316 -0.1232 -0.5805 0.755 -0.656 0.019 158 137 92 0 0
-0.0313 -0.1237 -0.5821 0.864 -0.472 0.173 162 140 97 0 0
-0.0328 -0.1273 -0.6317 0.894 -0.373 0.246 179 161 117 0 0
-0.0332 -0.1282 -0.6453 0.694 -0.694 0.190 176 160 112 0 0
-0.0345 -0.1319 -0.6947 0.752 -0.594 0.287 139 117 77 0 0
-0.0559 -0.1171 -0.7766 0.289 -0.915 0.283 112 101 76 0 0
-0.0557 -0.1175 -0.7785 0.321 -0.868 0.378 84 73 48 0 0
-0.0554 -0.1180 -0.7803 0.359 -0.895 0.263 80 69 42 0 0
-0.0501 -0.1336 -0.8741 0.919 -0.295 0.261 147 143 140 0 0
-0.0195 -0.1027 -0.2364 0.353 -0.715 0.603 139 123 97 0 0
-0.0189 -0.1035 -0.2377 0.353 -0.715 0.603 132 117 87 0 0
-0.0185 -0.1041 -0.2390 0.246 -0.829 0.502 147 130 98 0 0
-0.0180 -0.1048 -0.2404 0.246 -0.829 0.502 162 146 108 0 0
-0.0121 -0.1125 -0.2531 0.578 -0.693 0.431 63 48 28 0 0
-0.0790 -0.0534 -0.3832 0.166 -0.928 0.333 34 29 24 0 0
-0.0789 -0.0537 -0.3849 0.403 -0.728 0.554 46 38 31 0 0
-0.0784 -0.0544 -0.3864 0.447 -0.780 0.438 48 43 33 0 0
-0.0783 -0.0547 -0.3880 0.427 -0.878 0.215 33 29 19 0 0
-0.0794 -0.0540 -0.3938 0.309 -0.950 -0.055 35 28 23 0 0
-0.0798 -0.0538 -0.3957 0.448 -0.894 0.026 38 31 24 0 0
-0.0837 -0.0554 -0.4508 0.968 -0.238 0.085 53 47 43 0 0
-0.0861 -0.0541 -0.4631 0.767 -0.619 0.169 14 13 11 0 0
-0.0878 -0.0579 -0.5175 0.433 -0.710 -0.556 25 20 19 0 0
-0.0906 -0.0553 -0.5212 0.366 -0.736 -0.570 24 20 20 0 0
-0.0309 -0.1236 -0.5533 0.156 -0.062 0.986 97 86 67 0 0
-0.0285 -0.1263 -0.5552 0.801 -0.238 0.549 113 100 70 0 0
-0.0346 -0.1310 -0.6625 0.822 -0.335 0.461 176 158 112 0 0
-0.0341 -0.1317 -0.6640 0.842 -0.422 0.337 168 147 100 0 0
-0.0353 -0.1335 -0.6942 0.589 -0.777 0.222 131 109 67 0 0
-0.0352 -0.1353 -0.7098 0.819 -0.570 0.065 142 127 88 0 0
-0.0357 -0.1356 -0.7181 0.740 -0.615 0.272 85 69 35 0 0
-0.0490 -0.1256 -0.7597 0.356 -0.778 -0.518 112 95 61 0 0
-0.0581 -0.1173 -0.7753 0.449 -0.805 0.389 85 74 50 0 0
-0.0577 -0.1178 -0.7770 0.449 -0.805 0.389 81 71 50 0 0
-0.0460 -0.1385 -0.8525 0.781 -0.594 -0.193 147 128 90 0 0
-0.0465 -0.1387 -0.8595 0.852 -0.519 -0.071 31 30 19 0 0
-0.0333 -0.0893 -0.2301 0.548 -0.759 0.351 164 164 156 0 0
-0.0333 -0.0895 -0.2317 -0.050 -0.527 0.848 141 134 118 0 0
-0.0322 -0.0908 -0.2328 -0.231 -0.498 0.836 141 128 106 0 0
-0.0137 -0.1129 -0.2516 0.578 -0.693 0.431 46 35 18 0 0
-0.0133 -0.1134 -0.2530 0.578 -0.693 0.431 52 39 21 0 0
-0.0140 -0.1140 -0.2652 0.684 -0.677 0.274 85 71 44 0 0
-0.0138 -0.1143 -0.2666 0.684 -0.677 0.274 81 67 40 0 0
-0.0203 -0.1104 -0.2966 -0.048 -0.829 0.557 47 44 33 0 0
-0.0195 -0.1114 -0.2978 0.176 -0.746 0.643 47 39 30 0 0
-0.0151 -0.1189 -0.3236 0.797 -0.523 0.303 100 83 53 0 0
-0.0808 -0.0542 -0.3851 0.370 -0.852 0.370 43 35 27 0 0
-0.0805 -0.0546 -0.3867 0.388 -0.796 0.465 48 41 32 0 0
-0.0808 -0.0550 -0.3938 0.401 -0.916 -0.018 37 32 26 0 0
-0.0813 -0.0547 -0.3957 0.464 -0.886 0.010 48 46 38 0 0
-0.0797 -0.0606 -0.4352 0.840 -0.475 -0.261 89 77 55 0 0
-0.0847 -0.0567 -0.4506 0.980 -0.195 -0.033 57 47 43 0 0
-0.0793 -0.0671 -0.4924 0.676 -0.709 0.199 87 72 49 0 0
-0.0792 -0.0674 -0.4942 0.676 -0.709 0.199 89 75 49 0 0
-0.0785 -0.0687 -0.4992 0.698 -0.636 0.329 66 53 36 0 0
-0.0898 -0.0581 -0.5160 0.333 -0.775 -0.537 22 21 19 0 0
-0.1022 -0.0476 -0.5432 0.652 -0.753 0.086 7 7 7 0 0
-0.0402 -0.1162 -0.5559 0.906 0.411 -0.106 99 87 69 0 0
-0.0405 -0.1161 -0.5579 0.906 0.411 -0.106 101 88 65 0 0
-0.0350 -0.1333 -0.6635 0.832 -0.384 0.400 169 149 100 0 0
-0.0342 -0.1355 -0.6762 0.863 -0.493 -0.106 166 145 101 0 0
-0.0344 -0.1354 -0.6783 0.863 -0.493 -0.106 155 134 89 0 0
-0.0365 -0.1348 -0.6940 0.743 -0.600 0.297 146 125 85 0 0
-0.0509 -0.1262 -0.7602 0.261 -0.828 -0.496 104 89 56 0 0
-0.0599 -0.1181 -0.7756 0.616 -0.694 0.371 68 60 37 0 0
-0.0596 -0.1185 -0.7774 0.465 -0.759 0.455 43 35 18 0 0
-0.0513 -0.1297 -0.7977 0.388 -0.911 0.142 76 61 34 0 0
-0.0508 -0.1305 -0.7992 0.289 -0.921 0.262 62 47 18 0 0
-0.0439 -0.1409 -0.8272 0.812 -0.547 0.202 167 149 99 0 0
-0.0440 -0.1409 -0.8295 0.857 -0.450 0.251 168 151 102 0 0
-0.0348 -0.0903 -0.2332 -0.252 -0.539 0.804 144 135 118 0 0
-0.0152 -0.1133 -0.2502 0.510 -0.677 0.531 42 32 17 0 0
-0.0147 -0.1139 -0.2516 0.545 -0.669 0.505 44 35 21 0 0
-0.0143 -0.1161 -0.2678 0.494 -0.468 0.733 83 69 43 0 0
-0.0222 -0.1096 -0.2876 0.245 -0.910 -0.336 39 34 29 0 0
-0.0820 -0.0554 -0.3867 0.388 -0.796 0.465 38 31 25 0 0
-0.0810 -0.0569 -0.3897 0.841 -0.541 -0.013 34 27 21 0 0
-0.0816 -0.0616 -0.4408 0.784 -0.609 -0.117 86 73 55 0 0
-0.0819 -0.0615 -0.4427 0.784 -0.609 -0.117 88 75 57 0 0
-0.0802 -0.0690 -0.4957 0.785 -0.552 0.281 74 61 39 0 0
-0.0797 -0.0699 -0.4990 0.698 -0.636 0.329 54 44 31 0 0
-0.1116 -0.0425 -0.5661 0.545 -0.716 -0.436 5 5 5 0 0
-0.0304 -0.1304 -0.5671 0.819 -0.519 0.243 159 143 105 0 0
-0.0304 -0.1309 -0.5707 0.818 -0.575 -0.010 159 141 98 0 0
-0.0301 -0.1319 -0.5777 0.744 -0.642 0.184 154 134 95 0 0
-0.0333 -0.1333 -0.6228 0.901 -0.391 0.188 168 149 106 0 0
-0.0343 -0.1339 -0.6388 0.836 -0.515 0.190 178 160 114 0 0
-0.0343 -0.1340 -0.6407 0.801 -0.595 0.064 174 157 111 0 0
-0.0351 -0.1359 -0.6661 0.749 -0.644 0.158 174 153 108 0 0
-0.0352 -0.1360 -0.6681 0.836 -0.479 0.267 135 114 74 0 0
-0.0368 -0.1361 -0.6850 0.913 -0.388 0.128 177 160 115 0 0
-0.0510 -0.1334 -0.8041 0.659 -0.721 0.213 93 79 48 0 0
-0.0351 -0.0922 -0.2328 0.346 -0.595 0.725 160 156 145 0 0
-0.0347 -0.0927 -0.2342 0.184 -0.584 0.791 150 141 123 0 0
-0.0223 -0.1070 -0.2434 0.154 -0.918 0.366 141 122 94 0 0
-0.0216 -0.1080 -0.2446 0.244 -0.764 0.598 149 130 98 0 0
-0.0156 -0.1211 -0.3072 0.574 -0.810 0.121 97 78 45 0 0
-0.0819 -0.0582 -0.3876 0.672 -0.692 0.263 26 22 18 0 0
-0.0818 -0.0585 -0.3893 0.775 -0.620 -0.125 35 31 25 0 0
-0.0838 -0.0575 -0.4008 0.590 -0.807 -0.032 20 16 13 0 0
-0.0824 -0.0631 -0.4386 0.686 -0.704 -0.185 88 76 52 0 0
-0.0820 -0.0692 -0.4923 0.505 -0.485 0.714 82 70 45 0 0
-0.0831 -0.0691 -0.5022 0.727 -0.538 0.427 33 28 24 0 0
-0.1012 -0.0524 -0.5291 0.215 -0.846 -0.489 27 26 24 0 0
-0.1014 -0.0524 -0.5311 -0.013 -0.995 0.103 21 20 18 0 0
-0.1006 -0.0534 -0.5325 -0.128 -0.967 -0.219 17 16 14 0 0
-0.1072 -0.0470 -0.5389 0.183 -0.740 -0.647 13 12 11 0 0
-0.1113 -0.0449 -0.5610 0.027 -0.988 -0.153 7 7 7 0 0
-0.1117 -0.0447 -0.5632 0.079 -0.996 -0.027 6 6 6 0 0
-0.1120 -0.0446 -0.5654 0.081 -0.996 0.019 5 5 5 0 0
-0.0314 -0.1316 -0.5650 0.829 -0.536 0.157 139 120 84 0 0
-0.0314 -0.1318 -0.5668 0.819 -0.519 0.243 141 125 87 0 0
-0.0313 -0.1321 -0.5685 0.753 -0.658 -0.004 157 141 100 0 0
-0.0312 -0.1330 -0.5757 0.760 -0.636 0.130 167 147 110 0 0
-0.0312 -0.1331 -0.5775 0.744 -0.642 0.184 154 134 97 0 0
-0.0311 -0.1335 -0.5792 0.744 -0.642 0.184 178 159 117 0 0
-0.0339 -0.1330 -0.6036 0.903 -0.181 0.389 184 168 123 0 0
-0.0340 -0.1334 -0.6073 0.914 -0.339 0.225 184 170 123 0 0
-0.0353 -0.1359 -0.6441 0.637 -0.766 0.080 165 148 102 0 0
-0.0357 -0.1363 -0.6520 0.821 -0.541 0.183 167 149 101 0 0
-0.0500 -0.1380 -0.8119 0.274 -0.919 0.282 74 60 32 0 0
-0.0238 -0.1077 -0.2434 0.247 -0.837 0.488 136 118 94 0 0
-0.0235 -0.1081 -0.2448 0.230 -0.730 0.643 141 123 95 0 0
-0.0185 -0.1141 -0.2505 0.288 -0.812 0.508 129 113 89 0 0
-0.0315 -0.1040 -0.2873 -0.519 -0.848 -0.109 59 55 44 0 0
-0.0310 -0.1051 -0.2917 -0.013 -0.271 0.962 60 55 45 0 0
-0.0169 -0.1221 -0.3087 0.625 -0.777 0.071 100 85 52 0 0
-0.0822 -0.0604 -0.3888 0.874 -0.472 0.120 33 32 26 0 0
-0.0850 -0.0662 -0.4715 0.787 -0.617 0.007 73 61 51 0 0
-0.0851 -0.0664 -0.4734 0.787 -0.617 0.007 60 47 29 0 0
-0.0850 -0.0666 -0.4751 0.842 -0.477 0.252 65 50 29 0 0
-0.1001 -0.0557 -0.5236 0.477 -0.564 -0.674 16 15 13 0 0
-0.1007 -0.0552 -0.5259 0.150 -0.808 -0.569 20 19 17 0 0
-0.1043 -0.0518 -0.5302 -0.293 -0.938 0.185 30 29 27 0 0
-0.1038 -0.0525 -0.5318 -0.353 -0.909 0.224 25 24 22 0 0
-0.1038 -0.0527 -0.5336 -0.200 -0.972 -0.123 21 20 18 0 0
-0.1097 -0.0470 -0.5396 0.183 -0.740 -0.647 16 15 13 0 0
-0.1132 -0.0452 -0.5574 0.639 -0.759 -0.129 5 5 5 0 0
-0.1141 -0.0445 -0.5599 0.772 -0.632 -0.067 7 7 7 0 0
-0.1143 -0.0445 -0.5620 0.155 -0.972 0.177 10 10 10 0 0
-0.1142 -0.0448 -0.5639 0.246 -0.968 0.039 12 12 12 0 0
-0.1143 -0.0449 -0.5659 0.246 -0.968 0.039 10 10 10 0 0
-0.0359 -0.1263 -0.5387 0.951 0.184 0.250 50 44 34 0 0
-0.0354 -0.1273 -0.5418 0.845 0.310 0.436 94 84 64 0 0
-0.0322 -0.1334 -0.5663 0.771 -0.636 0.043 157 139 101 0 0
-0.0323 -0.1344 -0.5773 0.871 -0.490 -0.033 140 120 86 0 0
-0.0324 -0.1345 -0.5792 0.871 -0.490 -0.033 144 125 85 0 0
-0.0339 -0.1360 -0.6080 0.915 -0.390 0.099 186 172 126 0 0
-0.0348 -0.1361 -0.6180 0.775 -0.627 -0.079 181 162 116 0 0
-0.0349 -0.1362 -0.6199 0.714 -0.680 0.166 154 134 91 0 0
-0.0366 -0.1369 -0.6440 0.637 -0.766 0.080 167 147 102 0 0
-0.0369 -0.1377 -0.6538 0.740 -0.609 0.286 164 146 99 0 0
-0.0367 -0.1393 -0.6669 0.753 -0.635 0.173 146 125 82 0 0
-0.0373 -0.1421 -0.6984 0.771 -0.618 0.155 144 127 83 0 0
-0.0382 -0.1414 -0.7012 0.756 -0.655 -0.010 146 130 91 0 0
-0.0552 -0.1338 -0.8014 0.552 -0.737 0.391 71 54 31 0 0
-0.0547 -0.1346 -0.8029 0.484 -0.743 0.463 87 70 45 0 0
-0.0357 -0.0960 -0.2336 0.958 -0.142 -0.250 171 171 168 0 0
-0.0359 -0.0962 -0.2382 0.020 -0.716 0.697 146 135 115 0 0
-0.0340 -0.0985 -0.2390 -0.167 -0.662 0.730 140 124 102 0 0
-0.0323 -0.1003 -0.2400 -0.292 -0.613 0.734 143 125 100 0 0
-0.0264 -0.1070 -0.2424 0.326 -0.778 0.537 135 119 94 0 0
-0.0253 -0.1082 -0.2435 0.247 -0.837 0.488 132 116 93 0 0
-0.0250 -0.1087 -0.2449 0.201 -0.684 0.702 124 108 86 0 0
-0.0230 -0.1112 -0.2471 0.127 -0.540 0.832 129 113 89 0 0
-0.0227 -0.1116 -0.2485 0.037 -0.628 0.777 143 125 98 0 0
-0.0329 -0.1053 -0.2919 -0.028 -0.242 0.970 61 55 50 0 0
-0.0192 -0.1211 -0.3014 0.564 -0.477 0.674 124 113 91 0 0
-0.0173 -0.1239 -0.3083 0.452 -0.827 0.335 103 88 56 0 0
-0.0166 -0.1247 -0.3095 0.799 -0.558 0.224 104 89 56 0 0
-0.0241 -0.1202 -0.3426 -0.009 -0.838 0.545 131 115 81 0 0
-0.0850 -0.0715 -0.4960 0.568 -0.785 0.245 72 61 43 0 0
-0.0879 -0.0698 -0.5089 0.783 -0.422 -0.457 14 13 11 0 0
-0.1070 -0.0518 -0.5329 0.429 -0.585 -0.688 33 32 30 0 0
-0.1115 -0.0477 -0.5398 0.124 -0.830 -0.544 17 16 15 0 0
-0.1167 -0.0444 -0.5607 -0.125 -0.923 0.363 6 6 6 0 0
-0.0371 -0.1269 -0.5332 0.933 0.102 0.345 16 13 8 0 0
-0.0367 -0.1275 -0.5346 0.927 0.206 0.313 36 30 22 0 0
-0.0363 -0.1281 -0.5361 0.951 0.184 0.250 75 69 58 0 0
-0.0319 -0.1342 -0.5488 0.776 -0.399 0.489 141 122 83 0 0
-0.0355 -0.1380 -0.6193 0.918 -0.386 0.090 181 163 118 0 0
-0.0377 -0.1383 -0.6437 0.847 -0.526 0.075 171 153 106 0 0
-0.0378 -0.1406 -0.6666 0.722 -0.678 0.138 167 146 101 0 0
-0.0388 -0.1415 -0.6849 0.915 -0.393 0.090 139 121 86 0 0
-0.0387 -0.1419 -0.6867 0.901 -0.402 0.165 131 112 83 0 0
-0.0382 -0.1434 -0.6960 0.760 -0.638 0.127 151 131 86 0 0
-0.0414 -0.1428 -0.7226 0.600 -0.798 -0.053 151 132 93 0 0
-0.0478 -0.1480 -0.8334 0.723 -0.682 0.114 120 106 72 0 0
-0.0475 -0.1487 -0.8373 0.832 -0.551 0.072 135 119 85 0 0
-0.0478 -0.1491 -0.8439 0.510 -0.844 0.167 134 119 85 0 0
-0.0363 -0.0982 -0.2393 -0.167 -0.662 0.730 145 135 117 0 0
-0.0352 -0.0996 -0.2405 -0.237 -0.712 0.661 143 129 107 0 0
-0.0260 -0.1098 -0.2448 0.875 -0.444 0.194 121 105 85 0 0
-0.0228 -0.1193 -0.3009 0.190 -0.304 0.933 65 56 43 0 0
-0.0202 -0.1222 -0.3013 0.353 -0.365 0.861 100 88 68 0 0
-0.0187 -0.1246 -0.3083 0.517 -0.825 0.229 98 82 52 0 0
-0.0237 -0.1229 -0.3417 0.715 -0.689 0.121 122 106 72 0 0
-0.0249 -0.1218 -0.3438 0.045 -0.665 0.745 129 114 79 0 0
-0.1130 -0.0488 -0.5397 0.139 -0.908 -0.394 15 14 13 0 0
-0.1191 -0.0446 -0.5613 0.071 -0.839 0.539 7 7 7 0 0
-0.0372 -0.1291 -0.5322 0.933 0.104 0.344 53 47 35 0 0
-0.0366 -0.1300 -0.5335 0.927 0.206 0.313 81 73 54 0 0
-0.0402 -0.1415 -0.6752 0.705 -0.643 0.300 157 138 89 0 0
-0.0398 -0.1425 -0.6806 0.848 -0.517 0.114 171 153 106 0 0
-0.0395 -0.1433 -0.6842 0.796 -0.536 0.282 115 100 68 0 0
-0.0672 -0.1226 -0.7673 0.068 -0.893 -0.445 90 80 52 0 0
-0.0493 -0.1502 -0.8439 0.588 -0.793 0.160 133 119 84 0 0
-0.0379 -0.0988 -0.2394 0.527 -0.693 0.492 167 164 157 0 0
-0.0371 -0.0997 -0.2407 0.130 -0.735 0.666 151 143 130 0 0
-0.0366 -0.1004 -0.2420 -0.169 -0.715 0.678 143 134 112 0 0
-0.0223 -0.1167 -0.2519 0.360 -0.671 0.648 157 142 110 0 0
-0.0216 -0.1176 -0.2531 0.268 -0.637 0.723 164 148 114 0 0
-0.0161 -0.1244 -0.2615 0.426 -0.832 0.356 63 47 24 0 0
-0.0171 -0.1242 -0.2693 0.806 -0.589 0.049 75 59 36 0 0
-0.0223 -0.1222 -0.3016 0.072 -0.586 0.807 93 81 61 0 0
-0.0200 -0.1254 -0.3083 0.452 -0.827 0.335 93 75 46 0 0
-0.0186 -0.1277 -0.3153 0.626 -0.780 0.021 103 87 54 0 0
-0.0258 -0.1230 -0.3437 0.310 -0.613 0.727 119 104 70 0 0
-0.0939 -0.0636 -0.4652 0.323 0.282 0.904 30 29 27 0 0
-0.1135 -0.0501 -0.5333 -0.327 -0.903 0.278 37 36 34 0 0
-0.1110 -0.0532 -0.5374 -0.171 -0.870 0.462 10 9 7 0 0
-0.1180 -0.0467 -0.5460 0.621 -0.611 -0.492 4 4 4 0 0
-0.0375 -0.1409 -0.6204 0.673 -0.692 0.261 185 173 125 0 0
-0.0373 -0.1414 -0.6221 0.673 -0.692 0.261 187 173 128 0 0
-0.0374 -0.1414 -0.6241 0.574 -0.765 0.293 182 168 123 0 0
-0.0377 -0.1446 -0.6563 0.572 -0.566 0.593 175 154 105 0 0
-0.0405 -0.1449 -0.6857 0.870 -0.450 0.203 103 87 55 0 0
-0.0401 -0.1455 -0.6873 0.789 -0.584 0.192 141 121 86 0 0
-0.0405 -0.1465 -0.7013 0.916 -0.400 0.006 155 139 92 0 0
-0.0745 -0.1188 -0.7794 -0.020 -0.932 0.361 68 55 38 0 0
0.0685 -0.2808 -0.8639 0.611 0.270 0.744 214 213 211 0 0
-0.0252 -0.1159 -0.2524 0.089 -0.707 0.701 170 156 120 0 0
-0.0181 -0.1253 -0.2691 0.737 -0.675 0.038 74 59 34 0 0
-0.0367 -0.1083 -0.2949 0.239 -0.259 0.936 88 81 72 0 0
-0.0360 -0.1093 -0.2961 0.338 -0.408 0.848 84 77 69 0 0
-0.0357 -0.1097 -0.2976 0.263 -0.683 0.681 79 72 62 0 0
-0.0869 -0.0752 -0.4799 0.492 -0.786 0.374 65 48 31 0 0
-0.0866 -0.0758 -0.4815 0.492 -0.786 0.374 55 39 18 0 0
-0.0879 -0.0754 -0.4914 0.675 -0.571 0.468 66 51 32 0 0
-0.0900 -0.0748 -0.5055 0.563 -0.795 0.226 43 39 30 0 0
-0.0896 -0.0758 -0.5108 0.929 0.076 -0.363 16 15 14 0 0
-0.1224 -0.0459 -0.5576 -0.058 -0.985 -0.163 7 7 7 0 0
-0.0388 -0.1316 -0.5260 0.899 0.250 0.361 57 51 40 0 0
-0.0362 -0.1390 -0.5688 0.722 -0.465 0.513 175 159 115 0 0
-0.0356 -0.1398 -0.5701 0.879 -0.382 0.284 164 149 106 0 0
-0.0389 -0.1423 -0.6242 0.698 -0.707 0.114 187 172 128 0 0
-0.0388 -0.1426 -0.6260 0.619 -0.761 0.196 177 161 117 0 0
-0.0392 -0.1455 -0.6565 0.783 -0.582 0.221 159 139 91 0 0
-0.0411 -0.1466 -0.6850 0.806 -0.518 0.286 105 87 53 0 0
-0.0726 -0.1243 -0.7863 0.220 -0.716 0.663 83 72 50 0 0
-0.0717 -0.1253 -0.7875 0.205 -0.836 0.509 82 70 47 0 0
-0.0580 -0.1429 -0.8147 0.506 -0.821 0.265 113 98 72 0 0
-0.0578 -0.1433 -0.8166 0.558 -0.781 0.279 97 83 55 0 0
-0.0402 -0.1012 -0.2438 -0.175 -0.662 0.729 154 147 135 0 0
-0.0367 -0.1051 -0.2456 -0.350 -0.627 0.696 136 120 96 0 0
-0.0268 -0.1164 -0.2525 0.100 -0.704 0.703 181 168 126 0 0
-0.0185 -0.1261 -0.2598 0.644 -0.508 0.572 54 40 22 0 0
-0.0380 -0.1092 -0.2948 0.226 -0.251 0.941 101 94 83 0 0
-0.0371 -0.1103 -0.2960 0.721 -0.175 0.670 100 93 82 0 0
-0.0888 -0.0745 -0.4694 0.866 -0.499 -0.034 55 47 39 0 0
-0.0891 -0.0767 -0.4912 0.675 -0.571 0.468 66 50 31 0 0
-0.0913 -0.0757 -0.5036 0.658 -0.716 -0.234 78 70 58 0 0
-0.0914 -0.0758 -0.5055 0.448 -0.832 0.328 63 57 47 0 0
-0.0899 -0.0774 -0.5064 0.362 -0.825 0.434 51 47 41 0 0
-0.1219 -0.0479 -0.5466 -0.110 -0.968 0.227 6 6 6 0 0
-0.1217 -0.0483 -0.5483 -0.110 -0.968 0.227 5 5 5 0 0
-0.1226 -0.0479 -0.5528 0.450 -0.864 0.227 4 4 4 0 0
-0.0406 -0.1470 -0.6602 0.738 -0.580 0.344 159 142 93 0 0
-0.0402 -0.1475 -0.6618 0.738 -0.580 0.344 165 146 98 0 0
-0.0418 -0.1508 -0.7056 0.807 -0.556 -0.200 159 140 96 0 0
-0.0797 -0.1186 -0.7796 0.494 -0.711 0.500 61 54 36 0 0
-0.0792 -0.1193 -0.7811 0.494 -0.711 0.500 71 64 44 0 0
-0.0784 -0.1203 -0.7825 0.396 -0.727 0.561 86 78 58 0 0
-0.0743 -0.1251 -0.7866 0.198 -0.776 0.599 107 96 74 0 0
-0.0736 -0.1260 -0.7879 0.205 -0.836 0.509 108 96 71 0 0
-0.0567 -0.1495 -0.8367 0.458 -0.810 0.367 95 80 51 0 0
-0.0540 -0.1529 -0.8421 0.726 -0.551 0.411 132 117 79 0 0
-0.0551 -0.1535 -0.8583 0.765 -0.461 0.450 103 96 77 0 0
-0.0541 -0.1554 -0.8656 0.764 -0.639 -0.092 122 119 114 0 0
-0.0538 -0.1559 -0.8674 0.694 -0.573 0.435 153 151 149 0 0
-0.0190 -0.1289 -0.2714 0.814 -0.574 0.088 69 53 30 0 0
-0.0190 -0.1291 -0.2729 0.814 -0.574 0.088 70 53 29 0 0
-0.0169 -0.1318 -0.2766 0.357 -0.923 -0.141 77 72 56 0 0
-0.0423 -0.1068 -0.2945 -0.292 -0.400 0.868 101 95 81 0 0
-0.0391 -0.1102 -0.2947 0.085 -0.314 0.946 101 95 81 0 0
-0.0397 -0.1100 -0.2981 -0.104 -0.952 0.288 103 97 83 0 0
-0.0889 -0.0767 -0.4667 0.774 -0.631 -0.050 55 48 39 0 0
-0.0897 -0.0761 -0.4690 0.824 -0.566 0.012 54 47 37 0 0
-0.0895 -0.0774 -0.4797 0.620 -0.717 0.319 52 36 21 0 0
-0.0893 -0.0778 -0.4814 0.708 -0.665 0.237 47 32 15 0 0
-0.0929 -0.0767 -0.5056 0.471 -0.841 0.266 79 72 61 0 0
-0.0907 -0.0793 -0.5078 0.019 -0.744 0.668 45 40 36 0 0
-0.0930 -0.0777 -0.5148 0.826 -0.277 -0.491 29 27 26 0 0
-0.1234 -0.0489 -0.5466 0.761 -0.649 -0.026 6 6 6 0 0
-0.0377 -0.1448 -0.5913 0.878 -0.459 0.136 171 153 110 0 0
-0.0379 -0.1452 -0.5970 0.842 -0.538 0.041 176 158 115 0 0
-0.0393 -0.1461 -0.6185 0.889 -0.457 -0.038 183 170 125 0 0
-0.0419 -0.1479 -0.6582 0.619 -0.748 0.240 165 144 97 0 0
-0.0418 -0.1481 -0.6600 0.647 -0.741 0.178 157 138 90 0 0
-0.0411 -0.1490 -0.6614 0.640 -0.726 0.251 163 142 95 0 0
-0.0429 -0.1484 -0.6725 0.880 -0.467 -0.087 138 117 75 0 0
-0.0807 -0.1204 -0.7812 0.494 -0.711 0.500 32 25 13 0 0
-0.0749 -0.1275 -0.7898 0.085 -0.874 0.478 89 78 53 0 0
-0.0742 -0.1284 -0.7912 0.036 -0.904 0.426 94 81 56 0 0
-0.0591 -0.1489 -0.8315 0.245 -0.968 0.046 78 63 34 0 0
-0.0553 -0.1562 -0.8611 0.811 -0.576 0.100 45 40 31 0 0
-0.0554 -0.1564 -0.8633 0.673 -0.736 0.073 75 70 62 0 0
-0.0577 -0.1552 -0.8746 0.392 -0.748 0.536 185 184 181 0 0
-0.0416 -0.1044 -0.2463 -0.092 -0.751 0.654 165 161 155 0 0
-0.0399 -0.1065 -0.2487 -0.254 -0.737 0.627 139 129 111 0 0
-0.0386 -0.1079 -0.2498 -0.374 -0.712 0.594 146 135 114 0 0
-0.0373 -0.1095 -0.2508 -0.374 -0.712 0.594 134 121 97 0 0
-0.0177 -0.1322 -0.2689 0.643 -0.596 0.480 69 53 30 0 0
-0.0199 -0.1303 -0.2727 0.814 -0.574 0.088 69 53 29 0 0
-0.0207 -0.1341 -0.3139 0.638 -0.726 0.257 97 82 49 0 0
-0.0203 -0.1346 -0.3153 0.594 -0.711 0.376 97 81 47 0 0
-0.0197 -0.1354 -0.3165 0.534 -0.831 0.155 107 92 60 0 0
-0.0882 -0.0769 -0.4406 0.813 -0.575 -0.098 93 79 56 0 0
-0.0946 -0.0774 -0.5057 0.798 -0.591 -0.120 75 67 54 0 0
-0.0928 -0.0796 -0.5082 0.537 -0.642 0.547 60 54 47 0 0
-0.0896 -0.0832 -0.5098 0.075 -0.443 0.893 31 27 25 0 0
-0.0418 -0.1473 -0.6305 0.768 -0.582 0.267 173 153 110 0 0
-0.0415 -0.1478 -0.6322 0.768 -0.582 0.267 177 157 111 0 0
-0.0417 -0.1485 -0.6398 0.776 -0.629 -0.046 161 142 91 0 0
-0.0417 -0.1487 -0.6417 0.786 -0.617 -0.021 168 146 100 0 0
-0.0432 -0.1528 -0.6926 0.899 -0.391 0.198 163 144 95 0 0
-0.0433 -0.1536 -0.7005 0.840 -0.543 -0.008 170 153 108 0 0
-0.0822 -0.1215 -0.7812 0.494 -0.711 0.500 23 16 7 0 0
-0.0816 -0.1223 -0.7827 0.469 -0.811 0.349 22 15 9 0 0
-0.0585 -0.1568 -0.8715 0.493 -0.679 0.543 172 169 169 0 0
-0.0579 -0.1575 -0.8730 0.606 -0.358 0.710 185 183 183 0 0
-0.0418 -0.1069 -0.2504 -0.316 -0.784 0.534 167 163 153 0 0
-0.0406 -0.1083 -0.2515 -0.425 -0.774 0.470 159 153 139 0 0
-0.0188 -0.1332 -0.2688 0.550 -0.787 0.280 69 54 31 0 0
-0.0214 -0.1357 -0.3152 0.837 -0.402 0.371 95 76 44 0 0
-0.0210 -0.1362 -0.3165 0.835 -0.543 0.085 105 89 56 0 0
-0.0213 -0.1373 -0.3289 0.860 -0.508 0.048 102 86 53 0 0
-0.0866 -0.0786 -0.4179 0.645 -0.666 0.376 85 72 47 0 0
-0.0861 -0.0794 -0.4211 0.856 -0.371 0.360 92 78 52 0 0
-0.0886 -0.0779 -0.4312 0.784 -0.618 0.054 98 84 57 0 0
-0.0922 -0.0786 -0.4706 0.806 -0.578 -0.128 69 59 49 0 0
-0.0927 -0.0783 -0.4727 0.780 -0.599 -0.178 75 66 57 0 0
-0.0956 -0.0793 -0.5091 0.742 -0.661 0.110 76 70 60 0 0
-0.0431 -0.1486 -0.6323 0.475 -0.816 0.330 178 159 113 0 0
-0.0425 -0.1494 -0.6336 0.791 -0.609 0.065 169 150 104 0 0
-0.0441 -0.1526 -0.6767 0.991 -0.108 0.075 102 84 46 0 0
-0.0443 -0.1541 -0.6923 0.880 -0.474 0.013 172 151 104 0 0
-0.0439 -0.1547 -0.6939 0.719 -0.695 0.017 160 141 95 0 0
-0.0439 -0.1549 -0.6958 0.697 -0.716 -0.036 149 130 96 0 0
-0.0441 -0.1550 -0.6979 0.712 -0.702 0.024 147 128 93 0 0
-0.0850 -0.1212 -0.7803 0.187 -0.733 0.654 61 54 40 0 0
-0.0728 -0.1378 -0.8137 0.589 -0.805 0.075 78 63 36 0 0
-0.0582 -0.1575 -0.8525 0.452 -0.890 0.065 138 121 87 0 0
-0.0582 -0.1577 -0.8546 0.452 -0.890 0.065 116 103 73 0 0
-0.0585 -0.1577 -0.8571 0.434 -0.891 0.136 115 105 83 0 0
-0.0413 -0.1096 -0.2513 0.039 -0.708 0.706 175 176 174 0 0
-0.0404 -0.1108 -0.2525 0.039 -0.708 0.706 173 174 170 0 0
-0.0395 -0.1119 -0.2536 0.039 -0.708 0.706 168 168 163 0 0
-0.0381 -0.1135 -0.2546 -0.010 -0.600 0.800 160 157 147 0 0
-0.0210 -0.1322 -0.2618 0.712 -0.606 0.355 112 97 76 0 0
-0.0225 -0.1323 -0.2757 0.482 -0.876 -0.023 61 44 24 0 0
-0.0366 -0.1198 -0.2966 0.696 -0.478 0.535 95 88 74 0 0
-0.0258 -0.1313 -0.2982 0.378 -0.912 -0.161 89 77 62 0 0
-0.0256 -0.1316 -0.2996 0.779 -0.627 0.017 116 103 77 0 0
-0.0262 -0.1376 -0.3572 0.886 -0.464 0.002 85 76 56 0 0
-0.0239 -0.1402 -0.3592 -0.128 -0.884 0.449 36 31 21 0 0
-0.0879 -0.0790 -0.4126 0.777 -0.593 0.213 76 63 44 0 0
-0.0878 -0.0797 -0.4177 0.645 -0.666 0.376 87 74 49 0 0
-0.0868 -0.0808 -0.4190 0.780 -0.488 0.393 93 78 55 0 0
-0.0891 -0.0790 -0.4237 0.685 -0.714 0.145 97 83 56 0 0
-0.0975 -0.0794 -0.5057 0.466 -0.857 -0.221 62 53 40 0 0
-0.0974 -0.0800 -0.5093 0.784 -0.577 -0.231 74 66 56 0 0
-0.0956 -0.0825 -0.5155 0.994 -0.091 0.057 38 36 30 0 0
-0.0397 -0.1407 -0.5095 0.901 0.119 0.417 68 61 50 0 0
-0.0410 -0.1508 -0.6108 0.899 -0.369 0.237 173 155 108 0 0
-0.0443 -0.1567 -0.6929 0.513 -0.847 -0.139 156 139 93 0 0
-0.0871 -0.1216 -0.7810 0.259 -0.720 0.644 74 67 47 0 0
-0.0867 -0.1225 -0.7847 0.128 -0.936 0.329 75 65 52 0 0
-0.0796 -0.1332 -0.8131 0.575 -0.813 0.087 113 100 63 0 0
-0.0220 -0.1335 -0.2631 0.200 -0.732 0.652 125 110 89 0 0
-0.0240 -0.1328 -0.2758 0.456 -0.638 0.621 73 57 36 0 0
-0.0232 -0.1341 -0.2800 0.341 -0.711 0.614 87 74 52 0 0
-0.0226 -0.1349 -0.2812 0.303 -0.629 0.716 91 81 61 0 0
-0.0364 -0.1222 -0.2960 0.898 -0.439 -0.013 95 88 71 0 0
-0.0276 -0.1316 -0.2984 0.537 -0.844 -0.010 95 82 60 0 0
-0.0218 -0.1409 -0.3264 0.494 -0.629 0.601 107 91 58 0 0
-0.0261 -0.1385 -0.3439 0.515 -0.555 0.654 131 112 77 0 0
-0.0260 -0.1387 -0.3454 0.548 -0.455 0.702 145 129 89 0 0
-0.0909 -0.0805 -0.4326 0.586 -0.671 0.454 101 87 61 0 0
-0.0900 -0.0829 -0.4444 0.811 -0.584 -0.035 107 93 65 0 0
-0.0943 -0.0836 -0.4899 0.764 -0.436 0.476 46 36 24 0 0
-0.0981 -0.0822 -0.5124 0.639 -0.733 0.233 64 57 46 0 0
-0.0386 -0.1438 -0.5060 0.929 0.180 0.324 73 67 56 0 0
-0.0387 -0.1439 -0.5078 0.959 -0.095 0.268 87 77 60 0 0
-0.0370 -0.1509 -0.5540 0.436 -0.817 0.377 158 140 99 0 0
-0.0398 -0.1515 -0.5849 0.722 -0.690 0.045 158 142 104 0 0
-0.0912 -0.1198 -0.7794 0.129 -0.836 0.533 93 82 65 0 0
-0.0901 -0.1211 -0.7804 0.130 -0.801 0.584 81 71 53 0 0
-0.0899 -0.1220 -0.7865 0.369 -0.925 0.094 87 79 62 0 0
-0.0891 -0.1230 -0.7878 0.138 -0.967 0.215 73 63 46 0 0
-0.0667 -0.1517 -0.8334 0.396 -0.917 -0.041 111 95 63 0 0
-0.0642 -0.1586 -0.8709 0.615 -0.613 0.496 150 146 144 0 0
-0.0410 -0.1149 -0.2562 -0.093 -0.490 0.867 177 177 176 0 0
-0.0394 -0.1167 -0.2571 -0.186 -0.440 0.879 174 173 168 0 0
-0.0232 -0.1344 -0.2630 0.268 -0.698 0.663 133 118 93 0 0
-0.0260 -0.1336 -0.2821 0.511 -0.859 -0.041 88 77 53 0 0
-0.0227 -0.1374 -0.2852 -0.384 -0.923 -0.012 92 84 65 0 0
-0.0272 -0.1394 -0.3438 0.597 -0.442 0.669 129 112 77 0 0
-0.0275 -0.1399 -0.3502 0.757 -0.653 -0.003 119 104 69 0 0
-0.0275 -0.1400 -0.3518 0.860 -0.510 0.000 116 102 67 0 0
-0.0278 -0.1401 -0.3551 0.815 -0.569 0.113 121 105 69 0 0
-0.0882 -0.0848 -0.4233 0.852 -0.440 0.285 102 88 62 0 0
-0.0911 -0.0829 -0.4337 0.782 -0.564 0.266 95 81 55 0 0
-0.0904 -0.0842 -0.4385 0.833 -0.500 0.237 94 82 57 0 0
-0.0942 -0.0840 -0.4709 0.857 -0.330 0.397 68 59 44 0 0
-0.0946 -0.0838 -0.4730 0.488 -0.873 0.007 55 46 33 0 0
-0.0972 -0.0835 -0.4945 0.551 -0.834 0.035 38 29 20 0 0
-0.0380 -0.1464 -0.5029 0.845 0.022 0.534 96 89 69 0 0
-0.0383 -0.1520 -0.5539 0.762 -0.625 0.169 171 155 112 0 0
-0.0381 -0.1523 -0.5556 0.762 -0.625 0.169 175 159 114 0 0
-0.0385 -0.1522 -0.5577 0.849 -0.509 0.142 171 156 109 0 0
-0.0410 -0.1531 -0.5884 0.710 -0.654 0.263 105 88 62 0 0
-0.0431 -0.1570 -0.6418 0.780 -0.522 0.344 168 147 100 0 0
-0.0428 -0.1575 -0.6434 0.780 -0.522 0.344 179 160 112 0 0
-0.0438 -0.1574 -0.6518 0.880 -0.446 0.163 182 160 115 0 0
-0.0938 -0.1197 -0.7784 0.084 -0.674 0.734 89 77 59 0 0
-0.0932 -0.1205 -0.7799 0.129 -0.836 0.533 78 67 50 0 0
-0.0917 -0.1233 -0.7909 0.347 -0.798 0.492 124 112 88 0 0
-0.0825 -0.1345 -0.8046 0.547 -0.804 0.233 51 38 20 0 0
-0.0806 -0.1384 -0.8215 0.358 -0.810 0.464 98 83 53 0 0
-0.0650 -0.1601 -0.8680 0.430 -0.836 0.342 120 114 108 0 0
-0.0653 -0.1601 -0.8704 0.676 -0.461 0.575 155 151 149 0 0
-0.0627 -0.1629 -0.8717 0.714 -0.214 0.667 184 184 184 0 0
-0.0584 -0.1673 -0.8710 -0.089 -0.600 0.795 196 196 196 0 0
-0.0416 -0.1167 -0.2574 0.250 -0.544 0.801 179 179 177 0 0
-0.0407 -0.1177 -0.2586 0.040 -0.502 0.864 173 172 164 0 0
-0.0392 -0.1194 -0.2596 -0.111 -0.457 0.882 156 149 132 0 0
-0.0255 -0.1435 -0.3439 0.743 -0.668 -0.036 130 113 76 0 0
-0.0913 -0.0856 -0.4383 0.833 -0.500 0.237 100 88 62 0 0
-0.0934 -0.0859 -0.4589 0.893 -0.444 0.081 89 78 60 0 0
-0.0933 -0.0861 -0.4606 0.883 -0.385 0.269 82 71 53 0 0
-0.0929 -0.0870 -0.4639 0.848 -0.483 0.218 89 78 60 0 0
-0.0981 -0.0850 -0.4941 0.726 -0.629 0.279 29 21 13 0 0
-0.0980 -0.0853 -0.4959 0.762 -0.619 0.193 26 18 12 0 0
-0.0357 -0.1506 -0.4987 0.623 -0.260 0.738 95 87 61 0 0
-0.0364 -0.1502 -0.5009 0.907 -0.352 0.232 119 110 75 0 0
-0.0392 -0.1536 -0.5553 0.803 -0.577 0.150 142 122 78 0 0
-0.0394 -0.1536 -0.5573 0.849 -0.509 0.142 164 145 98 0 0
-0.0392 -0.1540 -0.5589 0.676 -0.709 0.203 168 151 105 0 0
-0.0392 -0.1541 -0.5607 0.405 -0.849 0.339 150 131 91 0 0
-0.0443 -0.1516 -0.5845 0.091 -0.983 0.161 56 46 30 0 0
-0.0443 -0.1580 -0.6397 0.741 -0.608 0.285 170 149 102 0 0
-0.0438 -0.1589 -0.6430 0.741 -0.608 0.285 177 159 111 0 0
-0.0459 -0.1597 -0.6695 0.531 -0.784 0.320 157 136 92 0 0
-0.0457 -0.1601 -0.6711 0.587 -0.726 0.358 160 138 96 0 0
-0.0951 -0.1211 -0.7803 0.386 -0.768 0.512 73 61 44 0 0
-0.0947 -0.1218 -0.7820 0.575 -0.802 0.162 95 82 64 0 0
-0.0942 -0.1225 -0.7836 0.417 -0.898 0.140 119 107 88 0 0
-0.0940 -0.1229 -0.7855 0.305 -0.926 0.222 100 91 72 0 0
-0.0938 -0.1233 -0.7874 0.361 -0.910 0.202 73 66 46 0 0
-0.0937 -0.1237 -0.7893 0.362 -0.908 0.212 105 95 72 0 0
-0.0933 -0.1243 -0.7910 0.391 -0.700 0.597 125 114 87 0 0
-0.0852 -0.1338 -0.7995 0.352 -0.882 0.313 56 44 28 0 0
-0.0713 -0.1526 -0.8373 0.640 -0.757 0.129 88 73 38 0 0
-0.0711 -0.1530 -0.8392 0.761 -0.647 -0.040 101 87 53 0 0
-0.0685 -0.1591 -0.8681 0.415 -0.903 -0.114 93 87 76 0 0
-0.0666 -0.1614 -0.8702 0.595 -0.587 0.550 161 157 156 0 0
-0.0566 -0.1716 -0.8693 -0.058 -0.802 0.595 199 198 196 0 0
-0.0414 -0.1193 -0.2599 -0.176 -0.468 0.866 169 168 159 0 0
-0.0283 -0.1370 -0.2955 0.959 -0.150 0.242 76 59 34 0 0
-0.0269 -0.1390 -0.2994 0.886 -0.055 0.460 75 57 32 0 0
-0.0905 -0.0874 -0.4248 0.739 -0.673 0.030 98 84 58 0 0
-0.0906 -0.0875 -0.4265 0.739 -0.673 0.030 99 85 59 0 0
-0.0905 -0.0879 -0.4300 0.690 -0.724 -0.023 93 79 52 0 0
-0.0907 -0.0880 -0.4318 0.690 -0.724 -0.023 92 78 52 0 0
-0.0909 -0.0881 -0.4355 0.690 -0.724 -0.023 96 83 58 0 0
-0.0937 -0.0867 -0.4476 0.826 -0.563 0.040 86 75 57 0 0
-0.0937 -0.0869 -0.4493 0.843 -0.515 0.155 80 68 50 0 0
-0.0936 -0.0872 -0.4510 0.843 -0.515 0.155 79 66 49 0 0
-0.0934 -0.0875 -0.4527 0.826 -0.560 0.067 71 61 42 0 0
-0.0932 -0.0880 -0.4544 0.842 -0.495 0.214 75 67 48 0 0
-0.0930 -0.0884 -0.4560 0.842 -0.495 0.214 84 72 56 0 0
-0.0933 -0.0883 -0.4580 0.862 -0.496 0.103 77 65 49 0 0
-0.1008 -0.0833 -0.4822 0.554 -0.817 0.158 34 25 16 0 0
-0.0366 -0.1520 -0.4984 0.685 -0.504 0.526 120 106 72 0 0
-0.0374 -0.1514 -0.5006 0.779 -0.528 0.339 139 125 86 0 0
-0.0402 -0.1549 -0.5550 0.803 -0.577 0.150 143 124 82 0 0
-0.0401 -0.1560 -0.5639 0.670 -0.721 0.179 133 116 75 0 0
-0.0473 -0.1506 -0.5822 0.315 -0.926 0.209 27 22 12 0 0
-0.0474 -0.1507 -0.5840 0.217 -0.972 0.095 38 31 19 0 0
-0.0461 -0.1522 -0.5848 -0.067 -0.931 0.360 49 40 28 0 0
-0.0455 -0.1530 -0.5862 0.304 -0.937 0.175 54 42 28 0 0
-0.0429 -0.1560 -0.5895 0.505 -0.771 0.387 82 65 46 0 0
-0.0467 -0.1611 -0.6670 0.775 -0.615 0.144 172 152 104 0 0
-0.0466 -0.1614 -0.6688 0.775 -0.615 0.144 171 150 102 0 0
-0.0465 -0.1617 -0.6706 0.696 -0.717 0.022 172 151 103 0 0
-0.0949 -0.1253 -0.7911 0.391 -0.700 0.597 100 88 61 0 0
-0.0874 -0.1342 -0.8003 0.371 -0.880 0.295 59 47 26 0 0
-0.0836 -0.1394 -0.8110 0.345 -0.834 0.431 69 55 30 0 0
-0.0820 -0.1423 -0.8220 0.636 -0.771 -0.006 107 92 63 0 0
-0.0692 -0.1612 -0.8693 0.307 -0.928 0.212 139 134 129 0 0
-0.0603 -0.1707 -0.8719 0.003 -0.812 0.583 199 198 196 0 0
-0.0417 -0.1213 -0.2610 -0.154 -0.419 0.895 166 165 156 0 0
-0.0301 -0.1459 -0.3684 0.962 -0.187 0.199 106 94 74 0 0
-0.0905 -0.0899 -0.4257 0.604 -0.766 0.221 101 87 61 0 0
-0.0907 -0.0899 -0.4276 0.713 -0.654 0.252 98 83 58 0 0
-0.0913 -0.0897 -0.4314 0.789 -0.603 -0.119 90 76 50 0 0
-0.0919 -0.0893 -0.4334 0.736 -0.671 -0.091 102 87 63 0 0
-0.0927 -0.0892 -0.4391 0.756 -0.641 -0.136 89 79 51 0 0
-0.0943 -0.0888 -0.4506 0.953 -0.247 0.173 62 50 34 0 0
-0.0950 -0.0894 -0.4616 0.738 -0.674 -0.033 57 44 31 0 0
-0.1016 -0.0851 -0.4836 0.828 -0.496 0.261 29 20 11 0 0
-0.1004 -0.0877 -0.4956 0.718 -0.664 0.209 21 16 12 0 0
-0.0417 -0.1561 -0.5587 0.848 -0.515 0.128 150 132 90 0 0
-0.0413 -0.1571 -0.5638 0.670 -0.721 0.179 152 134 92 0 0
-0.0490 -0.1513 -0.5824 0.315 -0.926 0.209 33 29 20 0 0
-0.0489 -0.1515 -0.5842 0.133 -0.945 0.298 27 26 19 0 0
-0.0474 -0.1534 -0.5866 0.036 -0.915 0.401 41 32 25 0 0
-0.0440 -0.1591 -0.6057 0.883 -0.425 0.198 156 139 92 0 0
-0.0441 -0.1593 -0.6076 0.768 -0.641 0.002 181 163 113 0 0
-0.0470 -0.1624 -0.6603 0.695 -0.712 0.105 170 149 104 0 0
-0.0473 -0.1628 -0.6663 0.857 -0.486 0.171 172 153 102 0 0
-0.0476 -0.1628 -0.6684 0.481 -0.875 0.053 174 154 103 0 0
-0.0709 -0.1613 -0.8632 0.176 -0.959 0.224 64 60 49 0 0
-0.0707 -0.1622 -0.8694 0.208 -0.836 0.507 146 143 136 0 0
-0.0624 -0.1712 -0.8726 0.072 -0.220 0.973 199 198 197 0 0
-0.0415 -0.1238 -0.2619 0.036 -0.582 0.812 165 162 150 0 0
-0.0313 -0.1462 -0.3620 0.942 -0.328 0.064 129 112 74 0 0
-0.0312 -0.1464 -0.3636 0.922 -0.383 0.055 133 117 82 0 0
-0.0311 -0.1466 -0.3651 0.899 -0.422 0.112 120 104 73 0 0
-0.0311 -0.1469 -0.3667 0.927 -0.336 0.165 98 80 51 0 0
-0.0306 -0.1476 -0.3680 0.923 -0.292 0.252 123 108 77 0 0
-0.0929 -0.0905 -0.4314 0.750 -0.659 -0.056 84 70 43 0 0
-0.0935 -0.0907 -0.4388 0.761 -0.648 -0.029 99 88 63 0 0
-0.0963 -0.0905 -0.4616 0.556 -0.817 -0.155 62 49 36 0 0
-0.1024 -0.0880 -0.4941 0.580 -0.815 0.001 23 16 11 0 0
-0.1020 -0.0888 -0.4974 0.618 -0.613 0.492 23 16 13 0 0
-0.1019 -0.0892 -0.4992 0.815 -0.507 0.279 25 18 12 0 0
-0.0393 -0.1528 -0.4898 0.959 -0.224 -0.173 98 84 60 0 0
-0.0398 -0.1526 -0.4918 0.911 -0.385 -0.145 129 114 83 0 0
-0.0406 -0.1520 -0.4941 0.973 -0.050 0.227 129 114 79 0 0
-0.0413 -0.1573 -0.5450 0.708 -0.706 0.019 130 110 71 0 0
-0.0414 -0.1574 -0.5468 0.708 -0.706 0.019 124 107 69 0 0
