ply
format ascii 1.0
element vertex 675
property float x
property float y
property float z
property uchar diffuse_red
property uchar diffuse_green
property uchar diffuse_blue
end_header
-0.051587063933202656 0.05788056512117873 -0.36449385116815 95 85 73
-0.05101550093984947 0.05845588759777669 -0.36592713648090713 106 97 84
-0.04560954739049185 0.06428238868824035 -0.36486571382192556 131 122 108
-0.043463516301159494 0.0665683415840709 -0.3654704801592876 127 117 107
-0.043762973285093945 0.06619788764968972 -0.36734044751595923 122 113 105
-0.03964823659679231 0.07062290542830968 -0.36690533844483686 112 104 92
-0.038055170553883855 0.07230868851803235 -0.3677776799465772 131 122 101
-0.03650874540520284 0.07394393826997384 -0.36866920631822975 168 155 123
-0.03496276860612074 0.07557883827706212 -0.3695557524749825 175 154 118
-0.03338251053786312 0.07725112752070344 -0.37041881915551333 220 203 164
-0.03217709531213214 0.0785162139000352 -0.37147697423597537 215 199 156
-0.03035272471330199 0.08045405880899197 -0.372198980830585 196 181 145
-0.029589911817086402 0.0812383396942687 -0.37348724301964087 137 126 104
-0.0285782184824806 0.08229316823382989 -0.37463908400465973 81 72 59
-0.027468373132403835 0.083454755705073 -0.3757347727159691 69 61 46
-0.027044039330175483 0.0838712603996853 -0.3772020962786202 88 78 62
-0.026475067197363714 0.08444499720350628 -0.3785900714607067 92 80 65
-0.026141421219656673 0.08476291537863614 -0.38010723855006345 84 73 58
-0.025690394756044344 0.08520843740664655 -0.38155989881332847 90 79 61
-0.02641829496149386 0.08437214203000853 -0.38366845264731664 110 99 78
-0.02680947392876617 0.0839018285580837 -0.38559448121073964 84 73 49
-0.027288741919322068 0.0833356209777856 -0.3875739649599092 88 75 51
-0.027549949957671543 0.08300642899817434 -0.38943499880137344 73 59 36
-0.027180272341488662 0.0833632543517955 -0.39094233794803224 66 50 29
-0.027705643246628164 0.08274662108978774 -0.3929588289964957 63 47 27
-0.027629767767096206 0.08278381424067745 -0.3946367818322452 62 47 25
-0.027362462370115512 0.08302918266348785 -0.3962067779155487 73 59 36
-0.027110147715567037 0.08325822163683876 -0.39778626799310635 84 70 48
-0.026751087371223073 0.08360335913646696 -0.39930498009260845 74 60 40
-0.026235836381778052 0.08411840748093022 -0.4007334289928736 66 52 31
-0.026140214704514442 0.08417691747985474 -0.4024061938617757 71 57 35
-0.02687872767734864 0.08332780903995023 -0.4045690272930008 76 63 40
-0.026234228289770234 0.08398341265027937 -0.4059245544260969 90 77 54
-0.026209738276498654 0.08396436574738117 -0.4076451411838756 82 69 46
-0.026099535222405823 0.08403854038365575 -0.40931698234883634 65 52 29
-0.025952863846179966 0.08415236004747963 -0.41096876470198124 79 66 40
-0.02574582758862974 0.08433183990113245 -0.4125859392167326 86 73 48
-0.025832694774998555 0.08419139557102605 -0.4143806877883898 90 76 52
-0.02503181599873297 0.08501718829669073 -0.41564307290720537 78 65 41
-0.025517124957602486 0.08444293558890521 -0.4176819954102573 77 64 39
-0.025648070007944557 0.08425433073727903 -0.41951021841511926 88 75 51
-0.025437862967552807 0.08443705914888659 -0.42113318300439573 77 64 41
-0.02564559803751512 0.08416472025886469 -0.42301332318135526 74 62 38
-0.0253913544708 0.08439530716386866 -0.42461259753789615 76 64 40
-0.02525079323948455 0.08450208168131218 -0.4262830329316494 75 63 38
-0.024905212479791286 0.08483207196940394 -0.4278278946904802 82 69 44
-0.024978247206431464 0.08470616979619898 -0.42963383835941993 86 74 49
-0.024726514093256546 0.08493389778414442 -0.43123942123305664 91 78 53
-0.023767347485165083 0.08593209900159969 -0.4324021208235131 88 75 50
-0.023124723216131418 0.08658558524744839 -0.43376167536137583 81 67 43
-0.02322500053058249 0.08642987005542975 -0.4355900972107499 82 68 45
-0.02379666785884893 0.08576057623269152 -0.437720570995858 82 68 45
-0.021682248585985053 0.08697900266011216 -0.47757092726405076 79 69 55
-0.02106036355268573 0.08751364271459154 -0.48259832907313 77 67 52
-0.020805620599003927 0.08774356150257545 -0.4842433095270786 64 53 39
0.023116476862004992 0.1307481173749188 -0.640192471810841 13 12 10
0.0237948720610226 0.13144176768964094 -0.6414838576503755 11 10 9
0.0228269165644593 0.13032648719755013 -0.6444086130400286 7 6 7
0.022889437949997704 0.13034332366406437 -0.6463156253745177 7 7 7
0.023139027480438362 0.13056567261923568 -0.648038144682169 7 7 7
0.023991903225124817 0.13145100551412342 -0.6491574977860937 6 6 6
0.02250471708004527 0.12976446708790879 -0.6526259546848587 7 7 6
0.021967890077500593 0.1291222243855341 -0.6551482464785857 7 6 6
0.025244980231738545 0.13267225687418321 -0.6538211275950777 7 6 6
0.024949760591244152 0.1322956055735114 -0.6560989756477991 7 6 6
0.02368143191748863 0.13074416301111424 -0.6633512644207361 9 8 8
0.02157903333567006 0.12837974900354462 -0.6675025964440215 12 11 11
0.019021321372852798 0.1255142072915718 -0.6721379750051519 18 17 17
0.020953554784008815 0.12726732811559566 -0.684266666674359 52 49 44
0.020735089273398524 0.1269735224742935 -0.6865248668513797 56 54 49
0.021272556476998467 0.12751146948769915 -0.6879886626080698 53 51 46
0.02211965212615155 0.12839018248374687 -0.6891239642423114 53 50 45
0.022926468158260133 0.12922462509376126 -0.6902997246807577 54 49 45
0.02261966154080665 0.12883337045498894 -0.6926601513131462 55 50 45
0.022577587547729913 0.12873340010078502 -0.694742409609039 54 48 44
0.02160679857705576 0.12761096928859628 -0.6978232587648314 55 49 44
0.021020002536453225 0.12691105481198744 -0.7005002318108505 64 58 51
0.0205496397652387 0.12633916297404424 -0.7030582202825919 62 57 49
0.01912569749082349 0.12471713435025994 -0.706652999721999 63 57 51
0.01891612213531782 0.12443203071224535 -0.7089428575967096 67 59 53
0.019343925657918898 0.12484873580234482 -0.7105438819302069 64 58 49
0.021002628636478934 0.12662107583889187 -0.7108028967317966 66 63 53
0.02160739218344769 0.1272327760282485 -0.712207095450252 47 44 39
0.02170808721481847 0.1272892632845573 -0.7141632820719905 46 42 38
0.02202975511136107 0.12758911102915516 -0.7158787418416728 62 53 46
0.02246042094200286 0.12800901419260868 -0.7174749100022801 100 88 69
0.02243935081633852 0.12793120851657164 -0.7195710094760853 111 95 68
0.022543434210726312 0.12799122028827442 -0.721531369595892 94 79 51
0.022315831829178262 0.12768567990050994 -0.7238630147563555 103 86 56
0.022087707101014806 0.12737944786106914 -0.7261996479589967 159 138 97
0.021859129341961395 0.12707260018270042 -0.7285412060552141 165 142 102
0.021508974980073786 0.12663163775481964 -0.7310235907149982 118 105 73
0.021123389514465477 0.12615148407153745 -0.7335510471506899 97 87 56
0.02101574378461453 0.12597757014042257 -0.7357703690510945 137 121 87
0.020793202618087037 0.12567689589624392 -0.7381233767098907 152 130 96
0.02073364437516373 0.1255557942840365 -0.7402958975325384 137 119 86
0.019775211350166064 0.12444351460141384 -0.7434945319141173 138 123 86
0.019875903545965093 0.12449886172831903 -0.7454938927506358 153 136 95
0.019490524069111864 0.12401812726023395 -0.7480517902714152 142 126 93
0.018848847582233527 0.12325459298751154 -0.7509092611349353 111 97 62
0.01763426615011382 0.12185899910233028 -0.7544330521679915 119 106 69
0.01618546974446107 0.12020477811407826 -0.7582379249282701 148 131 93
0.013713166939075094 0.11742120770350892 -0.7632393432913991 126 112 78
0.011632345683047565 0.11506901100438802 -0.7678055642184329 88 76 53
0.008464501891286086 0.11151710760913885 -0.7736529430690224 63 51 37
0.008850841275591187 0.1118860846321407 -0.7753774698571744 63 52 38
0.008869162038312506 0.11184896058097454 -0.7775331777723905 55 43 30
0.009012403498778604 0.11194960890526467 -0.7795453756475309 52 40 27
0.01119839719026025 0.11430458715064828 -0.7791568483587633 60 48 31
0.012634493654931564 0.11583220223787394 -0.7796418645678869 61 49 28
0.012886787112691159 0.1160533281390343 -0.781520943675575 74 62 37
0.013787395345672984 0.11699006292518399 -0.7826325905267921 86 74 47
0.013950302745937324 0.11711248691151163 -0.7846189110504542 76 62 36
0.014156494453142987 0.11728264266536056 -0.7865557177381457 111 97 73
0.014393087320311443 0.11748631672541393 -0.7884579974113397 82 69 47
0.014479986659634375 0.11752465552517605 -0.7905414143399156 62 49 29
0.01484616401858635 0.11787132944576934 -0.792291641086159 70 57 34
0.015899518644270166 0.11897688530814884 -0.7932141298939877 76 64 42
0.01615524011557462 0.11920158249494822 -0.7950972215029101 55 41 25
0.015969619168765437 0.11893875480718552 -0.7975168609090938 58 45 29
0.017138912710915027 0.12017249919797454 -0.7982939331865609 62 50 32
0.01774222312471735 0.1207811070664008 -0.7997563635302521 58 44 28
0.01916998620192205 0.12230059972345372 -0.8002103913708326 60 45 27
0.01929423157264809 0.12238000205144298 -0.8022556363178454 75 62 38
0.01941288370235872 0.1224531607899218 -0.8043101515979791 107 93 62
0.020659255954212766 0.12377246841854228 -0.8049776109706165 99 81 56
0.020992527451811932 0.12408278615544296 -0.8067681086597256 113 95 69
0.021123386543836567 0.12416936116567001 -0.8088103670531429 148 133 102
0.021245834817322923 0.12424657702964689 -0.8108654405882187 128 110 80
0.021697529536109483 0.12468768589506374 -0.8125128804060088 130 112 80
0.02140115420393221 0.12430178802118819 -0.8150947453142331 107 92 66
0.021728981450861606 0.12460587071155219 -0.8169002568244829 92 83 56
0.02060996905750015 0.12331017078951265 -0.820523356690872 97 87 61
0.020806287946649876 0.12346865017462452 -0.8225014192525255 81 70 41
0.020912828832532787 0.12352779537379502 -0.8245947674166323 130 117 82
0.021116469004230004 0.12369426019083682 -0.8265678005447611 171 157 122
0.02160212858104374 0.12417260008396194 -0.8281848816127352 166 152 121
0.025953775160606 0.12892723375437645 -0.8248830643492336 108 100 71
0.02548140838366647 0.1283461274867264 -0.8277093003443826 82 76 48
0.025990043505695587 0.1288501433186427 -0.8292872027125333 86 74 48
0.026590875886539772 0.12945617013874214 -0.8307467115223566 86 74 47
0.027428434096200466 0.13032415214112722 -0.831901032780353 87 76 47
0.028367167924920944 0.1313041559491373 -0.8329225159579937 113 100 71
0.02892353217706657 0.13186108424607046 -0.8344352201668035 89 74 42
0.029489952914752926 0.13242915528593643 -0.8359344099340867 107 92 50
0.02944667403751286 0.1323223950761778 -0.838225402266857 176 161 116
0.0305174906047688 0.13344877587259427 -0.8390683508578293 174 160 121
0.030935106261532105 0.13385214921435004 -0.840760653556877 132 117 84
0.032016697918771125 0.13499061165959417 -0.8415837045385255 133 119 82
0.032350443400802606 0.13530115840179038 -0.8433848108333311 120 107 68
0.031266028299005294 0.1340413456487197 -0.8470543338811461 134 122 84
0.03227466766288467 0.13509908094495857 -0.847971430328771 130 116 79
0.03142644897195246 0.13410047095908423 -0.8513427730087519 126 109 75
0.032903099146944476 0.13567658423586312 -0.851637967343666 136 120 80
0.033517298363278686 0.13629757027797393 -0.8530738724088865 142 127 81
0.034511615356553726 0.1373396580271383 -0.8540017920780834 122 112 80
0.03545544934444593 0.13832591118886342 -0.8549937045571849 105 101 80
0.03674122892777362 0.1396911038174245 -0.8555238745250842 66 62 50
0.0367713115032013 0.1396650898513996 -0.8577367600135863 66 63 56
0.03691278946186097 0.13976243212479808 -0.8598026644179906 75 70 64
0.030665673286917272 0.13277976271292735 -0.870505148321408 101 98 90
0.02980166850925775 0.1317620028229657 -0.87396068354604 135 133 127
0.04092404400399073 0.14373177741747079 -0.872454566800227 206 206 207
0.09289749952112893 0.1996183287263691 -0.867189570583938 213 213 213
0.09448413340662849 0.20132485215969592 -0.8670124603794036 208 208 208
0.09598642814880652 0.20293781005825823 -0.8669531110270801 209 209 209
0.09770961386834069 0.20479662978020127 -0.8665547263525536 211 211 211
0.09856996223792272 0.2056960375588888 -0.8674440026064544 213 213 213
0.10026650188575344 0.2075256322784702 -0.867070063672041 213 213 213
-0.0956358610147669 0.011024581653600943 -0.2579261725016985 177 179 178
-0.09726458306571412 0.009212019833058471 -0.26016921738052096 174 172 163
-0.09680315938930778 0.009666892526796825 -0.2616903116611261 170 161 139
-0.09587529767658096 0.01062784918578262 -0.26304727655524374 163 149 122
-0.09408769403935022 0.012521728761849357 -0.2640978428195736 153 138 114
-0.09155651483117577 0.015222629294843526 -0.2648778035111818 133 117 93
-0.08870742407656765 0.018268763087020065 -0.26553485954982914 162 147 122
-0.08591849826572898 0.021249885873562205 -0.2662032369264649 161 148 123
-0.08420872044965398 0.0230600936467395 -0.267252904535904 129 117 93
-0.08242869359826432 0.02494669450867655 -0.26827148704096915 124 113 87
-0.08113994275550863 0.02630021629039435 -0.2694646301951774 139 125 97
-0.07731282062837692 0.030409160995282042 -0.2697168652509725 138 123 95
-0.07625501455189003 0.031512334155402694 -0.2709829677019202 107 94 67
-0.07577371807405306 0.03198972737042276 -0.27246181207002435 85 73 50
-0.079784614548311 0.027590186095386687 -0.27562867501520133 98 87 68
-0.07935143124928204 0.028015082050852333 -0.27713528465152193 86 76 60
-0.07924706452615993 0.028082957410196452 -0.278766996167209 53 42 30
-0.07840076956591947 0.028956396212688126 -0.2801165502080019 62 48 34
-0.07709129988150777 0.030332836828888377 -0.2812862581791953 117 100 79
-0.07344776170859638 0.0342440519478963 -0.2815494487213368 223 206 179
-0.07371414498629882 0.03390945170817111 -0.283319449049455 220 203 169
-0.07343694548023302 0.03416513198489314 -0.2848799786460224 161 145 104
-0.07302774438094618 0.03456416157129212 -0.28638935371631064 159 146 114
-0.07269673070406574 0.034878259876826814 -0.2879298510808856 93 81 60
-0.07220098928170322 0.035371278441752224 -0.2894053550354718 73 59 41
-0.07136152256033665 0.03623769321137314 -0.2907431665603747 83 67 52
-0.07046355229687541 0.037167710975913926 -0.29205572766020904 122 107 84
-0.06964841739844592 0.03800778799406508 -0.29339981298202494 142 127 94
-0.06450248090269156 0.043553271331508644 -0.29298095973337984 160 140 102
-0.06293473696788701 0.04521144449413056 -0.2940044063041991 176 154 113
-0.062102603701464226 0.04607043226924433 -0.29532531272437074 161 138 99
-0.06535080258791345 0.04249549409238297 -0.29833125817335965 144 122 90
-0.06514101063391135 0.042678010026425114 -0.29991651248784584 140 123 94
-0.06394248980532878 0.043935038459344586 -0.3010896938622323 78 64 41
-0.06382328732841834 0.04401909867806003 -0.302712944362897 57 46 26
-0.06350636164849519 0.04431802647217788 -0.30425417198061233 39 26 13
-0.06298087926397247 0.04484363372563617 -0.30570744738519723 46 33 19
-0.06262731246952856 0.04518237187089029 -0.30723376460305635 88 75 55
-0.06209456069560758 0.04571588953642493 -0.3086836307918288 107 96 64
-0.05846928317110511 0.04961148059227831 -0.30879918570400566 97 84 54
-0.05799957134118955 0.05007667001753506 -0.3102686624995312 100 86 60
-0.0576033801241176 0.050461924540326344 -0.3117700872843289 117 103 77
-0.05720026420513982 0.05085470217124602 -0.313268714017203 88 74 47
-0.05666820487149553 0.05138768776781934 -0.31471076063802605 85 71 45
-0.059613429280121366 0.04813925835668374 -0.317691663425716 74 59 38
-0.05884682712069372 0.04892712160843646 -0.3190364915149011 53 38 17
-0.05786281447678386 0.04995147716262924 -0.3202826561978065 94 79 55
-0.0569131101005161 0.05093858337539631 -0.3215418115046093 132 117 92
-0.05686396508505903 0.05094620171026869 -0.3232055194375942 85 68 46
-0.0564365272745324 0.0513652676962402 -0.32469929635521616 74 56 32
-0.0563492376018577 0.051414305242153374 -0.3263483916346663 134 117 88
-0.05634448237046359 0.05137350856622398 -0.3280369960582869 139 122 93
-0.055788312769610104 0.051932573908908375 -0.3294734948382513 101 86 59
-0.053786843799032355 0.05406417225012919 -0.3302400609522416 90 75 49
-0.05293875552649703 0.054940986837852396 -0.3315363864621372 132 117 92
-0.05263761481265601 0.055222691108463076 -0.33308673171840975 100 86 60
-0.053432335989765975 0.05431184785140972 -0.3351529052728506 116 103 78
-0.05297455446181419 0.054763914502537744 -0.336633142781359 78 63 40
-0.05227872304988171 0.05547506049853064 -0.33800034280012103 93 78 54
-0.052330039962126346 0.05537304173894288 -0.3397228001139225 97 81 55
-0.05195464237653863 0.0557354225227117 -0.34124304317499016 129 112 85
-0.051365963534522344 0.0563299558930533 -0.34266090873700106 133 118 87
-0.05104065886094404 0.05663780075855558 -0.3442055919049284 98 84 58
-0.050737140718201706 0.056921911952956525 -0.3457614481330753 74 60 36
-0.050433519628186096 0.05720611670644471 -0.3473179352723049 69 57 35
-0.04958859364327323 0.05807966356058478 -0.34860936584488844 71 60 39
-0.04932244246384407 0.058323066707466356 -0.350184439321768 102 92 75
-0.04954845360310184 0.058030528844633486 -0.35200427835106085 66 57 41
-0.048201522520540926 0.05945078861597221 -0.35304407700661034 47 38 23
-0.04780459300700343 0.059836580803976386 -0.35455492935178673 44 35 20
-0.04882439653134954 0.05867940928137011 -0.35677807814883655 47 38 24
-0.051137511134992444 0.05611342929128503 -0.35966116500244877 62 50 36
-0.050481456147501394 0.05678118317961331 -0.3610509974274961 69 55 41
-0.050742450866739605 0.05645003321031694 -0.3629072382338756 76 64 48
-0.04863701286536508 0.05869666649745761 -0.3635552426230989 89 80 67
-0.04877727871809327 0.05849700913131381 -0.36535053343773266 103 95 84
-0.04548757180864349 0.062034157773665846 -0.36537633161615324 125 117 103
-0.046414583567384426 0.060977375235627906 -0.36757748873308893 132 122 110
-0.04322973969777698 0.06440072265084616 -0.3676411099293022 123 113 104
-0.03947003990295832 0.06845082601098461 -0.36739068124018176 118 108 97
-0.03759877206237949 0.07044346388291779 -0.3681181957521341 134 123 104
-0.03596672041817617 0.07217558754908607 -0.36896538929226713 164 148 121
-0.03445072086504 0.07378138324053961 -0.36986856443263605 167 147 113
-0.03253404810478938 0.07582402297118677 -0.37055297105077273 222 205 169
-0.03060408169460408 0.07788134327314031 -0.3712232474544151 216 199 160
-0.027869008582898085 0.08081647026910493 -0.3714532397230653 207 193 159
-0.02727745774709823 0.08141518925436207 -0.37283075783002095 155 143 122
-0.02920155706894384 0.07927139296670416 -0.3755731626092753 69 58 46
-0.02804569556968177 0.08048522924738859 -0.3766475897673458 67 57 44
-0.02699662390939029 0.08158272333048788 -0.37777708373404983 102 93 78
-0.024579481633749102 0.08417201979700571 -0.3781511854275872 108 99 84
-0.024383474240413525 0.08433953759138132 -0.37974283242155465 86 76 62
-0.024522645326477355 0.08414150596301583 -0.3815216312290779 86 75 59
-0.02492306949261002 0.08365848062975402 -0.3834488112746719 88 77 56
-0.02518500080531034 0.08332639156973855 -0.3853025454997973 82 71 48
-0.025215115559024115 0.0832470551570841 -0.38702938312345164 84 72 48
-0.025649200747437276 0.08272701451855959 -0.38898654742217414 84 72 48
-0.02625245816677739 0.08202231792023072 -0.3910438658505796 80 68 44
-0.026011189011874478 0.08223878550462478 -0.3926254377646988 85 73 51
-0.025899146829962125 0.08231424279908327 -0.3942818834587395 75 63 41
-0.02531821231527176 0.08290123724538352 -0.39567070881445865 83 71 49
-0.024962930490353447 0.08324203828541638 -0.39718898956869453 93 81 59
-0.024661110004801895 0.08352449185486795 -0.3987386635173868 81 69 48
-0.024656320599103526 0.0834827941519486 -0.40046175971516756 80 68 46
-0.024531132440918924 0.08357242998936515 -0.40211669876100303 78 66 42
-0.025233129841812488 0.08275925505806223 -0.40425825792667464 86 74 51
-0.02447291742992809 0.08354184145742433 -0.40554442607528757 85 73 50
-0.02435201682105892 0.08362665673997403 -0.40720707408277057 73 61 37
-0.024039227385946688 0.08392088936389352 -0.40875738377140886 68 56 30
-0.023738463444160945 0.0842019766704594 -0.41031551806093025 82 71 43
-0.02377894708101931 0.08411050216254345 -0.4120786609635418 87 76 48
-0.02395688576946907 0.08386889259913674 -0.41392683053265616 91 80 52
-0.023705003930854618 0.08409649496012234 -0.41551864294545815 85 72 45
-0.02371396641412049 0.08403925306821732 -0.41726950798486234 70 56 30
-0.02358715336380887 0.08413021339917054 -0.41894000378145624 78 64 38
-0.024219336866745905 0.08339227385912559 -0.42107584658513386 85 71 44
-0.0241925936378172 0.0833738093461048 -0.4228127947471745 85 74 46
-0.02367035744499589 0.08389645430153049 -0.4242466224162579 94 83 55
-0.023579410730036124 0.08394803532588295 -0.4259468207706283 86 75 47
-0.02321668594452514 0.08429643467620913 -0.427480037041783 83 71 43
-0.023007331183444557 0.08447728392275997 -0.42910929958457933 91 77 51
-0.02196759016566792 0.08410174634950406 -0.4840482363298893 71 62 47
-0.02148665030733765 0.08457841572494887 -0.48553959776928785 69 60 46
-0.021071052133428164 0.0849835611237613 -0.4870770654177028 66 56 44
0.028531907609170473 0.1350138304997417 -0.6089760985403946 19 16 14
0.028969136476009544 0.13544330055521372 -0.6104744924067355 24 22 19
0.028449156078406396 0.1348185477041814 -0.6128854485750576 16 15 12
0.027944551605219123 0.13421057555681407 -0.6152873946538161 11 8 6
0.02787812700270431 0.13408510936113704 -0.6172746762240999 19 16 12
0.027867603275777753 0.13402114001468796 -0.6192112245077384 28 25 22
0.02873905043773882 0.13492873561562505 -0.6202993678064994 31 30 26
0.028060988656892563 0.13412922985084436 -0.6228849355879826 24 23 18
0.02622376743381613 0.1320523477786298 -0.626602647134765 24 22 17
0.026316346791035297 0.13210156168535953 -0.628454487275569 16 14 8
0.025767548897577083 0.13144392641496264 -0.6309350028539451 31 29 25
0.026317301258461268 0.13199680853937118 -0.6323450906294742 42 38 34
0.026403551682976603 0.1320388569002281 -0.6342101430075727 24 19 15
0.026873661715355088 0.13250394773293 -0.6356989968116359 16 12 10
0.026650033637342266 0.13220432469761934 -0.6378736915309353 15 13 10
0.026677670020667343 0.132181583841048 -0.6398032531771877 11 9 6
0.026457724622406656 0.1318858207295528 -0.6419816458256837 14 11 10
0.02652219409256451 0.13190353097560845 -0.6438803234463878 25 23 20
0.02662854957911484 0.13196736240932738 -0.6457394364492611 27 25 21
0.026548887532772306 0.1318260115595991 -0.6477873579424824 31 26 23
0.0262722965303432 0.1314673996197769 -0.6500367525879386 33 28 23
0.026541200684473534 0.13171028462101042 -0.6517397764730999 37 31 25
0.026291690082169722 0.13138134562917891 -0.6539689467944536 41 35 29
0.026041615939383977 0.13105166893657166 -0.6562029593253951 45 38 32
0.025827491387553234 0.13076153283295408 -0.658404630431301 47 41 35
0.02555921240479264 0.13041154222689694 -0.6606657088080407 46 41 36
0.025290336170516584 0.13006077276806505 -0.6629318095491827 52 46 42
0.025172592540355934 0.1298766390465236 -0.6650469943616296 45 39 34
0.024795154241865625 0.12940584761783036 -0.6674334052604002 46 42 37
0.024055274286786638 0.12853494838871565 -0.6701996500782711 49 47 42
0.02309625536491154 0.1274220032479797 -0.6732004521273552 58 56 49
0.022466012638208688 0.12667169471195977 -0.6758679966990302 68 62 53
0.022411417943291892 0.12655659868834945 -0.6779417879625051 76 68 59
0.021179698882902373 0.1251420210871934 -0.681250165246984 91 84 73
0.022110953087521784 0.1261149878100501 -0.6822995853885461 83 76 63
0.024816024211251342 0.12904639546069424 -0.6814796589813865 87 81 69
0.024972067866659564 0.12916373805330744 -0.6833360133498003 75 71 58
0.025572642282177843 0.1297718827704875 -0.6847237746879808 61 56 44
0.025826939876479396 0.12999766025089599 -0.6864782610122201 69 62 50
0.026156992796573547 0.13030706471059283 -0.6881533969589128 78 71 59
0.026060296721404072 0.13014512031911796 -0.6902849800940535 87 79 66
0.02591364961915052 0.12992790852872202 -0.6924735196016492 90 80 68
0.025814247437223325 0.12976278170431566 -0.694615114478531 82 74 61
0.025027654819161235 0.1288384131472702 -0.6975002743800567 94 87 70
0.023986522584765316 0.12763261898647257 -0.7006681282758069 93 86 69
0.023714937386168616 0.12727682653439445 -0.7030118240476397 106 100 85
0.023442741489942895 0.12692023405371144 -0.7053607891808741 106 96 81
0.023169872039470338 0.12656277166213076 -0.7077151076959944 86 77 64
0.023515199674196255 0.12688837385803792 -0.7093986719432313 63 57 47
0.02326349510041456 0.12655410363302888 -0.7117371447915268 41 37 30
0.023387704236786697 0.12663520954935428 -0.7136670918648815 53 48 41
0.02359113061202049 0.1268038223870084 -0.7155119178718007 57 49 38
0.023950685913770392 0.1271449862561221 -0.71718588942319 118 105 85
0.023919984418996135 0.12705467870661208 -0.7192930401831399 126 110 82
0.023836152995882723 0.12690554240190802 -0.7214623947562615 91 74 44
0.023847723551918693 0.1268617999444054 -0.7235289234181359 99 78 46
0.02375168802120417 0.12669898579425476 -0.7257186241033465 147 125 85
0.024031853941365727 0.12695211659328262 -0.7274902595782493 166 147 101
0.023697833583525146 0.12652593050870783 -0.7299534536866944 158 143 103
0.023436134248147028 0.12617959789079394 -0.7323402456958825 120 107 74
0.023050825549502482 0.12569640631940426 -0.7348714265957229 130 114 82
0.022799540733708518 0.1253613299898833 -0.7372561515591248 150 131 95
0.022535502895636064 0.12501201887901298 -0.7396599947801813 130 113 79
0.021831073514172725 0.12417532049143151 -0.7425705571240535 143 127 92
0.021330247089494284 0.12356370574331901 -0.7452559183407305 143 122 84
0.021094990229820212 0.12324579937662158 -0.7476431070209291 160 142 104
0.02040047708039533 0.12241951755234648 -0.7505627780661287 135 120 83
0.019100626780469462 0.12092306171160108 -0.7541877544303952 138 123 86
0.01779385815690661 0.11941863753555426 -0.7578321567154748 122 106 69
0.016479995677424183 0.11790604822912851 -0.7614962799861845 146 131 95
0.013407105160506 0.1144458414523408 -0.7672166286322455 108 96 69
0.010545139124707614 0.11121852961432013 -0.7727140745083604 75 65 46
0.010982659624057894 0.11164385121437129 -0.7743765851285627 59 51 34
0.007174930277320218 0.10736841087515098 -0.7810151797287821 62 52 36
0.009781695113458083 0.11019553032847806 -0.780142534307262 65 52 37
0.011520778694947581 0.11206208946928475 -0.7802787613982618 77 64 46
0.012638444852171471 0.11324061143266559 -0.7811412567065064 72 61 38
0.013949362400290488 0.11463330004958236 -0.7817706284042234 83 72 46
0.01475115978230064 0.11546216239445667 -0.7829996321277832 84 72 46
0.015137994628533505 0.11583137361749249 -0.7847210462350493 76 65 37
0.016456927813880876 0.11723325483141442 -0.7853293671489227 90 79 52
0.01550325158673152 0.11611721927826854 -0.788655163682084 92 79 54
0.0161911751143006 0.11681997596987795 -0.7900181312829151 85 75 49
0.016611792532796238 0.11722654411283953 -0.7917018043183539 78 65 40
0.017164266086493546 0.11777923322142902 -0.7932266270163937 83 69 48
0.017905481866059392 0.11854112918382129 -0.7945223906051554 74 60 43
0.016767324029134334 0.11721987280886226 -0.7980991659354099 57 44 27
0.017913775785300068 0.11843091305424977 -0.7989042332363236 60 47 29
0.019397627071546547 0.12001612422783095 -0.799292900177662 74 60 40
0.020128868645718126 0.12076707912243817 -0.800596553371219 75 60 40
0.02027226209007521 0.12086626425549832 -0.8026203698484041 73 60 37
0.020865762094645773 0.1214645124011231 -0.8040923041972797 77 64 38
0.021753092719276626 0.12238863648788872 -0.805200789531121 84 69 45
0.02241761000841419 0.12306571434218175 -0.8065824070268076 89 75 49
0.022900622303789545 0.12354150366220057 -0.8081881116082239 100 85 57
0.023110436203642185 0.12371424257132702 -0.8101338356700729 108 93 63
0.023022790503805513 0.12355694209159432 -0.8124525985990397 136 122 87
0.023114911385957337 0.12359897886545076 -0.814550280870177 104 89 62
0.022966306456194185 0.12337384863540335 -0.8169526216611509 88 76 49
0.022256004296511256 0.12252532511307132 -0.8200658202305563 100 89 61
0.022622199477559557 0.12287119650751685 -0.8218292855960955 87 75 45
0.022562449220079578 0.12274432487676132 -0.8241322606386585 141 127 85
0.02276145859016962 0.12290455170061837 -0.8261108135993152 180 164 126
0.023576697847332934 0.12374873977238932 -0.8273078210990308 156 143 113
0.02738924491078118 0.127920272598919 -0.8246815365822321 107 99 73
0.026927209374371458 0.1273468484865326 -0.8274965944642758 81 75 47
0.027384635288119852 0.12779410489410808 -0.8291396878799213 82 71 45
0.028352787422874115 0.1288084500615307 -0.8301266809544267 98 85 56
0.029388251815219882 0.12989763208669172 -0.8310236644067506 99 85 55
0.029987744401809735 0.13050274590534014 -0.8324801117014327 110 97 67
0.03054876029170564 0.13106514680506215 -0.8339856208891807 83 69 33
0.03050765350313256 0.13095876006357454 -0.8362725913485918 145 129 87
0.03156267054866067 0.13206988562034053 -0.8371358833864817 192 179 137
0.032047809562729346 0.13254802483766154 -0.8387392796428558 150 142 104
0.03336005711726117 0.13394509797748372 -0.8392599952702833 128 117 82
0.034509942409824676 0.13516192299174004 -0.8399881093949051 144 129 90
0.0345915146264682 0.13519175534797198 -0.8421174250768549 140 124 82
0.03341284343753212 0.1338210018699639 -0.8459122273467193 134 121 84
0.03362322464397011 0.13399372174673382 -0.8478810910202229 130 116 79
0.03365497801820855 0.13396784667106693 -0.8500887761242918 133 116 81
0.03367431948674979 0.1339280889127368 -0.8523161219353953 131 113 73
0.03528557845428054 0.13565794310333926 -0.8524243409954637 145 128 84
0.035967762611289866 0.13635508973154106 -0.8537666296636454 121 109 77
0.03683694995566447 0.13726019631147798 -0.8548569336195234 115 109 87
0.037809620823136214 0.13828044542434687 -0.855805514698019 67 65 51
0.03777761874034391 0.13818353269966102 -0.8581041613679758 62 61 51
0.037981650690423197 0.13834902738995128 -0.8600876269823917 71 67 60
0.04012185423003489 0.14023634481384753 -0.8753265061084913 206 206 206
0.0396874299160179 0.13969078804355614 -0.8782087468249559 207 207 207
0.09405649612714122 0.19845850170264823 -0.8672636856578874 211 211 211
0.09575786331738098 0.20029776765902838 -0.8669119061239108 208 208 208
0.09707633159114162 0.20170990019429857 -0.8671247911948187 212 212 212
0.09861477211070616 0.20336775963915638 -0.8670006909429173 213 213 213
0.10007894507736745 0.20494292795095567 -0.8669803686757299 213 213 213
0.1007663670042114 0.20565106779963882 -0.8681255016406427 213 213 213
-0.10253500165925158 0.0011810115165898777 -0.25730038616586165 179 180 177
-0.10001839681704175 0.0038713755806366323 -0.25812614210786333 180 179 176
-0.09761454090852259 0.006439322998349109 -0.2589820493595645 179 179 174
-0.09628985390226849 0.007833362729755627 -0.26020517610265764 176 173 162
-0.09525657576699094 0.008910434661011837 -0.2615266267279599 167 161 143
-0.09310072658989146 0.011209076427857068 -0.2624500491350077 147 136 115
-0.09188080629232098 0.012489457214446262 -0.2636979461756322 141 128 108
-0.0903526554114864 0.014105362041718209 -0.2648326029605067 152 135 113
-0.08768837440832161 0.016957858642923596 -0.26555489931212317 172 156 130
-0.0848636650282591 0.019985229609530905 -0.266209689002534 191 177 149
-0.0830846221842679 0.02187475263479556 -0.2672339826422098 137 125 98
-0.08125355586005455 0.023821064466258826 -0.2682335038921052 134 121 97
-0.07937460881528455 0.025819665319533294 -0.2692094248601931 121 106 78
-0.07528292694304879 0.03022725771338755 -0.26936094373987773 128 112 80
-0.07426113697899586 0.03129317648282663 -0.270638392356361 127 113 81
-0.07389638773592279 0.031643820022218966 -0.27215916708165216 128 115 89
-0.07679578790062934 0.02844044872215401 -0.2749087076558988 120 108 85
-0.07692187372102485 0.02825641898973877 -0.276623194057414 89 77 59
-0.07677486622186798 0.028369695369901443 -0.2782362544710374 56 47 30
-0.07602730272107856 0.029136929975410758 -0.27962070077182644 51 41 26
-0.0746350846419564 0.030606259363221477 -0.28075558516270166 83 67 49
-0.07305621523076719 0.032278988224734004 -0.2818140370651406 183 164 135
-0.0725556774058257 0.03277737030675999 -0.2832875620948942 236 218 184
-0.07209697995084574 0.033230184494634316 -0.28477726500434564 185 170 131
-0.07154973220571735 0.033779456742874955 -0.28623205541138985 179 166 132
-0.07129094732428096 0.03401450206259218 -0.28780070516416795 190 180 153
-0.0705054697312644 0.03482331186049488 -0.2891603868029725 131 119 93
-0.06963002723382429 0.03573017812457677 -0.2904825490552876 124 108 82
-0.06850294696713306 0.036911267239077866 -0.29170146278213205 148 131 96
-0.06811090306770255 0.03729154126502432 -0.293215101109358 178 160 115
-0.06722153881364203 0.038213721712450535 -0.2945264547238229 174 153 107
-0.06633317209777564 0.03913486988788077 -0.29583626352970294 169 149 107
-0.06480346554322246 0.04075500033770274 -0.29688004964350573 138 119 85
-0.06371773107957898 0.0418914006583828 -0.29810280862098804 124 104 79
-0.06273582604691139 0.04291471516605534 -0.29936593877288986 87 70 48
-0.06255047505087098 0.043069867655874824 -0.30096001460499433 64 50 31
-0.062365039581579074 0.04322507894152498 -0.3025552418100751 47 35 20
-0.06213206757607666 0.043432076810357156 -0.3041315517684027 59 45 29
-0.06134288293930387 0.0442454137289975 -0.30547233288862635 89 73 51
-0.06093334064100159 0.0446448947242192 -0.30697386866766424 114 97 68
-0.060469673006861874 0.04510338327493167 -0.30845232838694814 141 125 90
-0.060151776024786704 0.0454029310720855 -0.30999369555501266 143 129 97
-0.059692729440607356 0.045856374941863814 -0.31147436801534 116 105 77
-0.05593658431834429 0.04990526253899977 -0.3115158209417145 85 72 44
-0.05516592809382295 0.05069874425810844 -0.31285221602229346 81 67 41
-0.05867911840484839 0.04682024386543382 -0.31607647025478075 63 48 27
-0.057800828044083846 0.047730928996866345 -0.3173719524978409 55 40 20
-0.056813731537776954 0.04876034811472811 -0.31861700559262324 90 75 50
-0.05613953646380283 0.04944852126119324 -0.31999974787713104 128 114 87
-0.055831299557869515 0.04973751057045164 -0.32154619827149916 101 86 62
-0.05560502659355909 0.04993706458526849 -0.3231303762293392 76 58 38
-0.05519640419302668 0.050335532737156144 -0.32463265969504973 89 72 45
-0.05534842669093008 0.050122297459792436 -0.3263913441515041 157 141 106
-0.05543042589424109 0.049985389070311345 -0.3281206258470938 169 154 119
-0.05454061496036805 0.05090884194126982 -0.3294037794734523 117 106 78
-0.05425871856205644 0.0511689618428514 -0.33096691357651153 78 66 42
-0.05328545530796858 0.052183561916952725 -0.3322085214861376 92 79 58
-0.052795359915778356 0.05267090798745046 -0.33367407626455786 77 62 43
-0.05215859049138123 0.05331834637315151 -0.3350703940414107 89 72 53
-0.051354050089414016 0.054148933157989784 -0.3363864779271255 88 72 50
-0.05086808447902194 0.05463181671082405 -0.3378523748751018 122 106 82
-0.05068331401965702 0.054785907460415534 -0.33946199075143774 108 93 71
-0.049949257999788776 0.05553962310264253 -0.3408091566029823 113 96 74
-0.04958319808063151 0.05589160759007297 -0.342332508996623 170 155 127
-0.049428737457107325 0.05601254905540379 -0.3439588072493839 95 81 58
-0.04882364190494551 0.05662550171429484 -0.345367017325028 75 60 37
-0.04853117644613128 0.0568970924520215 -0.34692748458258305 71 59 37
-0.048107646978534854 0.057311788952700726 -0.348424245781154 65 54 33
-0.04804454383496988 0.05733286069091818 -0.3500991795310475 65 53 36
-0.04815000500634234 0.057169781732774885 -0.35185958511722015 57 45 29
-0.0484857763221362 0.05675507813497316 -0.3537374400725616 60 48 34
-0.04878681166573552 0.05637821320754352 -0.35560157530283626 46 35 22
-0.04951818993270181 0.055531159171880215 -0.357685856198833 38 28 18
-0.050323740168894585 0.05460292184247044 -0.35981320179651816 53 40 28
-0.05106330934444382 0.05374660255197351 -0.36191293923213175 56 42 31
-0.04999313148620721 0.05486738240325466 -0.36309456804006124 72 59 46
-0.04886509343418728 0.05605146329502367 -0.36424362129092075 89 80 68
-0.047904190817081804 0.05705300595872252 -0.36547558654838186 94 86 76
-0.04649419361871089 0.0585453677337673 -0.3664727463206395 114 105 93
-0.04536972421704945 0.05972582477123366 -0.36761381056401177 131 121 109
-0.04189693056074752 0.06347283350724497 -0.3675253225681491 129 119 110
-0.038115056657411384 0.06755805569004607 -0.3672603591692415 122 112 101
-0.03526731499212861 0.07062269265551611 -0.3674718357845226 125 114 99
-0.03348193444807962 0.07252639257946059 -0.36823426447805896 134 120 98
-0.03157988262100475 0.07455781140505147 -0.36892827837957165 169 153 123
-0.030022133537452055 0.07621302483860126 -0.3697992460504969 209 193 159
-0.028344774486078583 0.07799915582901541 -0.37060072808808353 182 163 129
-0.02668926954133132 0.07976155778422117 -0.3714080913460732 183 165 133
-0.02709350544249154 0.07927194958702861 -0.3733245631467163 165 150 131
-0.02680568642581313 0.07953898456275013 -0.37486883174938584 90 80 67
-0.02590898117895534 0.08047185220484426 -0.37608134200498494 90 81 66
-0.02494069815233621 0.08148306038799258 -0.3772524128600279 101 92 76
-0.02359005301583992 0.08291252683465568 -0.3782103169455338 118 109 92
-0.02178646484995192 0.08483752785047795 -0.3789132359483195 87 76 58
-0.02291613049541729 0.08355423297999888 -0.38123961160177333 75 63 44
-0.023557581388861833 0.0828047823601925 -0.3833010859811648 82 70 48
-0.02354226099927658 0.08277366980519212 -0.38499965223267046 89 77 53
-0.02332072781373116 0.08296810289164319 -0.38658419673953054 89 77 53
-0.023752155425245447 0.08244810094695511 -0.38853898148202926 85 73 49
-0.024483768278798848 0.0815995267150866 -0.39066845317557486 91 79 55
-0.024128271433006138 0.08194034811143755 -0.39218372830961984 95 83 59
-0.0240918288611581 0.08193201467443727 -0.3938821447665939 91 79 55
-0.023956563162006977 0.08203177497525437 -0.3955257135698734 88 76 52
-0.023610000252185334 0.08236274551930894 -0.3970487579592413 91 79 56
-0.023761074445447686 0.08214903371327463 -0.39886089860764984 93 82 59
-0.022945814372999904 0.08299296927838999 -0.40011313845296964 96 84 60
-0.023094797755929083 0.08278144901789733 -0.40192752082934513 89 75 51
-0.02358944379946455 0.08219144466409121 -0.4039478266190219 89 74 51
-0.022427432930701235 0.08341499405904804 -0.40499569577318134 91 76 53
-0.022645064477114202 0.08312813534113496 -0.40685710784090645 89 75 49
-0.022488827764253524 0.0832505420612243 -0.4084994464026215 69 55 28
-0.022279053996800524 0.08343153143845876 -0.41011124112285635 85 70 43
-0.022328399600407528 0.08332873664353417 -0.41187957212268156 94 80 53
-0.022387336082792184 0.0832153699928437 -0.4136561237401764 86 72 45
-0.021906880944248572 0.08369267474893904 -0.4151090813157729 83 69 42
-0.022231178690247752 0.08328856333858072 -0.417050381420024 77 63 36
-0.021944295379072318 0.08355379488557044 -0.4186229824891915 77 63 36
-0.021919227946540304 0.08353220891032526 -0.420356607715583 91 77 50
-0.02228090200049007 0.08308689742847314 -0.4223299737034167 93 79 52
-0.022092986815630794 0.0832435741456106 -0.42396828984196044 98 83 57
-0.02199956235506627 0.08329668884988439 -0.4256664344333775 89 74 48
-0.021873035818661735 0.08338602345135847 -0.4273457609409506 95 81 54
0.028279511974451416 0.1324927199759468 -0.6045818649552598 56 53 47
0.02862643573367879 0.13282237385303358 -0.6061657371418812 51 46 43
0.028456386300430278 0.13258086925312684 -0.6082393687657883 50 45 39
0.029899112341566836 0.1341211567399187 -0.6087859252479361 65 58 48
0.029612077073800133 0.1337503179008107 -0.6109734805336065 80 73 62
0.02935608546142511 0.13341366171060828 -0.613135719118592 76 70 59
0.029188761525204665 0.13317487640429265 -0.615217176912123 80 74 63
0.028858301166337155 0.13275569199943857 -0.6174590293318908 92 85 73
0.028705359787760135 0.13253258537443713 -0.6195343984665851 95 90 77
0.029258038155480406 0.13308934008377338 -0.6209311725366684 81 76 64
0.029059185952714325 0.1328153396836168 -0.6230561307972244 78 72 61
0.028493429721294553 0.13213561041041932 -0.6255418268099029 80 75 62
0.02857815640913866 0.1321748894132027 -0.6273989226514981 81 76 62
0.02845090734789152 0.13197972771415167 -0.6294656520980282 83 78 64
0.028772596698184535 0.1322808927821354 -0.63109516597029 85 80 67
0.029137330367984896 0.13262963648940485 -0.6326830906820876 83 78 65
0.028654822034192146 0.13204136685884044 -0.6351082390649063 71 66 53
0.02895867100590936 0.13232266969156695 -0.6367600731763109 85 80 66
0.029721206805691694 0.13311130380957426 -0.6379570996128421 95 88 75
0.02969054961818375 0.13302256665267137 -0.6399427123261515 96 88 76
0.02985165132293141 0.13314588587175843 -0.641739573183074 104 96 83
0.02945831263780302 0.13265574536523606 -0.6440940330233567 102 94 79
0.029341668215929012 0.132471608256649 -0.6461753769604897 91 81 66
0.02917016710356471 0.1322266739706469 -0.6483154945023426 110 98 81
0.028957560736782545 0.13193614590237152 -0.6505009788179861 116 104 86
0.029057853198045075 0.1319917886252116 -0.6523730527234839 113 101 82
0.028636535847520517 0.13147006257514682 -0.6547780664611654 106 94 75
0.028577886495606594 0.1313496123570822 -0.6568182613558056 118 107 89
0.028476884514168396 0.13118219191261526 -0.6589049451284055 99 88 71
0.02847318956608065 0.1311223986131665 -0.660895125251365 106 96 80
0.028190396413962163 0.1307535306467663 -0.6631755107608734 101 92 76
0.027736630317844305 0.13019523345366754 -0.6656369891628963 98 89 73
0.027456246458576666 0.12982876492429485 -0.667924448783317 96 87 74
0.026797472688311327 0.12904314871308936 -0.6706095260530981 104 95 80
0.026165076165564752 0.12828655233691194 -0.6732739679884251 103 92 74
0.026246875984824586 0.1283207761674204 -0.6751987931699143 85 74 55
0.025865444981715432 0.12784184340725813 -0.6776114389989646 100 88 68
0.024874485960746748 0.12668757767293257 -0.6806699508425293 114 102 81
0.02538246345565706 0.1271935952615869 -0.6821572511630876 104 93 72
0.03043028132917157 0.13272928448262344 -0.6788444823608631 112 99 78
0.030166118383222196 0.13238019258487138 -0.6811359897978643 106 93 70
0.029846358259952008 0.13196936962581002 -0.6834911012780052 109 97 74
0.028840763882688913 0.13079840101069745 -0.6865825048650382 115 104 81
0.028384376394413546 0.13023583108666392 -0.6890955562139014 107 94 71
0.028112515921933798 0.12987761765315098 -0.6914163659988792 129 115 92
0.027882468738056096 0.1295656225261103 -0.6936967626375754 111 100 74
0.027591800937547012 0.12918630815839655 -0.6960468852811529 138 126 97
0.026783398119945304 0.12823290617811772 -0.6989619288376261 128 116 91
0.02596811413493305 0.12727165239078098 -0.7018923852837766 92 84 64
0.025581341285258283 0.12678529204889366 -0.7043645039300661 101 91 69
0.025546487264460252 0.12668900784586873 -0.7064578761809204 99 87 68
0.025161302673957386 0.1262041397109936 -0.7089378518049758 58 47 33
0.025469202879297978 0.12648777183524534 -0.7106623952297285 82 75 60
0.0253405549029104 0.12628719298091717 -0.7128685133696129 73 66 54
0.025387413817450882 0.12628118164666352 -0.7148846384447792 73 64 51
0.02548044072169854 0.12632630943085046 -0.7168523135485003 73 59 40
0.02570736618227383 0.12651991504095922 -0.7186737029923854 121 105 78
0.025660199866053543 0.12640938107563124 -0.720801811114312 150 132 98
0.025478959609794405 0.12614999245154945 -0.7230828992809963 137 116 77
0.025475448172743748 0.1260877042488126 -0.7251691048040487 136 113 73
0.025160407492946554 0.12567961637423367 -0.7276081479966519 150 129 85
0.02524027640329675 0.12570966890577992 -0.7296074785891199 165 147 102
0.0250096038615326 0.12539497706051078 -0.7319599958483826 135 119 81
0.024834633903368625 0.12514198965410905 -0.7342539113777277 116 100 69
0.024537710967862836 0.12475350716322012 -0.7366904586711691 162 146 107
0.024361481717825498 0.1244988786700372 -0.738994475361681 147 130 90
0.024111306556192633 0.12416203339918186 -0.7413871032889711 149 131 93
0.02330583675800499 0.12320847974008023 -0.7444203324472327 136 118 79
0.022692979190335943 0.12246858232321711 -0.7472405693252578 156 137 97
0.02201069927514121 0.12165139223900878 -0.7501477558946198 138 120 80
0.02106487313705921 0.12054128997987207 -0.7533667714656133 142 126 89
0.01957949250459183 0.11883163493907145 -0.7572198319362959 110 96 60
0.017903674985559392 0.11691008458139363 -0.7613067328843388 120 108 71
0.0158570208929021 0.11457617961902453 -0.7658394387444624 127 118 87
0.012481208833579283 0.11076512816513281 -0.7719407272956526 85 77 53
0.01321649705149544 0.11152115976794913 -0.7732526839334755 75 67 46
0.011821493778560815 0.10991010645616553 -0.7770646399130055 66 58 39
0.012302241403734843 0.11038317188274197 -0.7786800200296639 62 51 34
0.014192359663310616 0.11242255304363016 -0.7786312396816238 79 68 49
0.014749657333271021 0.11298082648734112 -0.7801514705047723 73 62 42
0.015294659371071134 0.11352544580727747 -0.7816858371998833 98 86 65
0.01693997837075427 0.11529322543407028 -0.7819097736923544 94 82 58
0.01737540720749041 0.11571615200185911 -0.7835705865024933 78 67 39
0.01717240234960969 0.11542924755770073 -0.7859960357162441 113 102 72
0.01733620734720373 0.11555007574207143 -0.7879856714129296 92 79 51
0.01793858525212072 0.11615853841758272 -0.7894495006701318 77 67 42
0.019017058740116874 0.11729648572933474 -0.7903379036595639 70 56 33
0.01956351733653318 0.11784284269687126 -0.7918663108411655 77 64 43
0.02023206731944653 0.11852501066023932 -0.7932461426610478 73 61 41
0.020114328919636285 0.11833256723977781 -0.795581628847838 61 48 28
0.020490630950222216 0.11868961446062493 -0.7973182585345743 66 54 31
0.020953493658999844 0.11914294506516715 -0.7989497027720397 95 80 55
0.02159202023724717 0.11979172398691959 -0.8003657802950538 107 91 67
0.021526006896882638 0.11965655836485817 -0.802647581940203 88 74 49
0.021677580692408854 0.11976342883085364 -0.8046646571990447 91 79 51
0.023295091797710762 0.1215017246801352 -0.8048707640197841 71 57 33
0.023966656744696127 0.12218737043924127 -0.8062425037255451 77 65 38
0.024699115555815263 0.12294083321497518 -0.8075372730923746 99 85 54
0.02485582544811503 0.12305341107048573 -0.8095483070659674 129 114 81
0.024578250923970202 0.1226824349771094 -0.8121045291851957 140 126 92
0.024493400903988605 0.1225258947497252 -0.8144242743236579 117 102 68
0.024447839464365462 0.12241299435752453 -0.8166984788362839 96 82 52
0.02415246855033293 0.12202180781037597 -0.8192911302053979 81 68 43
0.024420549628297344 0.12225798131026677 -0.8211769939301586 96 81 48
0.024961483577670557 0.12279801129457005 -0.8227185973292461 179 160 115
0.025438666637888685 0.12326704083984238 -0.8243408385762836 195 178 141
0.02578587979342631 0.12359128575780137 -0.8261287239487873 132 120 96
0.026327340546084682 0.12413190846038835 -0.8276694467309419 98 88 67
0.027378235337082835 0.1252401329244745 -0.8285573581897041 79 71 48
0.028878007405152034 0.12684862943355737 -0.8288650131862142 79 68 41
0.030328632510319628 0.12840255266443665 -0.8292290380663113 112 94 64
0.030775964019230648 0.12883854204710057 -0.8308816917318327 131 114 81
0.03160682210402438 0.12970198128138372 -0.8320381773822044 90 77 41
0.03155364208585498 0.12958010243989262 -0.8343396173266794 141 127 86
0.03269201692050196 0.13078638945126103 -0.8350942478883161 201 185 144
0.03336312989048312 0.1314718833588173 -0.8364540238465945 192 181 144
0.033854296760209665 0.13195678588958612 -0.8380479153201573 135 128 92
0.034908290815968815 0.1330692565146408 -0.8389035758678561 124 112 77
0.036079604452815564 0.13431266300632017 -0.8396010308572501 132 118 78
0.0360271028981079 0.13419137953965368 -0.8419073268926202 141 125 83
0.034549030673066444 0.1324800284735046 -0.8461018817600257 135 120 83
0.03561314267659546 0.13360388419851385 -0.8469405872458587 134 120 80
0.03488386462502607 0.13272730480783965 -0.8501585091359974 135 120 81
0.03667016510418397 0.1346568911262538 -0.8500331905804996 130 113 72
0.03698508402188913 0.1349451006298755 -0.8518643772458834 145 129 85
