ply
format ascii 1.0
element vertex 834
property float x
property float y
property float z
property float nx
property float ny
property float nz
property uchar diffuse_red
property uchar diffuse_green
property uchar diffuse_blue
property uchar class
property uchar detection
end_header
-0.0600 -0.0155 -0.2389 0.029 -0.584 0.811 170 160 145 0 0
-0.0593 -0.0221 -0.2437 -0.113 -0.693 0.712 198 183 147 0 0
-0.0441 -0.1380 -0.2688 0.182 -0.723 0.666 204 190 156 0 0
-0.0420 -0.1603 -0.2858 -0.072 -0.812 0.580 225 207 160 0 0
-0.0521 -0.1842 -0.5000 0.930 -0.366 0.027 58 43 17 0 0
-0.0522 -0.1845 -0.5016 0.913 -0.403 0.067 47 34 11 0 0
-0.0522 -0.1850 -0.5031 0.919 -0.395 -0.000 44 32 17 0 0
-0.0578 -0.1810 -0.5818 0.177 -0.984 -0.026 162 144 106 0 0
-0.0579 -0.1810 -0.5836 0.007 -0.999 0.033 147 130 89 0 0
-0.0588 -0.1788 -0.5924 0.282 -0.949 0.143 168 151 104 0 0
-0.0692 -0.1544 -0.7003 -0.012 -0.989 -0.146 163 145 99 0 0
-0.0714 -0.1481 -0.7214 0.110 -0.989 -0.102 143 125 81 0 0
-0.0793 -0.1188 -0.7781 -0.162 -0.920 0.358 46 36 24 0 0
-0.0775 -0.1448 -0.8090 -0.015 -0.911 0.413 64 48 25 0 0
-0.0783 -0.1622 -0.8623 -0.207 -0.953 0.219 69 63 51 0 0
-0.0781 -0.1640 -0.8629 -0.287 -0.952 0.102 80 73 63 0 0
-0.0781 -0.1647 -0.8645 -0.085 -0.826 0.558 105 99 90 0 0
-0.0615 -0.0161 -0.2387 0.159 -0.543 0.824 209 198 174 0 0
-0.0613 -0.0178 -0.2399 0.159 -0.543 0.824 198 184 150 0 0
-0.0604 -0.0278 -0.2487 -0.018 -0.790 0.613 95 79 58 0 0
-0.0434 -0.1602 -0.2858 -0.072 -0.812 0.580 218 200 153 0 0
-0.0517 -0.1852 -0.4723 0.212 -0.844 0.492 109 91 66 0 0
-0.0517 -0.1859 -0.4736 0.201 -0.914 0.352 131 113 85 0 0
-0.0554 -0.1789 -0.5151 0.933 -0.277 0.228 35 27 16 0 0
-0.0588 -0.1830 -0.5769 0.461 -0.878 -0.126 166 147 102 0 0
-0.0589 -0.1828 -0.5789 0.461 -0.878 -0.126 155 134 90 0 0
-0.0595 -0.1808 -0.5837 -0.066 -0.995 0.076 151 132 89 0 0
-0.0658 -0.1664 -0.6481 -0.235 -0.971 -0.039 148 126 76 0 0
-0.0733 -0.1473 -0.7220 0.570 -0.812 -0.128 145 126 81 0 0
-0.0805 -0.1252 -0.7839 0.093 -0.769 0.633 27 19 10 0 0
-0.0798 -0.1506 -0.8304 0.314 -0.764 0.564 77 53 28 0 0
-0.0798 -0.1615 -0.8563 0.060 -0.916 0.396 116 101 69 0 0
-0.0798 -0.1626 -0.8576 0.179 -0.862 0.474 86 76 53 0 0
-0.0631 -0.0157 -0.2388 -0.089 -0.558 0.825 220 208 179 0 0
-0.0459 -0.1493 -0.2773 0.131 -0.952 0.278 190 172 133 0 0
-0.0459 -0.1502 -0.2800 -0.031 -0.830 0.556 186 170 126 0 0
-0.0438 -0.1805 -0.3161 0.603 -0.767 0.219 109 95 66 0 0
-0.0473 -0.1841 -0.3773 0.766 -0.620 -0.169 127 113 84 0 0
-0.0500 -0.1876 -0.4282 0.393 -0.912 -0.118 120 105 76 0 0
-0.0528 -0.1845 -0.4643 0.128 -0.973 -0.190 82 67 40 0 0
-0.0565 -0.1812 -0.5138 0.978 -0.177 0.110 41 35 23 0 0
-0.0564 -0.1847 -0.5206 0.885 -0.285 0.367 33 25 21 0 0
-0.0564 -0.1854 -0.5219 0.895 -0.208 0.396 41 32 20 0 0
-0.0750 -0.1474 -0.7221 0.104 -0.946 -0.308 148 129 86 0 0
-0.0756 -0.1459 -0.7273 -0.133 -0.924 0.358 150 127 87 0 0
-0.0759 -0.1449 -0.7302 0.282 -0.951 0.128 139 120 78 0 0
-0.0760 -0.1449 -0.7322 -0.065 -0.997 0.050 139 123 80 0 0
-0.0780 -0.1365 -0.7430 -0.024 -0.871 -0.491 106 92 52 0 0
-0.0794 -0.1306 -0.7517 0.021 -0.914 -0.405 94 81 53 0 0
-0.0798 -0.1295 -0.7548 0.042 -0.933 -0.356 98 87 58 0 0
-0.0815 -0.1228 -0.7664 -0.107 -0.885 -0.453 66 56 36 0 0
-0.0816 -0.1504 -0.8307 0.085 -0.838 0.539 80 56 32 0 0
-0.0817 -0.1507 -0.8326 -0.021 -0.907 0.421 84 60 34 0 0
-0.0817 -0.1609 -0.8570 0.300 -0.900 0.316 114 98 66 0 0
-0.0818 -0.1615 -0.8587 0.300 -0.900 0.316 87 77 52 0 0
-0.0463 -0.1603 -0.2857 -0.147 -0.887 0.437 200 181 137 0 0
-0.0449 -0.1787 -0.3063 0.329 -0.890 0.315 127 115 91 0 0
-0.0486 -0.1863 -0.3810 0.115 -0.977 -0.181 43 30 20 0 0
-0.0496 -0.1845 -0.3912 0.450 -0.892 -0.040 97 86 64 0 0
-0.0514 -0.1884 -0.4278 0.235 -0.960 -0.151 99 87 59 0 0
-0.0514 -0.1887 -0.4293 0.154 -0.987 0.054 98 85 60 0 0
-0.0572 -0.1912 -0.5238 0.829 -0.555 0.064 108 92 62 0 0
-0.0622 -0.1814 -0.5779 0.259 -0.959 -0.113 164 143 99 0 0
-0.0639 -0.1771 -0.5936 -0.303 -0.948 -0.097 127 110 74 0 0
-0.0752 -0.1518 -0.7085 0.092 -0.959 -0.269 148 131 87 0 0
-0.0757 -0.1504 -0.7136 -0.029 -0.960 -0.278 143 125 84 0 0
-0.0760 -0.1496 -0.7163 -0.329 -0.929 -0.170 147 128 86 0 0
-0.0763 -0.1488 -0.7190 -0.171 -0.951 -0.258 157 140 94 0 0
-0.0787 -0.1408 -0.7375 -0.083 -0.922 -0.379 122 106 66 0 0
-0.0813 -0.1307 -0.7539 0.208 -0.879 -0.429 93 82 53 0 0
-0.0832 -0.1540 -0.8365 0.081 -0.967 0.242 123 105 67 0 0
-0.0835 -0.1618 -0.8585 0.047 -0.926 0.376 80 71 46 0 0
-0.0651 -0.0345 -0.2629 0.233 -0.687 0.688 81 71 55 0 0
-0.0473 -0.1674 -0.2953 0.311 -0.836 0.451 191 170 123 0 0
-0.0502 -0.1855 -0.3814 0.287 -0.946 -0.152 29 21 15 0 0
-0.0528 -0.1887 -0.4277 0.235 -0.960 -0.151 100 89 69 0 0
-0.0529 -0.1889 -0.4292 0.154 -0.987 0.054 75 63 47 0 0
-0.0531 -0.1882 -0.4312 0.359 -0.894 0.269 42 30 16 0 0
-0.0571 -0.1941 -0.5049 0.835 -0.544 0.081 133 121 95 0 0
-0.0605 -0.1911 -0.5503 0.289 -0.940 -0.183 141 125 91 0 0
-0.0629 -0.1841 -0.5708 -0.147 -0.989 -0.010 126 111 72 0 0
-0.0656 -0.1766 -0.5940 -0.303 -0.948 -0.097 135 120 87 0 0
-0.0806 -0.1399 -0.7383 -0.180 -0.891 -0.417 122 107 72 0 0
-0.0855 -0.1423 -0.8180 0.117 -0.961 0.249 75 59 34 0 0
-0.0851 -0.1555 -0.8419 0.103 -0.924 0.369 108 93 60 0 0
-0.0678 -0.0131 -0.2313 0.261 -0.964 -0.043 177 177 178 0 0
-0.0676 -0.0149 -0.2325 0.429 -0.671 0.605 177 178 179 0 0
-0.0666 -0.0346 -0.2613 0.118 -0.875 0.469 78 68 51 0 0
-0.0665 -0.0355 -0.2626 0.310 -0.828 0.467 122 109 88 0 0
-0.0493 -0.1595 -0.2859 -0.168 -0.855 0.491 186 168 126 0 0
-0.0493 -0.1600 -0.2873 0.121 -0.841 0.527 166 146 106 0 0
-0.0473 -0.1869 -0.3183 0.182 -0.864 0.469 94 83 65 0 0
-0.0473 -0.1875 -0.3195 0.182 -0.864 0.469 96 86 68 0 0
-0.0472 -0.1883 -0.3207 0.172 -0.814 0.555 104 95 74 0 0
-0.0472 -0.1891 -0.3219 0.172 -0.814 0.555 105 95 74 0 0
-0.0471 -0.1899 -0.3231 0.172 -0.814 0.555 105 94 72 0 0
-0.0474 -0.1891 -0.3249 0.602 -0.775 0.193 110 98 71 0 0
-0.0474 -0.1895 -0.3262 0.602 -0.775 0.193 118 104 72 0 0
-0.0517 -0.1858 -0.3828 0.408 -0.909 0.087 22 14 10 0 0
-0.0541 -0.1894 -0.4258 0.226 -0.913 -0.339 43 36 20 0 0
-0.0543 -0.1888 -0.4277 -0.003 -0.989 -0.150 46 37 24 0 0
-0.0543 -0.1891 -0.4291 0.102 -0.994 0.034 38 29 17 0 0
-0.0545 -0.1885 -0.4310 0.294 -0.905 0.308 25 16 7 0 0
-0.0572 -0.1881 -0.4708 0.198 -0.929 0.312 45 36 21 0 0
-0.0583 -0.1958 -0.5039 0.835 -0.544 0.081 139 121 92 0 0
-0.0619 -0.1909 -0.5469 0.069 -0.997 -0.045 152 131 93 0 0
-0.0623 -0.1900 -0.5510 -0.132 -0.986 -0.098 161 140 100 0 0
-0.0636 -0.1861 -0.5624 -0.079 -0.969 -0.233 152 133 93 0 0
-0.0691 -0.1720 -0.6120 -0.339 -0.940 -0.029 148 133 97 0 0
-0.0824 -0.1396 -0.7386 -0.252 -0.874 -0.416 121 105 72 0 0
-0.0873 -0.1310 -0.7925 0.266 -0.811 0.521 73 57 37 0 0
-0.0874 -0.1418 -0.8186 0.208 -0.954 0.217 89 75 48 0 0
-0.0869 -0.1523 -0.8359 -0.243 -0.846 0.474 108 89 56 0 0
-0.0868 -0.1536 -0.8370 0.026 -0.891 0.452 113 95 63 0 0
-0.0869 -0.1548 -0.8404 0.065 -0.931 0.360 125 110 76 0 0
-0.0875 -0.1570 -0.8541 -0.200 -0.739 0.644 80 70 37 0 0
-0.0875 -0.1575 -0.8558 -0.107 -0.901 0.420 87 76 42 0 0
-0.0690 -0.0162 -0.2322 0.314 -0.867 0.386 178 177 179 0 0
-0.0686 -0.0228 -0.2418 -0.188 -0.912 0.364 135 119 89 0 0
-0.0680 -0.0361 -0.2624 0.340 -0.863 0.373 143 128 102 0 0
-0.0488 -0.1853 -0.3158 0.371 -0.804 0.465 110 99 76 0 0
-0.0487 -0.1860 -0.3171 0.371 -0.804 0.465 105 92 69 0 0
-0.0487 -0.1870 -0.3182 0.260 -0.875 0.409 95 82 61 0 0
-0.0485 -0.1894 -0.3203 -0.093 -0.796 0.599 93 83 62 0 0
-0.0488 -0.1906 -0.3288 0.084 -0.832 0.548 102 93 68 0 0
-0.0488 -0.1919 -0.3313 0.080 -0.848 0.524 111 99 74 0 0
-0.0490 -0.1921 -0.3342 0.569 -0.745 0.348 103 92 67 0 0
-0.0490 -0.1927 -0.3355 0.569 -0.745 0.348 99 87 60 0 0
-0.0531 -0.1863 -0.3826 0.305 -0.948 0.089 11 8 3 0 0
-0.0534 -0.1894 -0.3938 0.526 -0.752 0.398 64 56 35 0 0
-0.0557 -0.1895 -0.4289 0.232 -0.971 0.059 39 30 20 0 0
-0.0559 -0.1889 -0.4308 0.294 -0.905 0.308 29 20 11 0 0
-0.0567 -0.1942 -0.4544 0.773 -0.541 -0.332 40 27 14 0 0
-0.0638 -0.1898 -0.5494 -0.165 -0.953 -0.255 144 126 91 0 0
-0.0808 -0.1503 -0.7139 -0.160 -0.983 -0.091 158 139 96 0 0
-0.0811 -0.1499 -0.7163 -0.195 -0.980 -0.052 158 141 97 0 0
-0.0903 -0.1166 -0.7781 0.135 -0.897 0.421 31 23 12 0 0
-0.0896 -0.1243 -0.7850 -0.129 -0.907 0.401 42 33 18 0 0
-0.0887 -0.1519 -0.8342 0.109 -0.923 0.369 102 83 51 0 0
-0.0887 -0.1526 -0.8358 -0.085 -0.920 0.382 106 87 55 0 0
-0.0887 -0.1533 -0.8374 -0.085 -0.920 0.382 110 92 60 0 0
-0.0887 -0.1540 -0.8390 -0.085 -0.920 0.382 124 108 73 0 0
-0.0893 -0.1567 -0.8545 -0.107 -0.901 0.420 89 76 42 0 0
-0.0893 -0.1574 -0.8560 -0.107 -0.901 0.420 96 81 48 0 0
-0.0893 -0.1579 -0.8579 -0.047 -0.975 0.215 102 90 59 0 0
-0.0705 -0.0168 -0.2320 0.361 -0.895 0.262 177 177 178 0 0
-0.0701 -0.0397 -0.2775 0.174 -0.871 0.459 127 122 113 0 0
-0.0506 -0.1784 -0.3064 0.040 -0.928 0.372 163 145 97 0 0
-0.0502 -0.1846 -0.3146 0.335 -0.801 0.496 109 94 68 0 0
-0.0502 -0.1854 -0.3158 0.335 -0.801 0.496 126 111 84 0 0
-0.0500 -0.1873 -0.3181 0.343 -0.836 0.428 134 119 90 0 0
-0.0501 -0.1930 -0.3324 0.045 -0.875 0.482 101 90 71 0 0
-0.0501 -0.1943 -0.3349 0.045 -0.875 0.482 108 98 78 0 0
-0.0658 -0.1881 -0.5522 -0.264 -0.954 -0.139 149 131 93 0 0
-0.0659 -0.1878 -0.5542 -0.264 -0.954 -0.139 137 117 80 0 0
-0.0761 -0.1589 -0.6381 -0.233 -0.965 -0.124 129 112 79 0 0
-0.0826 -0.1501 -0.7141 0.012 -0.998 -0.067 139 121 79 0 0
-0.0827 -0.1502 -0.7161 0.146 -0.973 -0.177 160 143 100 0 0
-0.0865 -0.1367 -0.7410 -0.132 -0.893 -0.431 94 82 49 0 0
-0.0870 -0.1347 -0.7447 -0.323 -0.877 -0.356 73 61 34 0 0
-0.0924 -0.1159 -0.7809 0.300 -0.914 0.273 38 28 16 0 0
-0.0916 -0.1231 -0.7860 0.310 -0.807 0.503 45 36 21 0 0
-0.0909 -0.1330 -0.7976 0.073 -0.942 0.326 59 44 25 0 0
-0.0909 -0.1336 -0.7992 0.182 -0.930 0.319 56 41 22 0 0
-0.0909 -0.1342 -0.8010 0.170 -0.952 0.254 58 41 21 0 0
-0.0908 -0.1364 -0.8035 0.381 -0.853 0.356 63 46 26 0 0
-0.0909 -0.1380 -0.8087 0.310 -0.754 0.579 62 45 25 0 0
-0.0907 -0.1393 -0.8099 0.209 -0.813 0.543 63 46 26 0 0
-0.0910 -0.1406 -0.8175 0.005 -0.926 0.376 75 61 34 0 0
-0.0909 -0.1442 -0.8233 0.080 -0.871 0.485 87 73 45 0 0
-0.0904 -0.1520 -0.8342 -0.045 -0.911 0.410 104 85 53 0 0
-0.0905 -0.1525 -0.8359 -0.085 -0.920 0.382 107 88 56 0 0
-0.0914 -0.1532 -0.8510 0.143 -0.916 0.374 94 83 55 0 0
-0.0916 -0.1557 -0.8599 0.183 -0.877 0.444 103 91 60 0 0
-0.0927 -0.1550 -0.8741 -0.070 -0.994 -0.088 136 135 129 0 0
-0.0711 -0.0388 -0.2681 -0.063 -0.896 0.440 112 103 85 0 0
-0.0713 -0.0389 -0.2713 -0.165 -0.986 -0.023 47 38 29 0 0
-0.0715 -0.0385 -0.2730 0.195 -0.980 0.046 30 24 17 0 0
-0.0718 -0.0391 -0.2776 0.215 -0.970 0.111 122 116 105 0 0
-0.0717 -0.0400 -0.2790 0.189 -0.819 0.542 17 13 7 0 0
-0.0717 -0.0406 -0.2805 0.160 -0.906 0.392 22 18 14 0 0
-0.0519 -0.1808 -0.3100 0.117 -0.831 0.544 150 131 90 0 0
-0.0515 -0.1912 -0.3271 0.018 -0.999 -0.046 84 72 47 0 0
-0.0516 -0.1921 -0.3312 0.080 -0.848 0.524 82 69 51 0 0
-0.0527 -0.1995 -0.3646 0.684 -0.605 0.409 123 109 77 0 0
-0.0527 -0.2004 -0.3658 0.673 -0.521 0.525 127 113 82 0 0
-0.0528 -0.2008 -0.3687 0.767 -0.642 -0.006 115 102 74 0 0
-0.0586 -0.1943 -0.4380 0.316 -0.848 0.424 45 36 26 0 0
-0.0608 -0.1967 -0.4764 0.178 -0.206 0.962 60 51 32 0 0
-0.0636 -0.1984 -0.5215 0.119 -0.992 -0.047 163 142 97 0 0
-0.0692 -0.1829 -0.5681 -0.290 -0.951 -0.111 135 117 85 0 0
-0.0700 -0.1803 -0.5733 -0.228 -0.944 -0.239 140 124 93 0 0
-0.0737 -0.1694 -0.6025 -0.514 -0.809 -0.285 109 96 67 0 0
-0.0767 -0.1608 -0.6272 0.037 -0.945 -0.324 116 102 78 0 0
-0.0773 -0.1596 -0.6338 -0.230 -0.959 -0.166 130 117 92 0 0
-0.0782 -0.1577 -0.6428 -0.063 -0.997 -0.045 77 69 48 0 0
-0.0784 -0.1573 -0.6450 0.426 -0.904 0.034 59 51 34 0 0
-0.0884 -0.1356 -0.7419 -0.268 -0.873 -0.407 87 76 42 0 0
-0.0901 -0.1298 -0.7528 -0.302 -0.909 -0.286 48 41 22 0 0
-0.0922 -0.1332 -0.7909 0.164 -0.949 0.270 57 42 23 0 0
-0.0925 -0.1415 -0.8146 0.097 -0.930 0.356 83 68 40 0 0
-0.0928 -0.1406 -0.8176 -0.000 -0.913 0.408 76 61 34 0 0
-0.0925 -0.1428 -0.8179 0.278 -0.907 0.318 81 67 35 0 0
-0.0926 -0.1445 -0.8231 0.051 -0.897 0.439 92 77 49 0 0
-0.0922 -0.1518 -0.8344 0.042 -0.890 0.455 102 84 52 0 0
-0.0930 -0.1530 -0.8489 0.008 -0.971 0.240 117 103 71 0 0
-0.0931 -0.1534 -0.8509 0.143 -0.916 0.374 92 81 51 0 0
-0.0730 -0.0380 -0.2699 -0.143 -0.988 0.057 56 45 33 0 0
-0.0731 -0.0380 -0.2715 -0.144 -0.972 0.183 50 37 28 0 0
-0.0733 -0.0382 -0.2746 0.128 -0.929 0.348 40 31 21 0 0
-0.0733 -0.0388 -0.2761 0.093 -0.917 0.388 97 89 77 0 0
-0.0733 -0.0394 -0.2775 0.075 -0.932 0.356 83 77 64 0 0
-0.0732 -0.0403 -0.2789 0.097 -0.853 0.513 16 8 3 0 0
-0.0733 -0.0408 -0.2804 0.145 -0.901 0.410 34 26 20 0 0
-0.0548 -0.1640 -0.2933 -0.020 -0.792 0.610 170 148 107 0 0
-0.0597 -0.1961 -0.4371 0.561 -0.734 0.383 54 45 36 0 0
-0.0597 -0.1967 -0.4384 0.315 -0.553 0.772 67 58 47 0 0
-0.0711 -0.1816 -0.5689 -0.351 -0.934 -0.074 127 110 77 0 0
-0.0717 -0.1798 -0.5737 -0.228 -0.944 -0.239 150 134 99 0 0
-0.0736 -0.1743 -0.5901 -0.337 -0.904 -0.264 119 104 74 0 0
-0.0740 -0.1732 -0.5926 -0.282 -0.881 -0.379 132 118 89 0 0
-0.0882 -0.1430 -0.7300 0.029 -0.981 -0.194 146 128 89 0 0
-0.0960 -0.1141 -0.7781 0.249 -0.966 0.063 58 46 32 0 0
-0.0949 -0.1245 -0.7850 0.246 -0.941 0.231 44 33 19 0 0
-0.0949 -0.1250 -0.7869 0.246 -0.941 0.231 58 46 30 0 0
-0.0940 -0.1328 -0.7913 0.290 -0.796 0.532 48 32 17 0 0
-0.0948 -0.1531 -0.8490 0.008 -0.971 0.240 117 103 69 0 0
-0.0949 -0.1534 -0.8509 0.198 -0.861 0.469 109 95 61 0 0
-0.0949 -0.1543 -0.8524 0.198 -0.861 0.469 122 106 64 0 0
-0.0949 -0.1547 -0.8543 0.269 -0.891 0.366 175 157 117 0 0
-0.0949 -0.1553 -0.8560 0.252 -0.905 0.342 129 114 82 0 0
-0.0950 -0.1555 -0.8580 0.233 -0.920 0.314 106 94 62 0 0
-0.0965 -0.1539 -0.8754 -0.043 -0.991 -0.125 150 147 144 0 0
-0.0762 -0.0130 -0.2359 -0.469 -0.798 0.380 207 195 163 0 0
-0.0746 -0.0378 -0.2699 -0.190 -0.981 0.051 42 32 21 0 0
-0.0747 -0.0377 -0.2715 -0.144 -0.972 0.183 55 45 35 0 0
-0.0747 -0.0397 -0.2758 -0.212 -0.849 0.483 133 125 114 0 0
-0.0749 -0.0394 -0.2775 -0.008 -0.943 0.333 75 69 56 0 0
-0.0748 -0.0403 -0.2789 -0.147 -0.851 0.504 18 11 5 0 0
-0.0543 -0.2037 -0.3553 0.124 -0.945 0.303 113 101 73 0 0
-0.0543 -0.2042 -0.3566 0.127 -0.955 0.269 112 99 70 0 0
-0.0649 -0.2036 -0.5082 0.016 -0.992 -0.124 169 148 102 0 0
-0.0930 -0.1313 -0.7475 -0.239 -0.906 -0.348 100 86 51 0 0
-0.0940 -0.1277 -0.7545 -0.265 -0.942 -0.208 75 63 34 0 0
-0.0965 -0.1253 -0.7844 -0.087 -0.945 0.316 36 26 12 0 0
-0.0965 -0.1260 -0.7861 -0.116 -0.935 0.334 45 33 20 0 0
-0.0966 -0.1550 -0.8541 0.158 -0.928 0.337 142 126 88 0 0
-0.0967 -0.1556 -0.8558 0.158 -0.928 0.337 117 103 70 0 0
-0.0765 -0.0388 -0.2760 -0.008 -0.943 0.333 127 119 108 0 0
-0.0765 -0.0394 -0.2775 -0.008 -0.943 0.333 51 44 32 0 0
-0.0765 -0.0399 -0.2789 -0.109 -0.857 0.503 21 14 7 0 0
-0.0556 -0.2012 -0.3472 0.118 -0.899 0.421 65 51 32 0 0
-0.0557 -0.2037 -0.3553 0.089 -0.882 0.464 94 83 63 0 0
-0.0647 -0.2076 -0.4923 0.259 -0.944 -0.206 159 141 104 0 0
-0.0957 -0.1281 -0.7543 0.339 -0.892 -0.298 99 84 55 0 0
-0.0976 -0.1515 -0.8350 0.221 -0.739 0.636 89 75 45 0 0
-0.0978 -0.1516 -0.8371 0.197 -0.964 0.177 104 87 55 0 0
-0.0984 -0.1559 -0.8557 0.186 -0.928 0.322 93 83 53 0 0
-0.0781 -0.0392 -0.2775 0.097 -0.959 0.266 28 23 13 0 0
-0.0782 -0.0396 -0.2790 0.097 -0.959 0.266 31 24 16 0 0
-0.0565 -0.1971 -0.3308 0.135 -0.931 0.338 108 85 46 0 0
-0.0569 -0.2017 -0.3470 0.152 -0.940 0.307 58 42 21 0 0
-0.0573 -0.2053 -0.3607 -0.057 -0.949 0.311 90 80 63 0 0
-0.0702 -0.1968 -0.5243 -0.255 -0.925 -0.281 144 125 88 0 0
-0.0965 -0.1311 -0.7477 0.210 -0.891 -0.403 92 75 47 0 0
-0.0970 -0.1298 -0.7509 0.210 -0.891 -0.403 105 88 60 0 0
-0.0992 -0.1390 -0.8039 0.154 -0.977 0.150 69 54 32 0 0
-0.0993 -0.1394 -0.8057 0.179 -0.942 0.285 69 53 31 0 0
-0.0991 -0.1485 -0.8244 0.247 -0.641 0.726 97 78 48 0 0
-0.0994 -0.1508 -0.8334 0.007 -0.628 0.779 88 77 48 0 0
-0.0797 -0.0387 -0.2760 -0.139 -0.883 0.448 75 67 55 0 0
-0.0586 -0.1875 -0.3194 0.057 -0.887 0.457 141 122 89 0 0
-0.0621 -0.2107 -0.4204 0.802 -0.593 -0.069 70 60 46 0 0
-0.0622 -0.2110 -0.4235 0.801 -0.561 -0.209 21 14 6 0 0
-0.0631 -0.2088 -0.4309 0.919 -0.380 -0.109 37 30 22 0 0
-0.0633 -0.2087 -0.4326 0.928 -0.355 -0.110 40 35 26 0 0
-0.0672 -0.2088 -0.4884 0.039 -0.985 -0.167 147 130 87 0 0
-0.0675 -0.2082 -0.4904 -0.008 -0.975 -0.222 155 137 94 0 0
-0.0795 -0.1732 -0.5798 -0.506 -0.811 -0.293 51 42 31 0 0
-0.0800 -0.1716 -0.5827 -0.508 -0.815 -0.279 44 35 26 0 0
-0.0807 -0.1692 -0.5879 -0.584 -0.745 -0.323 33 27 17 0 0
-0.0852 -0.1587 -0.6269 0.257 -0.687 0.680 24 23 21 0 0
-0.0848 -0.1613 -0.6271 0.449 -0.748 0.489 29 28 26 0 0
-0.0853 -0.1600 -0.6318 0.314 -0.914 0.258 27 26 24 0 0
-0.0970 -0.1226 -0.7102 -0.610 -0.415 0.675 67 57 47 0 0
-0.0969 -0.1235 -0.7116 0.061 -0.499 0.865 66 57 46 0 0
-0.0960 -0.1298 -0.7132 0.188 -0.422 0.887 70 63 47 0 0
-0.0945 -0.1397 -0.7141 -0.614 -0.544 0.572 73 64 49 0 0
-0.1006 -0.1382 -0.7959 0.033 -0.973 0.228 58 44 25 0 0
-0.1011 -0.1394 -0.8058 0.552 -0.814 0.180 85 70 48 0 0
-0.1009 -0.1485 -0.8244 0.299 -0.782 0.547 86 69 42 0 0
-0.1018 -0.1557 -0.8537 0.178 -0.930 0.323 105 90 61 0 0
-0.1019 -0.1563 -0.8554 0.178 -0.930 0.323 104 91 62 0 0
-0.0831 -0.0115 -0.2393 0.230 -0.746 0.625 142 129 104 0 0
-0.0829 -0.0135 -0.2405 -0.036 -0.846 0.532 152 135 106 0 0
-0.0610 -0.1802 -0.3161 0.162 -0.863 0.478 136 116 82 0 0
-0.0597 -0.1980 -0.3379 0.026 -0.876 0.482 71 53 22 0 0
-0.0596 -0.2005 -0.3430 0.094 -0.949 0.302 56 39 21 0 0
-0.0597 -0.2025 -0.3482 0.119 -0.925 0.362 48 32 16 0 0
-0.0602 -0.2048 -0.3609 -0.166 -0.924 0.345 50 37 19 0 0
-0.0605 -0.2066 -0.3693 0.421 -0.884 0.204 49 37 17 0 0
-0.0633 -0.2124 -0.4212 0.717 -0.695 0.043 121 110 90 0 0
-0.0633 -0.2127 -0.4226 0.714 -0.701 0.007 99 88 71 0 0
-0.0635 -0.2123 -0.4244 0.834 -0.542 -0.108 74 63 50 0 0
-0.0637 -0.2122 -0.4261 0.834 -0.542 -0.108 53 42 29 0 0
-0.0638 -0.2121 -0.4277 0.850 -0.516 -0.101 41 31 17 0 0
-0.0640 -0.2117 -0.4295 0.879 -0.473 -0.070 39 30 17 0 0
-0.0669 -0.2120 -0.4700 0.660 -0.750 -0.030 153 135 92 0 0
-0.0676 -0.2115 -0.4785 0.299 -0.954 0.014 146 123 84 0 0
-0.0687 -0.2088 -0.4883 0.039 -0.985 -0.167 150 131 91 0 0
-0.0702 -0.2048 -0.5007 -0.098 -0.961 -0.259 130 111 73 0 0
-0.0811 -0.1726 -0.5784 -0.462 -0.858 -0.226 47 38 28 0 0
-0.0809 -0.1741 -0.5793 0.309 -0.926 -0.216 41 32 24 0 0
-0.0867 -0.1613 -0.6310 0.357 -0.768 0.532 8 7 5 0 0
-0.0993 -0.1193 -0.7106 -0.650 -0.453 0.611 67 57 47 0 0
-0.0990 -0.1212 -0.7112 -0.610 -0.415 0.675 62 52 42 0 0
-0.0976 -0.1306 -0.7127 -0.194 -0.510 0.838 62 54 39 0 0
-0.0964 -0.1387 -0.7149 -0.566 -0.556 0.609 71 62 47 0 0
-0.0961 -0.1417 -0.7168 -0.324 -0.943 0.075 77 64 50 0 0
-0.1036 -0.1186 -0.7684 -0.054 -0.841 -0.539 62 51 29 0 0
-0.1040 -0.1175 -0.7715 0.026 -0.873 -0.488 59 47 29 0 0
-0.1028 -0.1388 -0.8042 -0.344 -0.898 0.273 78 63 41 0 0
-0.1027 -0.1400 -0.8054 -0.146 -0.740 0.656 71 56 36 0 0
-0.1026 -0.1410 -0.8067 0.088 -0.840 0.536 62 47 27 0 0
-0.1029 -0.1490 -0.8286 -0.204 -0.948 0.245 122 104 71 0 0
-0.0847 -0.0118 -0.2392 0.230 -0.746 0.625 160 154 143 0 0
-0.0846 -0.0129 -0.2405 0.230 -0.746 0.625 134 123 106 0 0
-0.0834 -0.0429 -0.2926 -0.037 -0.994 0.105 9 5 5 0 0
-0.0611 -0.1983 -0.3393 -0.128 -0.857 0.498 68 52 21 0 0
-0.0615 -0.2026 -0.3542 0.038 -0.941 0.336 45 32 15 0 0
-0.0646 -0.2137 -0.4221 0.574 -0.812 0.103 129 115 92 0 0
-0.0647 -0.2139 -0.4236 0.689 -0.719 0.089 128 115 93 0 0
-0.0647 -0.2142 -0.4251 0.689 -0.719 0.089 120 108 87 0 0
-0.0657 -0.2151 -0.4406 0.274 -0.955 0.112 111 98 72 0 0
-0.0660 -0.2152 -0.4454 0.395 -0.896 0.205 125 108 80 0 0
-0.0700 -0.2097 -0.4879 0.172 -0.961 -0.214 143 125 87 0 0
-0.0789 -0.1845 -0.5529 0.239 -0.971 -0.001 86 80 66 0 0
-0.0816 -0.1758 -0.5709 -0.460 -0.827 -0.322 41 34 25 0 0
-0.0821 -0.1742 -0.5738 -0.534 -0.803 -0.265 44 34 23 0 0
-0.0886 -0.1601 -0.6318 -0.291 -0.813 0.505 7 6 4 0 0
-0.1033 -0.1032 -0.7055 -0.736 -0.571 0.363 30 25 22 0 0
-0.1033 -0.1043 -0.7069 -0.674 -0.661 0.331 33 28 25 0 0
-0.1010 -0.1203 -0.7120 -0.440 -0.367 0.820 59 49 39 0 0
-0.1064 -0.1140 -0.7721 -0.249 -0.942 -0.227 68 56 36 0 0
-0.1064 -0.1145 -0.7739 -0.077 -0.997 -0.022 62 49 30 0 0
-0.1044 -0.1412 -0.8066 0.088 -0.840 0.536 52 39 22 0 0
-0.1055 -0.1383 -0.8157 0.006 -0.981 0.193 54 41 25 0 0
-0.0860 -0.0130 -0.2389 0.292 -0.800 0.523 177 176 173 0 0
-0.0859 -0.0144 -0.2402 0.397 -0.859 0.323 165 161 155 0 0
-0.0849 -0.0268 -0.2549 -0.068 -0.772 0.631 171 151 121 0 0
-0.0845 -0.0373 -0.2731 -0.063 -0.765 0.641 216 200 175 0 0
-0.0844 -0.0391 -0.2758 0.083 -0.959 0.271 61 50 34 0 0
-0.0850 -0.0427 -0.2926 0.075 -0.993 0.087 9 7 7 0 0
-0.0636 -0.2132 -0.3879 0.140 -0.872 0.468 42 30 15 0 0
-0.0636 -0.2138 -0.3892 0.142 -0.917 0.373 45 34 17 0 0
-0.0636 -0.2143 -0.3905 0.142 -0.917 0.373 56 45 26 0 0
-0.0636 -0.2150 -0.3918 -0.280 -0.896 0.345 66 56 36 0 0
-0.0649 -0.2147 -0.4090 -0.026 -0.988 0.152 63 50 31 0 0
-0.0654 -0.2139 -0.4141 0.405 -0.914 0.035 116 105 83 0 0
-0.0657 -0.2138 -0.4173 0.286 -0.942 -0.173 117 104 80 0 0
-0.0659 -0.2138 -0.4205 0.470 -0.856 0.215 106 90 67 0 0
-0.0660 -0.2142 -0.4219 0.470 -0.856 0.215 100 85 66 0 0
-0.0660 -0.2145 -0.4234 0.445 -0.876 0.186 83 69 48 0 0
-0.0661 -0.2147 -0.4248 0.337 -0.933 0.126 114 100 79 0 0
-0.0661 -0.2150 -0.4263 0.337 -0.933 0.126 109 97 77 0 0
-0.0665 -0.2152 -0.4310 0.347 -0.937 0.028 67 56 38 0 0
-0.0672 -0.2151 -0.4406 0.252 -0.952 0.172 103 89 64 0 0
-0.0673 -0.2151 -0.4422 0.353 -0.842 0.407 95 80 57 0 0
-0.0674 -0.2158 -0.4451 0.395 -0.896 0.205 97 80 53 0 0
-0.0701 -0.2121 -0.4733 -0.099 -0.995 0.026 150 131 89 0 0
-0.0803 -0.1853 -0.5524 0.181 -0.983 0.013 60 53 43 0 0
-0.1057 -0.0997 -0.7060 -0.216 -0.163 0.963 30 26 23 0 0
-0.1056 -0.1008 -0.7073 -0.196 -0.260 0.946 31 27 24 0 0
-0.1052 -0.1035 -0.7075 -0.080 -0.485 0.871 32 27 24 0 0
-0.1029 -0.1187 -0.7111 -0.045 -0.306 0.951 58 49 40 0 0
-0.0996 -0.1419 -0.7188 -0.053 -0.958 0.282 71 56 40 0 0
-0.0999 -0.1416 -0.7211 -0.214 -0.942 0.258 78 63 42 0 0
-0.1084 -0.1139 -0.7744 -0.141 -0.980 0.140 74 63 42 0 0
-0.1063 -0.1378 -0.8008 -0.120 -0.910 0.396 74 59 36 0 0
-0.1062 -0.1419 -0.8083 0.040 -0.981 0.189 51 38 21 0 0
-0.1063 -0.1455 -0.8185 0.126 -0.968 0.217 44 37 20 0 0
-0.1064 -0.1459 -0.8203 0.126 -0.968 0.217 58 47 28 0 0
-0.1065 -0.1469 -0.8239 -0.085 -0.812 0.577 90 78 55 0 0
-0.1066 -0.1472 -0.8258 -0.032 -0.907 0.421 71 58 34 0 0
-0.0878 -0.0154 -0.2463 0.154 -0.921 0.357 152 143 135 0 0
-0.0878 -0.0159 -0.2478 0.114 -0.894 0.434 130 120 108 0 0
-0.0867 -0.0429 -0.2942 0.099 -0.986 0.137 16 13 12 0 0
-0.0672 -0.1622 -0.3012 -0.611 -0.702 0.366 50 40 21 0 0
-0.0646 -0.2050 -0.3623 0.091 -0.935 0.343 68 52 35 0 0
-0.0646 -0.2056 -0.3636 -0.174 -0.950 0.260 45 29 13 0 0
-0.0661 -0.2142 -0.4046 0.080 -0.987 0.136 56 42 30 0 0
-0.0675 -0.2148 -0.4248 0.186 -0.973 0.138 72 53 28 0 0
-0.0675 -0.2154 -0.4261 0.347 -0.937 0.028 79 62 37 0 0
-0.0676 -0.2155 -0.4276 0.347 -0.937 0.028 80 66 41 0 0
-0.0677 -0.2156 -0.4292 0.258 -0.959 0.116 90 73 49 0 0
-0.0678 -0.2158 -0.4307 0.258 -0.959 0.116 86 74 49 0 0
-0.0679 -0.2157 -0.4323 0.347 -0.937 0.028 83 70 47 0 0
-0.0680 -0.2160 -0.4338 0.371 -0.908 0.193 74 61 40 0 0
-0.0687 -0.2164 -0.4448 0.148 -0.972 0.183 118 99 68 0 0
-0.0687 -0.2170 -0.4461 0.237 -0.971 -0.036 112 93 60 0 0
-0.0695 -0.2167 -0.4560 0.318 -0.945 0.080 123 106 66 0 0
-0.0808 -0.1863 -0.5412 -0.100 -0.920 -0.379 76 69 63 0 0
-0.0814 -0.1854 -0.5470 -0.253 -0.955 -0.155 96 87 77 0 0
-0.0811 -0.1874 -0.5476 -0.160 -0.947 -0.279 69 63 53 0 0
-0.0812 -0.1878 -0.5491 -0.463 -0.875 -0.138 52 47 39 0 0
-0.0814 -0.1874 -0.5512 -0.463 -0.875 -0.138 43 36 28 0 0
-0.1087 -0.0930 -0.7066 -0.735 -0.579 0.354 24 19 16 0 0
-0.1077 -0.0989 -0.7066 0.214 0.104 0.971 33 29 26 0 0
-0.1021 -0.1367 -0.7166 0.125 -0.534 0.836 77 68 52 0 0
-0.1019 -0.1382 -0.7175 0.013 -0.770 0.638 73 64 47 0 0
-0.1015 -0.1427 -0.7224 0.245 -0.845 0.475 100 81 54 0 0
-0.1101 -0.1134 -0.7727 -0.174 -0.945 -0.276 84 74 49 0 0
-0.1102 -0.1135 -0.7748 -0.065 -0.963 0.260 75 64 42 0 0
-0.1081 -0.1460 -0.8204 0.079 -0.990 0.116 59 48 29 0 0
-0.1083 -0.1461 -0.8225 -0.051 -0.993 0.104 80 67 42 0 0
-0.1085 -0.1460 -0.8248 -0.157 -0.811 0.563 89 77 54 0 0
-0.0684 -0.1640 -0.3021 0.573 -0.628 0.527 37 31 21 0 0
-0.0684 -0.2130 -0.4130 -0.188 -0.939 0.287 56 38 19 0 0
-0.0686 -0.2146 -0.4201 0.114 -0.976 0.188 83 61 31 0 0
-0.0688 -0.2150 -0.4231 0.236 -0.918 0.319 92 71 46 0 0
-0.0701 -0.2163 -0.4433 0.167 -0.937 0.307 129 109 73 0 0
-0.0805 -0.1909 -0.5261 0.035 -0.999 -0.026 101 89 69 0 0
-0.0807 -0.1905 -0.5281 0.039 -0.984 -0.171 119 108 92 0 0
-0.0827 -0.1851 -0.5419 -0.152 -0.936 -0.318 67 60 55 0 0
-0.1111 -0.0894 -0.7071 -0.672 -0.356 0.650 22 17 15 0 0
-0.1109 -0.0911 -0.7080 -0.716 -0.465 0.520 29 24 21 0 0
-0.1066 -0.1171 -0.7103 0.669 -0.557 0.493 49 42 32 0 0
-0.1120 -0.1131 -0.7730 -0.047 -0.980 -0.194 79 69 45 0 0
-0.1109 -0.1366 -0.8130 0.215 -0.880 0.424 45 33 16 0 0
-0.1110 -0.1386 -0.8179 0.028 -0.998 -0.050 46 36 20 0 0
-0.1100 -0.1458 -0.8206 -0.038 -0.990 0.132 58 47 28 0 0
-0.1109 -0.1601 -0.8659 -0.372 -0.900 0.225 142 140 136 0 0
-0.1121 -0.1573 -0.8754 0.493 -0.828 -0.267 180 178 179 0 0
-0.0706 -0.1651 -0.3137 0.181 -0.984 -0.003 118 104 79 0 0
-0.0707 -0.1651 -0.3152 0.181 -0.984 -0.003 127 112 85 0 0
-0.0699 -0.2127 -0.4131 0.140 -0.917 0.373 66 50 33 0 0
-0.0719 -0.2175 -0.4508 0.199 -0.978 0.059 122 103 73 0 0
-0.1049 -0.1066 -0.6401 0.287 -0.952 -0.108 47 38 30 0 0
-0.1051 -0.1064 -0.6422 0.323 -0.930 -0.177 54 45 35 0 0
-0.1137 -0.0842 -0.7066 -0.595 -0.361 0.718 20 14 13 0 0
-0.1073 -0.1232 -0.7101 -0.268 -0.744 0.612 68 58 47 0 0
-0.1137 -0.1133 -0.7729 0.028 -0.995 -0.096 64 53 31 0 0
-0.1127 -0.1370 -0.8128 0.215 -0.880 0.424 55 42 25 0 0
-0.1125 -0.1385 -0.8137 -0.051 -0.990 0.133 52 40 21 0 0
-0.1129 -0.1407 -0.8251 -0.148 -0.981 0.128 58 47 27 0 0
-0.1121 -0.1522 -0.8395 -0.057 -0.943 0.329 121 105 73 0 0
-0.1120 -0.1530 -0.8410 -0.114 -0.895 0.431 120 105 72 0 0
-0.1128 -0.1597 -0.8664 -0.237 -0.887 0.397 148 145 144 0 0
-0.1136 -0.1583 -0.8746 0.463 -0.858 -0.223 181 180 179 0 0
-0.0936 -0.0118 -0.2503 -0.596 -0.470 0.651 140 127 110 0 0
-0.0719 -0.2154 -0.4261 0.022 -0.883 0.468 108 91 63 0 0
-0.0729 -0.2153 -0.4390 -0.343 -0.887 0.309 108 92 59 0 0
-0.0729 -0.2155 -0.4405 -0.167 -0.921 0.352 114 98 64 0 0
-0.0729 -0.2160 -0.4418 -0.185 -0.919 0.348 123 105 69 0 0
-0.1062 -0.1073 -0.6356 0.292 -0.956 0.009 32 24 17 0 0
-0.1065 -0.1071 -0.6398 0.287 -0.952 -0.108 74 64 54 0 0
-0.1157 -0.0833 -0.7073 -0.742 -0.421 0.522 20 15 13 0 0
-0.1095 -0.1199 -0.7084 0.160 -0.442 0.883 56 48 38 0 0
-0.1091 -0.1226 -0.7085 -0.111 -0.966 0.235 65 56 45 0 0
-0.1072 -0.1377 -0.7180 0.122 -0.851 0.510 104 85 54 0 0
-0.1155 -0.1134 -0.7729 0.193 -0.981 -0.030 67 57 33 0 0
-0.1157 -0.1130 -0.7754 -0.122 -0.979 0.164 54 42 21 0 0
-0.1148 -0.1404 -0.8254 0.334 -0.908 0.254 63 50 29 0 0
-0.1146 -0.1589 -0.8650 -0.215 -0.938 0.273 130 126 120 0 0
-0.1147 -0.1594 -0.8668 -0.215 -0.938 0.273 153 150 150 0 0
-0.1147 -0.1601 -0.8684 -0.237 -0.887 0.397 166 164 164 0 0
-0.1145 -0.1620 -0.8712 -0.292 -0.276 0.916 182 181 179 0 0
-0.0952 -0.0104 -0.2473 -0.574 -0.658 0.488 176 176 177 0 0
-0.0953 -0.0120 -0.2518 -0.514 -0.412 0.752 130 117 97 0 0
-0.0930 -0.0402 -0.2867 0.158 -0.973 0.167 73 62 47 0 0
-0.0709 -0.2049 -0.3700 0.151 -0.859 0.489 61 47 27 0 0
-0.0725 -0.2183 -0.4215 0.082 -0.961 0.264 93 77 49 0 0
-0.0742 -0.2142 -0.4347 -0.043 -0.964 0.261 114 98 64 0 0
-0.0742 -0.2146 -0.4361 0.017 -0.913 0.407 114 98 66 0 0
-0.0743 -0.2154 -0.4389 0.017 -0.979 0.203 123 107 75 0 0
-0.0840 -0.1923 -0.5149 0.093 -0.962 -0.255 111 102 78 0 0
-0.0843 -0.1919 -0.5169 0.122 -0.958 -0.258 91 82 64 0 0
-0.1073 -0.1073 -0.6277 0.493 -0.856 0.154 21 16 12 0 0
-0.1078 -0.1078 -0.6353 0.292 -0.956 0.009 49 40 31 0 0
-0.1173 -0.0841 -0.7068 -0.113 -0.988 0.110 21 15 14 0 0
-0.1174 -0.0844 -0.7087 0.270 -0.958 -0.098 24 19 16 0 0
-0.1115 -0.1181 -0.7077 0.197 -0.287 0.937 52 45 37 0 0
-0.1112 -0.1201 -0.7083 0.118 -0.453 0.884 58 51 41 0 0
-0.1109 -0.1229 -0.7104 0.347 -0.775 0.529 73 65 48 0 0
-0.1109 -0.1354 -0.7387 -0.173 -0.925 -0.339 122 106 76 0 0
-0.1149 -0.1349 -0.7905 0.070 -0.861 0.503 58 45 26 0 0
-0.1150 -0.1361 -0.7939 -0.088 -0.945 0.315 53 41 23 0 0
-0.1165 -0.1586 -0.8653 -0.195 -0.931 0.308 136 133 127 0 0
-0.1165 -0.1594 -0.8669 0.065 -0.396 0.916 158 155 154 0 0
-0.1166 -0.1595 -0.8690 0.151 -0.392 0.907 169 167 167 0 0
-0.1163 -0.1624 -0.8709 -0.099 -0.212 0.972 182 181 179 0 0
-0.0725 -0.1887 -0.3354 0.131 -0.893 0.430 120 103 74 0 0
-0.0718 -0.1932 -0.3367 -0.194 -0.951 0.242 89 72 44 0 0
-0.1089 -0.1081 -0.6272 0.541 -0.830 0.137 26 18 11 0 0
-0.1091 -0.1093 -0.6325 0.452 -0.889 0.077 65 56 41 0 0
-0.1092 -0.1095 -0.6343 0.452 -0.889 0.077 61 54 41 0 0
-0.1109 -0.1351 -0.7159 0.092 -0.663 0.743 107 88 55 0 0
-0.1197 -0.1114 -0.7768 0.310 -0.902 0.300 65 53 29 0 0
-0.1196 -0.1147 -0.7829 -0.016 -0.948 0.319 62 47 24 0 0
-0.1180 -0.1422 -0.8240 -0.382 -0.920 0.089 78 64 38 0 0
-0.1180 -0.1428 -0.8257 -0.390 -0.880 0.272 100 84 59 0 0
-0.1182 -0.1576 -0.8619 -0.237 -0.782 0.577 77 73 61 0 0
-0.1182 -0.1596 -0.8668 -0.118 -0.672 0.731 159 158 156 0 0
-0.1183 -0.1598 -0.8689 0.140 -0.494 0.858 171 169 169 0 0
-0.0979 -0.0178 -0.2568 -0.688 -0.589 0.425 92 76 55 0 0
-0.0737 -0.2050 -0.3699 0.209 -0.874 0.438 63 51 29 0 0
-0.0762 -0.2156 -0.4261 0.147 -0.849 0.508 121 105 72 0 0
-0.0774 -0.2138 -0.4382 -0.177 -0.781 0.598 119 103 70 0 0
-0.1101 -0.1076 -0.6197 0.780 -0.436 0.450 18 13 9 0 0
-0.1100 -0.1087 -0.6210 0.780 -0.436 0.450 20 14 10 0 0
-0.1104 -0.1084 -0.6251 0.383 -0.915 0.129 44 36 26 0 0
-0.1102 -0.1096 -0.6263 0.418 -0.884 0.208 41 33 22 0 0
-0.1105 -0.1092 -0.6286 0.242 -0.969 -0.043 53 44 29 0 0
-0.1106 -0.1092 -0.6305 0.331 -0.940 -0.080 71 60 43 0 0
-0.1106 -0.1100 -0.6320 0.452 -0.889 0.077 67 55 41 0 0
-0.1125 -0.1049 -0.6453 0.191 -0.917 -0.350 36 31 26 0 0
-0.1129 -0.1038 -0.6481 0.364 -0.891 -0.272 27 22 18 0 0
-0.1128 -0.1339 -0.7148 0.077 -0.651 0.755 107 88 57 0 0
-0.1125 -0.1373 -0.7185 0.031 -0.935 0.353 109 87 54 0 0
-0.1214 -0.1133 -0.7797 0.167 -0.893 0.419 75 60 38 0 0
-0.1199 -0.1474 -0.8374 0.064 -0.723 0.688 106 91 58 0 0
-0.1201 -0.1570 -0.8625 -0.352 -0.866 0.355 85 83 71 0 0
-0.1200 -0.1595 -0.8670 -0.118 -0.672 0.731 163 162 160 0 0
-0.0999 -0.0157 -0.2573 -0.688 -0.589 0.425 87 74 56 0 0
-0.0980 -0.0395 -0.2868 0.057 -0.918 0.392 134 123 101 0 0
-0.0752 -0.1946 -0.3467 0.028 -0.983 0.180 85 68 41 0 0
-0.0751 -0.2053 -0.3698 0.209 -0.874 0.438 60 46 27 0 0
-0.0751 -0.2065 -0.3724 0.160 -0.891 0.424 51 37 17 0 0
-0.1116 -0.1065 -0.6145 0.331 -0.937 0.115 23 17 11 0 0
-0.1117 -0.1069 -0.6163 0.330 -0.929 0.167 20 16 10 0 0
-0.1117 -0.1074 -0.6179 0.389 -0.731 0.561 20 15 10 0 0
-0.1117 -0.1081 -0.6194 0.111 -0.953 0.283 28 21 15 0 0
-0.1118 -0.1084 -0.6212 0.129 -0.912 0.388 32 25 17 0 0
-0.1119 -0.1085 -0.6231 0.521 -0.821 0.234 38 31 22 0 0
-0.1119 -0.1090 -0.6247 0.383 -0.915 0.129 44 36 24 0 0
-0.1128 -0.1086 -0.6350 -0.290 -0.955 -0.068 69 61 44 0 0
-0.1146 -0.1040 -0.6480 0.258 -0.935 -0.242 27 22 18 0 0
-0.1226 -0.0820 -0.6999 0.091 -0.681 0.726 15 9 9 0 0
-0.1179 -0.1118 -0.7082 0.832 -0.455 0.318 52 47 39 0 0
-0.1148 -0.1388 -0.7299 -0.221 -0.966 -0.135 128 112 81 0 0
-0.1234 -0.1119 -0.7787 0.263 -0.868 0.422 62 47 26 0 0
-0.1234 -0.1126 -0.7803 0.133 -0.903 0.409 69 54 33 0 0
-0.1219 -0.1592 -0.8673 -0.221 -0.645 0.732 166 165 163 0 0
-0.1226 -0.1570 -0.8717 -0.292 -0.225 0.930 174 173 171 0 0
-0.0997 -0.0543 -0.3217 -0.062 -0.994 0.089 77 66 53 0 0
-0.0765 -0.1953 -0.3464 0.183 -0.941 0.285 73 56 30 0 0
-0.0765 -0.1957 -0.3478 0.083 -0.938 0.336 85 68 41 0 0
-0.0766 -0.1961 -0.3492 0.071 -0.974 0.214 88 71 45 0 0
-0.0765 -0.2055 -0.3697 0.141 -0.915 0.377 67 51 30 0 0
-0.0765 -0.2060 -0.3711 0.122 -0.855 0.505 70 55 31 0 0
-0.0816 -0.2129 -0.4516 -0.024 -0.999 0.033 138 119 85 0 0
-0.0821 -0.2117 -0.4555 0.169 -0.979 0.115 141 123 86 0 0
-0.0873 -0.1988 -0.4925 0.138 -0.957 -0.257 46 39 31 0 0
-0.0875 -0.1983 -0.4944 0.138 -0.957 -0.257 29 22 16 0 0
-0.1130 -0.1066 -0.6106 0.200 -0.979 0.049 36 29 22 0 0
-0.1132 -0.1069 -0.6143 0.721 -0.601 0.347 23 18 12 0 0
-0.1132 -0.1074 -0.6159 0.576 -0.780 0.244 25 20 13 0 0
-0.1134 -0.1076 -0.6178 0.607 -0.770 0.198 28 24 16 0 0
-0.1133 -0.1085 -0.6192 0.482 -0.831 0.279 37 29 21 0 0
-0.1134 -0.1090 -0.6209 0.253 -0.874 0.415 42 32 22 0 0
-0.1134 -0.1094 -0.6226 0.521 -0.821 0.234 44 34 23 0 0
-0.1133 -0.1105 -0.6238 0.398 -0.899 0.180 51 42 28 0 0
-0.1226 -0.0831 -0.6804 0.095 -0.952 -0.291 11 10 8 0 0
-0.1160 -0.1379 -0.7203 0.009 -0.940 0.342 92 75 47 0 0
-0.1248 -0.1128 -0.7759 0.310 -0.906 0.289 60 45 24 0 0
-0.1244 -0.1218 -0.7906 -0.005 -0.866 0.500 77 65 42 0 0
-0.1243 -0.1226 -0.7921 -0.005 -0.866 0.500 82 68 42 0 0
-0.1241 -0.1441 -0.8382 0.063 -0.861 0.505 91 77 47 0 0
-0.1241 -0.1450 -0.8397 0.063 -0.861 0.505 109 95 60 0 0
-0.1239 -0.1479 -0.8438 -0.076 -0.930 0.360 118 103 70 0 0
-0.1245 -0.1565 -0.8722 -0.323 -0.208 0.923 176 175 172 0 0
-0.1012 -0.0387 -0.2853 0.117 -0.726 0.678 182 168 142 0 0
-0.1013 -0.0541 -0.3218 0.086 -0.995 0.050 66 56 43 0 0
-0.1016 -0.0536 -0.3236 0.100 -0.993 -0.059 36 25 17 0 0
-0.0779 -0.1965 -0.3490 0.221 -0.915 0.339 88 71 46 0 0
-0.0780 -0.1964 -0.3505 0.024 -0.970 0.242 84 67 42 0 0
-0.0886 -0.1989 -0.4907 -0.471 -0.834 -0.289 17 13 10 0 0
-0.0890 -0.1979 -0.4929 -0.436 -0.850 -0.295 14 11 8 0 0
-0.1148 -0.1083 -0.6154 0.737 -0.644 0.203 39 32 24 0 0
-0.1148 -0.1086 -0.6172 0.610 -0.777 0.155 40 33 24 0 0
-0.1148 -0.1094 -0.6187 0.545 -0.776 0.316 44 35 25 0 0
-0.1148 -0.1100 -0.6202 0.513 -0.821 0.252 53 42 30 0 0
-0.1146 -0.1117 -0.6212 0.162 -0.985 -0.058 60 49 35 0 0
-0.1148 -0.1114 -0.6233 -0.010 -0.995 -0.097 59 50 34 0 0
-0.1274 -0.0760 -0.7021 -0.095 -0.702 0.706 15 11 10 0 0
-0.1264 -0.1157 -0.7802 0.097 -0.783 0.614 72 57 36 0 0
-0.1258 -0.1424 -0.8331 -0.250 -0.873 0.420 92 79 45 0 0
-0.1032 -0.0556 -0.3279 0.088 -0.808 0.582 71 61 49 0 0
-0.0799 -0.1963 -0.3551 -0.266 -0.883 0.387 83 68 45 0 0
-0.0801 -0.1981 -0.3621 0.542 -0.828 0.144 65 50 29 0 0
-0.0801 -0.1984 -0.3635 0.468 -0.864 0.186 79 64 42 0 0
-0.0807 -0.2086 -0.3931 -0.071 -0.971 0.229 86 71 48 0 0
-0.0825 -0.2111 -0.4219 -0.178 -0.964 0.196 100 84 51 0 0
-0.0859 -0.2080 -0.4574 -0.057 -0.701 0.711 129 112 83 0 0
-0.0858 -0.2088 -0.4587 0.019 -0.917 0.398 128 113 82 0 0
-0.0859 -0.2096 -0.4615 0.332 -0.943 -0.017 90 78 62 0 0
-0.0876 -0.2036 -0.4697 -0.024 -0.993 -0.112 96 87 72 0 0
-0.0898 -0.1995 -0.4870 -0.406 -0.857 -0.316 35 27 21 0 0
-0.1170 -0.1012 -0.6061 0.621 -0.600 0.504 31 21 17 0 0
-0.1162 -0.1083 -0.6115 0.696 -0.616 0.369 38 31 23 0 0
-0.1162 -0.1086 -0.6133 0.708 -0.686 0.169 44 35 27 0 0
-0.1163 -0.1090 -0.6150 0.633 -0.770 0.082 45 36 27 0 0
-0.1163 -0.1097 -0.6166 0.448 -0.894 0.004 47 39 27 0 0
-0.1161 -0.1115 -0.6174 0.088 -0.979 -0.186 54 45 31 0 0
-0.1294 -0.0735 -0.6996 0.090 -0.946 0.312 14 13 11 0 0
-0.1293 -0.0749 -0.7008 0.267 -0.673 0.690 16 12 11 0 0
-0.1292 -0.0761 -0.7020 0.100 -0.678 0.729 18 12 11 0 0
-0.1202 -0.1274 -0.7054 0.135 -0.970 0.203 76 68 55 0 0
-0.1208 -0.1254 -0.7089 -0.058 -0.729 0.682 88 79 59 0 0
-0.1282 -0.1159 -0.7801 0.097 -0.783 0.614 77 62 39 0 0
-0.1281 -0.1170 -0.7815 0.097 -0.783 0.614 76 61 39 0 0
-0.1269 -0.1425 -0.8242 -0.146 -0.918 0.370 104 89 57 0 0
-0.1275 -0.1477 -0.8442 -0.076 -0.930 0.360 116 102 69 0 0
-0.1279 -0.1491 -0.8519 0.126 -0.958 0.259 117 104 73 0 0
-0.1050 -0.0546 -0.3282 0.187 -0.929 0.319 44 35 25 0 0
-0.0821 -0.2091 -0.3945 0.319 -0.930 0.182 59 45 20 0 0
-0.0822 -0.2094 -0.3959 0.319 -0.930 0.182 65 50 27 0 0
-0.0822 -0.2097 -0.3973 0.361 -0.901 0.239 60 45 23 0 0
-0.0823 -0.2101 -0.3987 0.361 -0.901 0.239 51 36 16 0 0
-0.0858 -0.2017 -0.4232 -0.834 -0.119 0.540 77 62 33 0 0
-0.0852 -0.2113 -0.4378 0.120 -0.969 -0.214 111 94 66 0 0
-0.0869 -0.2094 -0.4551 -0.367 -0.908 0.200 116 101 78 0 0
-0.0872 -0.2087 -0.4571 0.388 -0.744 0.543 110 97 73 0 0
-0.0871 -0.2098 -0.4581 0.514 -0.826 0.231 104 91 69 0 0
-0.0872 -0.2103 -0.4612 0.870 -0.484 -0.091 83 71 61 0 0
-0.0894 -0.2044 -0.4743 0.784 -0.598 -0.167 48 39 30 0 0
-0.0917 -0.1965 -0.4852 -0.647 -0.760 -0.058 59 49 38 0 0
-0.1176 -0.1095 -0.6108 0.770 -0.555 0.313 52 43 32 0 0
-0.1177 -0.1098 -0.6126 0.720 -0.687 0.099 55 44 32 0 0
-0.1192 -0.1082 -0.6274 0.027 -1.000 -0.007 65 56 39 0 0
-0.1195 -0.1075 -0.6299 0.266 -0.963 -0.045 62 53 36 0 0
-0.1312 -0.0737 -0.6995 -0.231 -0.873 0.429 14 12 10 0 0
-0.1312 -0.0744 -0.7011 -0.231 -0.873 0.429 16 12 11 0 0
-0.1302 -0.1483 -0.8573 0.078 -0.962 0.261 93 84 56 0 0
-0.1064 -0.0561 -0.3294 0.063 -0.881 0.469 44 36 25 0 0
-0.1190 -0.1103 -0.6084 0.738 -0.589 0.331 50 39 25 0 0
-0.1190 -0.1106 -0.6102 0.678 -0.711 0.187 57 45 32 0 0
-0.1191 -0.1111 -0.6118 0.677 -0.712 0.184 59 46 32 0 0
-0.1191 -0.1122 -0.6150 -0.086 -0.995 -0.049 73 63 47 0 0
-0.1194 -0.1120 -0.6172 -0.015 -0.992 -0.122 79 70 52 0 0
-0.1210 -0.1082 -0.6294 0.157 -0.988 -0.009 76 67 50 0 0
-0.1214 -0.1072 -0.6321 0.486 -0.790 0.373 65 56 40 0 0
-0.1213 -0.1083 -0.6333 0.311 -0.844 0.437 63 55 38 0 0
-0.1331 -0.0733 -0.6998 -0.023 -0.919 0.394 12 10 8 0 0
-0.1328 -0.1090 -0.7770 -0.011 -0.827 0.562 70 58 36 0 0
-0.1325 -0.1132 -0.7824 0.214 -0.808 0.549 77 63 39 0 0
-0.1319 -0.1474 -0.8537 -0.280 -0.897 0.341 98 83 52 0 0
-0.1319 -0.1480 -0.8554 -0.280 -0.897 0.341 93 79 50 0 0
-0.1076 -0.0538 -0.3185 0.220 -0.899 0.380 61 52 40 0 0
-0.1216 -0.0970 -0.5892 -0.270 -0.660 0.701 40 33 25 0 0
-0.1215 -0.0981 -0.5905 -0.106 -0.918 0.382 54 47 37 0 0
-0.1214 -0.1006 -0.5948 0.416 -0.825 0.383 27 18 11 0 0
-0.1205 -0.1105 -0.6063 0.652 -0.673 0.348 57 45 29 0 0
-0.1207 -0.1102 -0.6085 0.373 -0.911 0.173 66 53 37 0 0
-0.1218 -0.1088 -0.6192 -0.106 -0.982 0.158 79 66 50 0 0
-0.1227 -0.1077 -0.6278 0.298 -0.945 0.132 58 50 33 0 0
-0.1228 -0.1080 -0.6296 0.326 -0.943 0.062 52 45 27 0 0
-0.1230 -0.1079 -0.6317 0.117 -0.949 0.292 52 45 27 0 0
-0.1325 -0.0800 -0.6848 -0.331 -0.921 -0.208 12 11 9 0 0
-0.1347 -0.0748 -0.7009 0.133 -0.872 0.471 10 9 7 0 0
-0.1232 -0.0981 -0.5905 -0.121 -0.842 0.526 46 39 30 0 0
-0.1231 -0.0993 -0.5918 -0.006 -0.848 0.530 33 26 17 0 0
-0.1230 -0.1001 -0.5932 0.197 -0.790 0.580 34 25 18 0 0
-0.1229 -0.1015 -0.5944 0.567 -0.486 0.666 46 37 28 0 0
-0.1227 -0.1029 -0.5954 0.666 -0.440 0.602 46 36 26 0 0
-0.1224 -0.1060 -0.5994 0.781 -0.536 0.321 66 55 39 0 0
-0.1226 -0.1093 -0.6091 -0.141 -0.929 0.342 64 51 34 0 0
-0.1236 -0.1090 -0.6211 -0.236 -0.944 0.232 79 66 50 0 0
-0.1242 -0.1087 -0.6272 0.091 -0.995 0.038 57 48 29 0 0
-0.1260 -0.1059 -0.6430 -0.018 -0.913 -0.409 52 44 35 0 0
-0.1267 -0.1383 -0.7245 0.078 -0.814 0.576 97 82 50 0 0
-0.1348 -0.1362 -0.8188 -0.056 -0.944 0.324 66 55 30 0 0
-0.1347 -0.1371 -0.8203 -0.141 -0.931 0.335 73 58 33 0 0
-0.1364 -0.1478 -0.8649 -0.118 -0.976 0.185 65 58 44 0 0
-0.1243 -0.1005 -0.5891 0.673 -0.611 0.416 39 32 25 0 0
-0.1255 -0.1087 -0.6213 -0.236 -0.944 0.232 75 62 45 0 0
-0.1264 -0.1087 -0.6332 -0.028 -0.976 0.217 61 52 33 0 0
-0.1265 -0.1090 -0.6350 -0.028 -0.976 0.217 75 67 51 0 0
-0.1269 -0.1083 -0.6375 -0.058 -0.981 -0.184 66 59 45 0 0
-0.1383 -0.0703 -0.6893 -0.016 -0.857 -0.514 10 9 7 0 0
-0.1318 -0.1101 -0.7016 0.647 -0.756 0.097 41 37 34 0 0
-0.1318 -0.1120 -0.7064 0.613 -0.429 0.663 52 44 37 0 0
-0.1373 -0.1283 -0.8100 0.005 -0.987 0.163 52 37 16 0 0
-0.1369 -0.1350 -0.8199 0.301 -0.860 0.412 68 56 30 0 0
-0.1369 -0.1358 -0.8215 0.301 -0.860 0.412 79 65 37 0 0
-0.1135 -0.0598 -0.3447 -0.215 -0.975 0.056 183 174 162 0 0
-0.1270 -0.1089 -0.6192 0.085 -0.777 0.624 71 58 41 0 0
-0.1272 -0.1087 -0.6213 0.266 -0.886 0.380 63 50 33 0 0
-0.1275 -0.1080 -0.6238 0.216 -0.976 -0.014 65 52 33 0 0
-0.1283 -0.1075 -0.6320 -0.318 -0.914 0.253 86 75 57 0 0
-0.1398 -0.0720 -0.6903 -0.250 -0.894 0.372 10 9 7 0 0
-0.1391 -0.1271 -0.8067 0.398 -0.872 0.285 77 63 38 0 0
-0.1391 -0.1277 -0.8083 0.524 -0.774 0.356 68 52 29 0 0
-0.1385 -0.1350 -0.8177 0.020 -0.906 0.424 70 56 30 0 0
-0.1385 -0.1357 -0.8194 -0.025 -0.913 0.408 72 59 32 0 0
-0.1385 -0.1365 -0.8209 -0.106 -0.822 0.560 98 83 53 0 0
-0.1387 -0.1384 -0.8282 -0.278 -0.883 0.378 141 127 90 0 0
-0.1167 -0.0248 -0.2840 -0.318 -0.362 0.876 170 156 121 0 0
-0.1299 -0.0877 -0.5851 0.885 0.100 0.456 33 29 23 0 0
-0.1282 -0.0968 -0.5856 0.788 -0.452 0.418 61 51 42 0 0
-0.1286 -0.1084 -0.6176 0.227 -0.910 0.346 57 44 27 0 0
-0.1286 -0.1091 -0.6192 0.085 -0.777 0.624 77 64 47 0 0
-0.1288 -0.1091 -0.6211 0.301 -0.850 0.432 76 63 46 0 0
-0.1291 -0.1085 -0.6235 0.042 -0.996 0.085 75 64 44 0 0
-0.1416 -0.0722 -0.6902 0.001 -0.909 0.418 10 9 8 0 0
-0.1418 -0.1177 -0.7968 0.092 -0.968 0.233 119 101 71 0 0
-0.1405 -0.1391 -0.8299 0.248 -0.908 0.338 127 113 79 0 0
-0.1405 -0.1397 -0.8316 0.248 -0.908 0.338 105 92 59 0 0
-0.1288 -0.1040 -0.5891 0.111 -0.988 -0.108 62 51 35 0 0
-0.1302 -0.1089 -0.6173 0.480 -0.848 0.225 65 52 35 0 0
-0.1304 -0.1091 -0.6192 0.381 -0.828 0.412 82 69 52 0 0
-0.1304 -0.1096 -0.6209 0.188 -0.956 0.225 76 63 46 0 0
-0.1309 -0.1083 -0.6236 -0.042 -0.972 0.233 89 78 60 0 0
-0.1435 -0.0716 -0.6907 0.087 -0.937 0.338 10 8 8 0 0
-0.1383 -0.1038 -0.7020 0.394 -0.321 0.861 37 33 30 0 0
-0.1438 -0.1071 -0.7745 -0.127 -0.991 -0.033 67 55 30 0 0
-0.1447 -0.1095 -0.7902 -0.054 -0.957 0.285 114 97 67 0 0
-0.1425 -0.1257 -0.8014 0.283 -0.889 0.360 65 52 34 0 0
-0.1134 -0.0988 -0.3758 0.193 -0.771 0.606 188 173 139 0 0
-0.1289 -0.0999 -0.5608 0.677 -0.491 -0.549 35 27 22 0 0
-0.1304 -0.1037 -0.5873 0.189 -0.962 0.196 86 75 58 0 0
-0.1307 -0.1046 -0.5926 0.184 -0.924 0.335 74 61 44 0 0
-0.1307 -0.1057 -0.5958 0.064 -0.917 0.393 63 50 33 0 0
-0.1321 -0.1098 -0.6207 0.188 -0.956 0.225 76 64 47 0 0
-0.1418 -0.0972 -0.7067 -0.080 -0.813 0.577 38 34 31 0 0
-0.1471 -0.1044 -0.7855 0.381 -0.558 0.738 76 62 38 0 0
-0.1454 -0.1187 -0.7983 -0.014 -0.748 0.663 86 71 37 0 0
-0.1443 -0.1256 -0.8015 -0.042 -0.896 0.442 72 59 37 0 0
-0.1440 -0.1375 -0.8247 0.067 -0.932 0.357 161 140 99 0 0
-0.1462 -0.1378 -0.8515 -0.256 -0.934 0.248 154 140 92 0 0
-0.1461 -0.1398 -0.8543 -0.186 -0.697 0.692 134 120 87 0 0
-0.1233 -0.0540 -0.3705 -0.406 -0.900 0.157 53 43 34 0 0
-0.1154 -0.0957 -0.3736 0.209 -0.399 0.893 159 145 118 0 0
-0.1154 -0.0966 -0.3749 0.161 -0.451 0.878 187 173 141 0 0
-0.1150 -0.0991 -0.3757 0.106 -0.834 0.541 168 154 115 0 0
-0.1149 -0.1001 -0.3769 0.193 -0.771 0.606 202 190 153 0 0
-0.1279 -0.1089 -0.5500 -0.309 -0.906 0.289 45 37 24 0 0
-0.1282 -0.1092 -0.5536 0.006 -0.975 -0.224 44 36 26 0 0
-0.1329 -0.0966 -0.5800 0.155 -0.735 0.660 53 45 33 0 0
-0.1328 -0.0977 -0.5812 0.155 -0.735 0.660 83 74 59 0 0
-0.1326 -0.0989 -0.5825 0.084 -0.812 0.578 79 69 52 0 0
-0.1326 -0.0998 -0.5838 0.084 -0.812 0.578 82 71 54 0 0
-0.1324 -0.1011 -0.5851 0.155 -0.735 0.660 74 61 47 0 0
-0.1321 -0.1064 -0.5935 0.080 -0.872 0.483 51 38 22 0 0
-0.1473 -0.0685 -0.6845 0.210 -0.973 0.097 12 9 8 0 0
-0.1474 -0.0687 -0.6864 0.210 -0.973 0.097 10 8 7 0 0
-0.1431 -0.1188 -0.7504 0.078 -0.988 -0.130 122 106 74 0 0
-0.1463 -0.1322 -0.8183 -0.149 -0.928 0.342 89 78 49 0 0
-0.1229 -0.0557 -0.3511 0.160 -0.978 -0.138 45 38 30 0 0
-0.1230 -0.0560 -0.3527 0.206 -0.979 0.007 43 36 28 0 0
-0.1235 -0.0545 -0.3549 -0.031 -0.950 -0.310 45 38 30 0 0
-0.1234 -0.0621 -0.3709 0.002 0.054 0.999 100 93 84 0 0
-0.1169 -0.0969 -0.3748 0.161 -0.451 0.878 175 161 128 0 0
-0.1275 -0.1131 -0.5346 0.485 -0.842 -0.236 65 53 31 0 0
-0.1279 -0.1120 -0.5371 0.475 -0.836 -0.276 61 49 30 0 0
-0.1291 -0.1090 -0.5444 0.464 -0.815 -0.347 56 46 29 0 0
-0.1295 -0.1082 -0.5467 0.464 -0.815 -0.347 53 43 27 0 0
-0.1292 -0.1099 -0.5476 0.498 -0.864 -0.077 53 44 28 0 0
-0.1295 -0.1092 -0.5498 0.384 -0.923 0.031 49 42 27 0 0
-0.1297 -0.1093 -0.5517 0.384 -0.923 0.031 47 39 26 0 0
-0.1298 -0.1094 -0.5535 0.384 -0.923 0.031 47 39 27 0 0
-0.1304 -0.1078 -0.5563 0.004 -0.969 0.246 46 38 27 0 0
-0.1304 -0.1082 -0.5580 0.166 -0.886 -0.433 42 35 26 0 0
-0.1341 -0.0974 -0.5757 0.732 -0.682 -0.004 41 33 23 0 0
-0.1341 -0.0979 -0.5773 0.785 -0.547 0.290 48 40 29 0 0
-0.1341 -0.0992 -0.5804 0.608 -0.767 0.207 67 59 47 0 0
-0.1339 -0.1048 -0.5906 0.045 -0.946 0.321 48 34 21 0 0
-0.1338 -0.1058 -0.5920 0.035 -0.901 0.432 51 37 23 0 0
-0.1500 -0.0685 -0.6950 0.079 -0.938 0.338 15 11 10 0 0
-0.1492 -0.1175 -0.7973 -0.058 -0.785 0.617 107 91 62 0 0
-0.1497 -0.1384 -0.8512 0.113 -0.979 0.169 176 159 115 0 0
-0.1500 -0.1472 -0.8752 0.386 -0.314 0.867 175 173 172 0 0
-0.1245 -0.0558 -0.3511 -0.157 -0.985 -0.077 49 42 33 0 0
-0.1246 -0.0560 -0.3527 -0.084 -0.995 0.060 48 41 33 0 0
-0.1289 -0.1154 -0.5371 -0.113 -0.976 0.184 66 50 32 0 0
-0.1290 -0.1157 -0.5387 -0.113 -0.976 0.184 62 49 30 0 0
-0.1290 -0.1161 -0.5404 -0.089 -0.980 0.180 62 49 32 0 0
-0.1309 -0.1103 -0.5492 0.666 -0.742 -0.074 54 45 28 0 0
-0.1316 -0.1089 -0.5538 0.849 -0.520 0.097 52 42 27 0 0
-0.1322 -0.1071 -0.5567 0.574 -0.815 0.080 49 38 24 0 0
-0.1321 -0.1083 -0.5580 0.703 -0.520 -0.486 49 39 27 0 0
-0.1325 -0.1074 -0.5604 0.637 -0.637 -0.434 45 35 26 0 0
-0.1335 -0.1048 -0.5657 0.764 -0.538 -0.356 35 27 19 0 0
-0.1339 -0.1034 -0.5683 0.737 -0.556 -0.384 37 29 21 0 0
-0.1344 -0.1022 -0.5709 0.730 -0.563 -0.388 36 28 20 0 0
-0.1353 -0.0994 -0.5745 0.713 -0.698 -0.065 46 37 28 0 0
-0.1353 -0.1001 -0.5760 0.596 -0.793 0.125 49 41 31 0 0
-0.1354 -0.1004 -0.5778 0.569 -0.810 0.145 50 42 31 0 0
-0.1356 -0.1043 -0.5890 0.163 -0.960 0.228 49 35 22 0 0
-0.1354 -0.1061 -0.5918 0.302 -0.820 0.487 48 34 20 0 0
-0.1355 -0.1066 -0.5934 0.488 -0.855 0.174 44 30 16 0 0
-0.1420 -0.1319 -0.7257 -0.080 -0.989 0.126 123 106 76 0 0
-0.1510 -0.1437 -0.8579 0.096 -0.896 0.433 104 96 67 0 0
-0.1303 -0.0457 -0.3751 -0.869 -0.478 0.129 77 69 57 0 0
-0.1218 -0.0863 -0.3704 0.112 -0.157 0.981 147 134 115 0 0
-0.1200 -0.1049 -0.3918 -0.327 -0.945 0.023 88 77 57 0 0
-0.1299 -0.1129 -0.5237 0.224 -0.954 0.198 82 68 41 0 0
-0.1307 -0.1156 -0.5389 -0.113 -0.976 0.184 65 52 33 0 0
-0.1319 -0.1133 -0.5476 0.416 -0.908 0.044 60 49 30 0 0
-0.1335 -0.1086 -0.5559 0.750 -0.595 -0.289 57 45 29 0 0
-0.1368 -0.1013 -0.5773 0.569 -0.810 0.145 63 55 42 0 0
-0.1371 -0.1062 -0.5918 0.333 -0.829 0.449 57 44 28 0 0
-0.1527 -0.0743 -0.6975 0.380 -0.595 0.708 20 15 12 0 0
-0.1524 -0.1210 -0.8011 -0.040 -0.930 0.364 79 67 40 0 0
-0.1525 -0.1437 -0.8535 -0.134 -0.942 0.307 131 116 83 0 0
-0.1527 -0.1451 -0.8590 -0.050 -0.983 0.176 71 66 49 0 0
-0.1286 -0.0532 -0.3536 -0.074 -0.978 -0.197 67 59 48 0 0
-0.1219 -0.0945 -0.3723 0.067 -0.582 0.811 178 164 130 0 0
-0.1302 -0.1129 -0.5090 0.342 -0.908 0.243 67 53 29 0 0
-0.1305 -0.1171 -0.5214 0.476 -0.872 -0.117 86 71 44 0 0
-0.1307 -0.1169 -0.5234 0.286 -0.942 -0.174 92 77 48 0 0
-0.1318 -0.1158 -0.5332 0.095 -0.994 0.045 87 73 44 0 0
-0.1321 -0.1160 -0.5368 0.095 -0.994 0.045 89 75 49 0 0
-0.1324 -0.1161 -0.5404 0.095 -0.994 0.045 73 62 41 0 0
-0.1335 -0.1136 -0.5474 -0.182 -0.945 0.273 64 53 34 0 0
-0.1341 -0.1123 -0.5520 0.022 -0.997 -0.079 64 52 36 0 0
-0.1366 -0.1059 -0.5650 0.746 -0.629 -0.218 50 40 28 0 0
-0.1384 -0.1105 -0.5970 0.199 -0.935 0.293 79 66 49 0 0
-0.1427 -0.1048 -0.6321 0.303 -0.932 -0.199 64 56 40 0 0
-0.1536 -0.0694 -0.6756 -0.103 -0.995 -0.006 13 12 10 0 0
-0.1558 -0.1017 -0.7748 -0.383 -0.881 0.278 84 72 46 0 0
-0.1540 -0.1261 -0.8104 -0.048 -0.838 0.544 76 64 39 0 0
-0.1541 -0.1265 -0.8123 0.124 -0.964 0.235 78 66 40 0 0
-0.1543 -0.1267 -0.8143 0.039 -0.982 0.182 76 64 38 0 0
-0.1540 -0.1385 -0.8378 -0.095 -0.861 0.500 107 92 60 0 0
-0.1551 -0.1443 -0.8644 -0.267 -0.951 0.152 68 62 49 0 0
-0.1553 -0.1451 -0.8682 0.028 -0.744 0.667 127 123 118 0 0
-0.1302 -0.0533 -0.3536 -0.416 -0.902 -0.119 55 47 35 0 0
-0.1278 -0.0717 -0.3691 0.172 0.022 0.985 119 109 91 0 0
-0.1259 -0.0811 -0.3690 0.191 -0.195 0.962 114 105 90 0 0
-0.1232 -0.1026 -0.3876 -0.280 -0.907 0.315 77 66 47 0 0
-0.1236 -0.1030 -0.3925 0.465 -0.865 -0.189 82 71 53 0 0
-0.1318 -0.1126 -0.5074 -0.027 -0.757 0.653 53 38 18 0 0
-0.1324 -0.1175 -0.5249 0.080 -0.984 -0.157 81 65 39 0 0
