ply
format ascii 1.0
element vertex 676
property float x
property float y
property float z
property uchar diffuse_red
property uchar diffuse_green
property uchar diffuse_blue
end_header
-0.14326326696842664 0.10163994396926596 -0.7835745890573074 93 86 68
-0.1433391813684118 0.10354498272192345 -0.7842087418529206 93 85 64
-0.14339477854564175 0.10492549859196731 -0.7852530866695233 105 95 75
-0.14345467353414312 0.10641707913718318 -0.7862063318115354 112 101 75
-0.14346864993101363 0.1067228477118696 -0.7881003681574438 101 91 60
-0.1435311465081884 0.10828172993587545 -0.7889956600354382 93 84 53
-0.14357339077517828 0.10931761001250617 -0.790305963767674 95 81 52
-0.14362739352767667 0.11065725439797489 -0.7913709869527751 120 102 68
-0.1436311110347879 0.11069800380863704 -0.7934788188927485 157 139 96
-0.14363880004368712 0.11084127510046529 -0.795506826028761 176 160 112
-0.1436556094145778 0.11122010570848762 -0.7973466665842918 173 156 113
-0.1437599944588671 0.11386153400874244 -0.7973517618193403 159 141 104
-0.14385567290129447 0.11627822222777709 -0.7975312417633248 154 137 109
-0.14393364835971786 0.11823767242510622 -0.7980762789049212 142 127 99
-0.14400688747072324 0.1200748745320257 -0.7987158097502637 107 93 66
-0.14409920286977124 0.12240517951806551 -0.7989458220153769 79 68 44
-0.14419295818502478 0.12477288300242534 -0.79913788267888 71 60 41
-0.14425501285869377 0.12632146793667964 -0.7999981737709763 59 45 33
-0.14421919020635549 0.12534034708442837 -0.8029468013927843 61 46 31
-0.1442804772780257 0.12686913975802427 -0.8038216150938385 64 49 27
-0.14434149651458456 0.12839110386935032 -0.8046984350020879 96 84 55
-0.14443807740056738 0.1308324709994807 -0.8048051141287098 110 103 76
-0.14449801148942856 0.13232662306315288 -0.8056958245258263 93 91 65
-0.1445244936086217 0.1329559957678962 -0.8073078067909873 113 108 82
-0.14455170049104377 0.13360409940167625 -0.8089043675127707 106 96 67
-0.14465583284330916 0.13624126691839697 -0.8088251179601645 129 117 87
-0.14470243088963194 0.13739090221616845 -0.8099939548789308 96 83 49
-0.14477623443101253 0.13924412691479243 -0.8105647401557282 155 141 99
-0.1448800951165495 0.14187481224961207 -0.8104699724873563 178 163 123
-0.1448851196284144 0.14194951086495045 -0.8125432462825714 137 123 88
-0.14501237567945274 0.14518561064576208 -0.811919845825271 122 106 72
-0.14505025744879588 0.1461102392379048 -0.8132639286379322 127 112 76
-0.14507846497482538 0.14678464463993146 -0.8148217686618096 123 109 70
-0.14515368800259698 0.14867529993764295 -0.8153328978540836 135 120 81
-0.1452374538768191 0.15078710507825643 -0.8156477542982152 161 143 104
-0.14528125055145624 0.15186498512233562 -0.8168507443219237 158 142 101
-0.14523637126990002 0.15064853151159488 -0.8200423340836295 138 124 86
-0.1451884632690866 0.14935348356664319 -0.8233109979515931 139 125 88
-0.14505628576093046 0.1458775751912837 -0.8284906258931873 149 135 96
-0.14521426258293718 0.14990988304032601 -0.8271244448516796 139 124 90
-0.14507458471397372 0.14623932241828108 -0.832495738127126 106 96 67
-0.1452680968422193 0.15119166792495584 -0.8303079798299708 131 120 85
-0.1449224085524819 0.14218842558976028 -0.8403990057309532 170 152 107
-0.1450212218923468 0.14468972331966054 -0.8403698538051694 202 185 138
-0.1451069446802846 0.146852373113098 -0.8406324073802153 188 174 137
-0.1451158098854481 0.14702554089017308 -0.8426552054194665 143 130 95
-0.14505461185750618 0.1453847696209615 -0.8462957167539304 149 135 95
-0.14516195199529267 0.14810728472888723 -0.8460515694878207 157 142 99
-0.14512236004561227 0.14702564265059426 -0.8492032024641982 163 149 107
-0.14521410762720696 0.14934466405958768 -0.8493112499214639 154 141 102
-0.14524893018287877 0.15018978673010214 -0.850737936722109 141 127 91
-0.1452511119671291 0.15018963154683326 -0.8529264743000606 147 133 100
-0.1452596344169926 0.15035360508103718 -0.8549698469988354 143 129 98
-0.14527686319660277 0.15074300772836313 -0.8568113269517726 121 108 83
-0.14528559663600768 0.15091232937915292 -0.8588543503468982 89 79 60
-0.1452717721568147 0.15049726435382182 -0.8614325118176691 89 82 66
-0.1452114673950475 0.14887800293305017 -0.865116308098401 115 110 99
-0.14517646167585765 0.14791386400141038 -0.8682108445340819 134 131 125
-0.14514678258874783 0.14708752328564967 -0.8711866788251384 154 151 151
-0.14520203642871776 0.1484615644891247 -0.8721435175871869 170 168 171
-0.14522693638327022 0.14893385443092866 -0.8783820060266613 190 189 188
-0.13755035958162679 0.008909352496222558 -0.29905120658930223 142 136 124
-0.13775851301634573 0.014008264454380928 -0.29926313639725977 127 118 102
-0.1378372069427569 0.01592579179664115 -0.30033541099264244 124 109 88
-0.13790626278919615 0.01760649470991281 -0.30146927250580213 139 121 97
-0.1379870486434449 0.019575507971477918 -0.30252001032918546 157 137 107
-0.13806779186971943 0.021543514255393484 -0.30356706641963044 176 155 114
-0.13809641952778667 0.02223072139680085 -0.30496949272657686 205 185 142
-0.13814531997796312 0.023416180331698844 -0.30623124260199974 196 178 135
-0.13819560194965447 0.02463561063239468 -0.307481724337535 173 151 110
-0.13828290633253942 0.02676499737170436 -0.3084710839546928 164 141 105
-0.13833542582142302 0.028039472098464552 -0.3097009432200333 177 159 127
-0.13841161187705214 0.029895662397684555 -0.31076132448367977 174 159 130
-0.13849426379876645 0.03191081605641151 -0.3117720094683013 124 111 87
-0.13856901336168229 0.033731775804049624 -0.3128350641182224 78 66 43
-0.13860243257984664 0.03453687464141604 -0.3141917550938297 57 46 31
-0.1386126362600898 0.03477133326005691 -0.31571574662259283 41 31 23
-0.1386233587322154 0.0350185317221189 -0.3172371830842252 27 19 16
-0.13862203199901876 0.03496953553717516 -0.3188477949919274 19 14 11
-0.1386484754126587 0.0356031491384393 -0.3202566394765199 18 13 11
-0.13866337228162173 0.03595292719006708 -0.32175068047221095 18 12 11
-0.13869707807831666 0.036765061855957556 -0.32310611728970356 18 12 11
-0.13874626558951111 0.037957783151355465 -0.32434563287829304 17 12 10
-0.13879006783165226 0.03901813575459985 -0.3256237855093428 18 13 12
-0.13881658325895663 0.039653533133680016 -0.32703077480316256 19 14 12
-0.13885883196933702 0.040675714020278614 -0.32831873060042216 19 14 12
-0.13887425957423938 0.04103853265814805 -0.3298094311383745 21 16 14
-0.13890376897581527 0.04174753734525816 -0.3311933667809064 22 18 15
-0.13893119074896504 0.04240522014572702 -0.33259310629404304 27 20 16
-0.1388024024980475 0.03922242999685434 -0.3351982061103345 36 29 24
-0.13885441421786393 0.040484614942143796 -0.3364130383418017 35 31 22
-0.1388200740751877 0.03962376432673401 -0.33829884221248324 32 28 20
-0.1388269785739222 0.03977692715037741 -0.33986630700757636 34 29 23
-0.13882065602842913 0.039604862948233815 -0.3415393483625107 32 29 22
-0.13883050408518285 0.03983036394018531 -0.3430870448140343 36 32 25
-0.13881367032948846 0.03939980863506645 -0.34484800128396315 48 43 34
-0.1388170124725617 0.03946530525898252 -0.3464512166548322 54 47 38
-0.13876729121175796 0.038226037509958 -0.3484818412689253 64 55 48
-0.13872952004388484 0.03728054868791994 -0.35042200422885855 73 64 52
-0.13867945830935952 0.03603279383413262 -0.35246663495263403 83 74 57
-0.13869424194261715 0.036379501080907165 -0.3539895810446202 90 80 61
-0.1387149544662679 0.036871990291508894 -0.3554649885643475 91 79 58
-0.13872184442470203 0.03702457228299835 -0.35705439055510846 84 70 46
-0.1386947424219152 0.03634124927833718 -0.35892580838746135 98 83 57
-0.1385862555596922 0.033656533403498806 -0.36147605630608504 109 93 66
-0.1384959777703654 0.03141950048678298 -0.3638851012148425 127 110 81
-0.13880785402639764 0.03907213798945505 -0.36293834609467407 140 121 89
-0.13887498977077553 0.040706251018896106 -0.36402678898992474 151 133 97
-0.138956439008213 0.04269240440434516 -0.36499124241067243 157 137 99
-0.13906006921922442 0.045224101511631726 -0.3657632925053319 160 138 101
-0.13911394658715412 0.04653225993503675 -0.36695337815159346 145 126 91
-0.13913466213122153 0.04702485928949085 -0.3684252557792691 122 103 74
-0.13910574595002556 0.04629679328050071 -0.3703244357483253 121 99 70
-0.13916090482860033 0.04763648872427201 -0.3715016354997017 105 84 54
-0.13910914273284694 0.046346468459932885 -0.37360448113650074 93 76 44
-0.13907623691413856 0.04552016604092672 -0.3755490944193653 89 74 44
-0.1390635611943919 0.045191394471047364 -0.37732124381016613 87 73 46
-0.13910515374934276 0.04616330841380832 -0.38194976968629496 78 66 41
-0.1391504837851318 0.04726124211116932 -0.3832141983812795 80 68 43
-0.13922348260399525 0.049039786534750524 -0.3842294684259274 101 89 63
-0.13929716376859141 0.05083515275532076 -0.3852349675868266 83 68 44
-0.13934627304721875 0.05202611845312412 -0.3864586927664553 77 62 38
-0.13912544177393618 0.04657678547308619 -0.3901293086547819 78 63 37
-0.13912124399773868 0.04645634636155502 -0.3918458573267464 85 69 43
-0.13927845942242606 0.05030664546929943 -0.3920879002446055 87 71 45
-0.13946384771316958 0.05485011406939186 -0.392060700971836 80 65 37
-0.1396402633737497 0.05917297761704984 -0.3921037235713776 93 78 51
-0.13964121265183627 0.059179277244646764 -0.3937613279947376 77 63 37
-0.13964842875652553 0.059339729938919075 -0.39536264642556324 73 61 35
-0.13968412281023262 0.06020078199442931 -0.3966992762492771 72 57 37
-0.13979808406813982 0.06298740531057637 -0.39730032921026104 62 44 28
-0.13974713831444716 0.061716918163886525 -0.3994493397943495 120 100 70
-0.13981525032609052 0.0633755760607471 -0.40047718777975183 187 170 134
-0.13991961352300436 0.0659261799656465 -0.4011569962646188 87 73 51
-0.13981348958815443 0.06329800605081885 -0.40384060171585934 27 16 6
-0.13981309267592498 0.06327108219117013 -0.405521000722489 25 16 7
-0.1396214861326323 0.05853944205365512 -0.40904490818874667 30 19 10
-0.1397834354472064 0.06250697423971403 -0.409167473537462 35 21 11
-0.13986422262554654 0.06447756469098591 -0.41006726742420185 36 22 11
-0.13991281973609004 0.0656561264778042 -0.41127658368154674 40 26 13
-0.14001301337650912 0.06810431907324255 -0.4119789350241057 44 30 17
-0.14001654057049634 0.06817390441407356 -0.4136257512354866 44 28 15
-0.14002016530965777 0.06824587082437919 -0.4152734866155501 43 26 13
-0.14001262977765905 0.06804318831437849 -0.41703373216188355 46 29 14
-0.14000634100587242 0.0678711578031786 -0.41878435698093136 55 38 21
-0.14002258575403426 0.06825361881299702 -0.4203124652885227 69 51 31
-0.1400550547809832 0.06903533507361918 -0.42167862078740026 65 46 23
-0.14007368073078166 0.0694763853235216 -0.4231837973515798 65 45 21
-0.1401067460233465 0.0702727792861062 -0.4245435614884948 71 53 28
-0.140098906297977 0.07006249358962986 -0.42631831937227915 74 55 30
-0.1401095951193564 0.07030817975703657 -0.4279069481583132 81 60 36
-0.14008502932250405 0.0696861959312209 -0.4298579028578924 84 64 38
-0.14006842486309695 0.06926010983361744 -0.43173123198020186 81 64 36
-0.1400686947139813 0.06924929738149882 -0.43343396098576276 81 64 36
-0.1401262126208723 0.07064747485171943 -0.4345456084227933 82 65 37
-0.14013318638126948 0.07080164378130115 -0.4361806179863489 81 65 37
-0.1400946168719036 0.06983482796246868 -0.4382930091117698 88 73 44
-0.14009536168429534 0.06983562660273801 -0.4399985210629168 87 72 43
-0.14013810683629369 0.0708702034789411 -0.4412640007349571 88 72 44
-0.1400679849661899 0.06912662597211772 -0.44372117904237157 98 82 56
-0.1400590584696662 0.068889286821514 -0.44553704163790253 107 95 67
-0.14009851741278323 0.06984294267838623 -0.4468404381336694 107 94 67
-0.14001258546387715 0.0677100122376215 -0.44948382328656167 102 88 61
-0.1399898990224276 0.0671338510353599 -0.4514575960125467 93 80 54
-0.14001196950658265 0.06765941293950933 -0.45295312897060236 75 63 40
-0.14002549885145632 0.06797471259830934 -0.45454150077879235 70 59 39
-0.14002283629519902 0.06789139634351866 -0.4563068852803794 56 45 28
-0.14000289114912984 0.06738259281958059 -0.458263212445864 44 35 21
-0.1399709384433756 0.06657814233627841 -0.46035492384891274 41 34 23
-0.13989631224071986 0.06472307088938448 -0.4629204865674951 42 38 30
-0.1397635139485199 0.06143575991498147 -0.4661362400847782 32 29 22
-0.1421098225861619 0.11864510283431172 -0.4944849007634377 71 58 39
-0.14198895823149038 0.11565003327159117 -0.4977217442732448 101 88 69
-0.14205638315793892 0.11729318796400963 -0.4986191679808969 125 112 93
-0.14207734375299244 0.11779174667414469 -0.5000955355443324 133 121 97
-0.14210562717033975 0.11847069889650612 -0.5014802594280287 138 124 100
-0.14210931969407917 0.11854384227210735 -0.5031753070298937 140 125 101
-0.14216058067249165 0.11978886207149518 -0.5042696779909518 144 129 105
-0.14227826889931752 0.12267043699821682 -0.5045172765249998 133 121 100
-0.14231101107750627 0.12345928564657983 -0.5058405892020145 109 99 82
-0.14229673395391618 0.12308970783155646 -0.507765337993243 97 87 71
-0.14232895692228165 0.12386575433129021 -0.5090962930590848 92 83 68
-0.1423450869461894 0.12424530350089645 -0.5106342087530683 108 98 85
-0.14238351479538125 0.1251742336183442 -0.5118845843956066 79 69 58
-0.14241905585869682 0.1260320465696488 -0.5131713668345836 57 47 36
-0.142454580346043 0.1268894594026913 -0.5144575533860066 59 48 37
-0.14248283559742161 0.12756776572833048 -0.5158379437831354 62 49 36
-0.14252308794391863 0.12854168902887064 -0.5170608210901751 72 60 45
-0.14252589023136855 0.12859281681956625 -0.5187753279192266 91 79 63
-0.1425284847583955 0.12863880332577454 -0.5204947043563184 90 78 61
-0.1425030441706068 0.12799392778993757 -0.5225877145232203 88 75 60
-0.1425388649037947 0.12885863135121384 -0.5238708891065902 75 62 48
-0.1425369970100246 0.12879458724716714 -0.5256560242835816 81 67 53
-0.1425355307662442 0.1287404148869888 -0.527438348321218 80 67 51
-0.1425465147274729 0.12899303701446102 -0.5290559827668356 82 69 52
-0.14255794215466616 0.12925657360035542 -0.5306690513454984 87 73 55
-0.14258863940089778 0.12999499568606263 -0.5320229238519963 83 70 51
-0.1428294667339915 0.13591211934961325 -0.5305254585481707 65 50 34
-0.14285221111541518 0.13645464338857433 -0.5319772765975098 68 49 34
-0.14287017081890105 0.13687924020510195 -0.5334947816698304 72 53 36
-0.1428937871639585 0.1374432460926599 -0.534935538116497 68 49 32
-0.1429207631931511 0.13809005571173233 -0.536330355172112 69 48 32
-0.142677981517392 0.13208800356908032 -0.5414466532590685 66 45 28
-0.14266115879786823 0.13165513599051792 -0.5434599804322854 72 50 30
-0.1426371847618769 0.13104595858305237 -0.5455766084942467 77 55 32
-0.14260993773066993 0.13035605769294417 -0.5477434929919855 79 58 34
-0.1426499440424706 0.13132386152993816 -0.5489751696351352 84 63 37
-0.14262058213931564 0.1305817593212047 -0.5511785532689487 124 105 71
-0.14258258431023668 0.12962672549083276 -0.5535086340683192 148 133 94
-0.14254113105013475 0.12858645118215095 -0.5558934818160289 140 126 90
-0.13984709587644675 0.06197763554501523 -0.613334893450719 68 53 33
-0.13983281551987503 0.06160552553202531 -0.6154993334532554 74 59 36
-0.1398140994225861 0.06112400391385278 -0.6177329352366677 65 51 31
-0.13972848498917453 0.0589929215443277 -0.6209560690836605 50 36 20
-0.13971959577409854 0.058753582396041254 -0.6230566361993543 49 36 20
-0.13974720113579306 0.05941409005518741 -0.6246199722691156 56 44 28
-0.1396729708899136 0.057563484253730035 -0.6276973460847799 44 33 20
-0.13955668129568075 0.054675638152649586 -0.6314117425799767 42 33 22
-0.1395434041191074 0.05432788128213514 -0.6335987680864654 48 39 27
-0.13957940597593405 0.05519530125004546 -0.6350502340467377 53 44 29
-0.13952993111632114 0.053954835335805 -0.6377879769723667 51 42 29
-0.13943505812510534 0.051594733282503136 -0.6412188748185238 51 41 32
-0.13942392582099727 0.05129967295395929 -0.643392850748919 48 39 30
-0.139522228666862 0.05370345080243505 -0.6439074212542072 44 35 28
-0.1394795644913675 0.052630713756097125 -0.646564660682088 45 36 31
-0.13950487317919838 0.05323431203599174 -0.6481891941957336 42 33 28
-0.1395016670641374 0.05313463543263433 -0.6502516027647665 43 34 29
-0.13950414543794704 0.053175128170701164 -0.6522296571071494 51 44 38
-0.13948964123267021 0.052796730236391365 -0.6544724845126381 51 44 38
-0.13956328005414026 0.054592322215377354 -0.6553545275903273 56 51 46
-0.13963161477048863 0.05625713022963669 -0.6563147141857664 37 31 28
-0.139710586706573 0.05818435239362965 -0.6571053926007 42 33 30
-0.13978436165685434 0.059983433044510426 -0.6579725193635263 52 43 34
-0.1398816572728193 0.06236273746191223 -0.6584665603118022 84 74 63
-0.13999514996462095 0.06514164748554666 -0.6586992725405796 100 87 75
-0.14014431888383577 0.06880069527769284 -0.6583609721385336 98 84 71
-0.14030577336839709 0.07276292633946402 -0.6578166000508082 67 53 40
-0.14047948293255888 0.07702760722984633 -0.6570648221458455 103 91 77
-0.1406572998671472 0.08139375829761766 -0.6562335511498295 104 94 79
-0.1408399632784891 0.08587961960521764 -0.655310351450604 98 87 72
-0.14073816521012167 0.08334788546075644 -0.658929226046935 98 87 70
-0.1410892009080028 0.09198779092302284 -0.6552842752660493 98 86 71
-0.14128539802275195 0.09680795045677792 -0.6541034448091825 102 90 72
-0.1413990167453955 0.09959092057278024 -0.6542412236222419 113 98 75
-0.14152063034674067 0.10257122836791044 -0.6542409913937687 129 112 88
-0.14156149240159976 0.10355926257148307 -0.655545052353328 121 105 79
-0.14162509850103752 0.1051084802750443 -0.6564768207763824 122 109 82
-0.14173686829354898 0.10784611573928582 -0.6566169568340683 114 99 73
-0.1417763441869229 0.10880003252852277 -0.6579354460084854 131 115 89
-0.14182932433533751 0.11008717583677599 -0.6590305080137141 133 116 90
-0.14182845969065536 0.11004570576553507 -0.6610122393378701 130 113 85
-0.14185725134145669 0.11073600024741262 -0.6625056891309048 126 109 81
-0.1420516973879578 0.11551404171339452 -0.6612472514260797 127 110 82
-0.14214546553754112 0.11780783776504361 -0.6616497377639264 122 106 79
-0.14215926784874888 0.11812835389035528 -0.6633820376714455 118 104 74
-0.14204771404036054 0.1153553315754201 -0.6672169200208513 126 111 77
-0.14208125341452524 0.11616283331491911 -0.6686265413790189 131 116 82
-0.14212626381155374 0.11725343280494646 -0.6698422131808901 149 133 98
-0.14219243064548007 0.11886617812523712 -0.6706984127176912 162 147 105
-0.1422676666067268 0.1207027879087329 -0.6713969730646325 130 114 79
-0.14233070070149217 0.12223829855021978 -0.6722983830548083 138 121 88
-0.14239757821596477 0.123868704435312 -0.6731307031712098 139 123 88
-0.14247763731459073 0.12582449131756018 -0.6737335413551413 139 123 88
-0.14256536517374305 0.12796961221901454 -0.6741995111675362 142 124 91
-0.1425945368943579 0.12866948209472867 -0.6756674310216116 139 120 86
-0.1427103887922364 0.13150888285483806 -0.6756387360740651 149 130 97
-0.14259962297526912 0.12875464456550814 -0.6795250913671844 151 132 99
-0.14244078375853197 0.12481361480686606 -0.6842603855702285 158 139 106
-0.14240206781874037 0.12383758462564132 -0.6869225086753636 160 141 108
-0.14244031542007105 0.12476133845249954 -0.6882470569712545 156 139 106
-0.1424291250256172 0.12446469436338026 -0.690436684674911 132 117 87
-0.142253754908625 0.12003262788437277 -0.7035680867948623 53 46 40
-0.142353955685409 0.1224857847406946 -0.7038024457475005 67 58 44
-0.14243734913046802 0.12452405577709119 -0.7043298975049024 101 88 67
-0.14249954203635634 0.1260389469466348 -0.7052317963936261 131 115 84
-0.14254749174615247 0.12720220410022579 -0.7063863146521339 129 111 81
-0.14255659037409357 0.127406213899486 -0.7082394114460937 107 90 62
-0.1427779429632437 0.1328510566430091 -0.7062559169004239 131 113 80
-0.1428260439354619 0.13401818254823344 -0.7073946188737502 157 140 104
-0.14288570340990298 0.13547073779435703 -0.7083210213831713 197 182 146
-0.14291862038183678 0.13626297327997763 -0.7097319567382417 161 141 106
-0.1429242089987907 0.136380379495348 -0.7116423170818569 133 116 83
-0.14294655577340953 0.13691158902784842 -0.7132476073460777 146 131 99
-0.14298586230191868 0.13786160706806908 -0.7145414953205814 135 121 93
-0.1426929577290539 0.13060762986509372 -0.7219634528733171 129 116 92
-0.142706605776657 0.1309238392907784 -0.7237471763056953 132 120 98
-0.1429169575014428 0.13609787334584555 -0.7218826652135997 102 90 70
-0.14289278113941584 0.13548001586362832 -0.7243629681277177 121 109 86
-0.14291876752594249 0.1361009869227399 -0.7259127637457321 104 89 62
-0.14280517659213438 0.1332746951992907 -0.7300746875818306 153 138 106
-0.14289822797741994 0.13555198343518793 -0.730373844451856 129 115 82
-0.1429883256587095 0.13775638825266573 -0.7307217527555305 102 87 56
-0.142992687103492 0.1378432196862999 -0.7326810947125831 142 125 94
-0.14280238591119976 0.13312185387693937 -0.7383268831052862 146 128 97
-0.14143148134984052 0.09910718818884626 -0.7792497459103128 123 108 82
-0.14144282866591834 0.09936548754558192 -0.7811827322952836 130 117 91
-0.14152029324347717 0.10125718991161722 -0.7818346502520244 107 98 73
-0.14157485929142244 0.10258322537683304 -0.7829270203346448 96 87 63
-0.14163153532557254 0.10396141770764761 -0.7839755354440024 92 80 55
-0.14170751834840042 0.10581664991695747 -0.7846433475482186 120 107 83
-0.14176915253319308 0.10731741447131096 -0.7855876937832714 103 91 66
-0.14177325616271877 0.10739676638631351 -0.7876605223798994 104 93 65
-0.14184819192043155 0.10922622881264421 -0.7883386080187978 104 93 65
-0.14187716024056313 0.10991994055180154 -0.7899211993407282 125 110 83
-0.14190737530416644 0.11064445785362825 -0.7914791243980392 127 109 81
-0.14198437389548613 0.11252499369845448 -0.7921063107177032 122 104 71
-0.14201412062233817 0.11323796569823191 -0.7936708879916509 127 109 73
-0.14207004444295332 0.1145978014159974 -0.7947118404961449 122 104 72
-0.14214982751089078 0.11654726712483682 -0.7952713587051592 83 67 40
-0.1422118176406239 0.11805708706388884 -0.7961832173777901 121 104 82
-0.1422847506458811 0.11983737189341218 -0.7968708248439583 94 78 56
-0.1424525570200867 0.12396233937051382 -0.7956351418713429 68 54 33
-0.14249584208013735 0.12501006042611265 -0.7969091223360374 60 48 30
-0.14254556796023665 0.12621697839317936 -0.7980506090417815 54 45 29
-0.14259565343468397 0.12743280679638908 -0.7991825107767764 52 40 27
-0.14263703538426423 0.12843354626591846 -0.800490036288275 59 46 31
-0.14267006521334666 0.12922786740480893 -0.8019674238521314 70 56 34
-0.14271839913237203 0.13040045926082677 -0.8031298436379896 125 114 84
-0.14277209778238215 0.13170567423627952 -0.8041795839951961 134 127 100
-0.14282920876806987 0.13309526257271104 -0.8051560900784367 91 87 66
-0.14283077801060107 0.13311197969128033 -0.8072803384047024 70 67 45
-0.14289039133293646 0.13456345513029275 -0.8082017366971211 75 67 41
-0.14292325330073932 0.13535368405584366 -0.8096770279046014 97 85 53
-0.14301778929987696 0.13766850635995065 -0.8098636562831772 125 113 73
-0.14313026249611213 0.14042682351354258 -0.8096672792831616 207 193 150
-0.14317317127419268 0.14146551602922577 -0.810922424497911 181 167 126
-0.14319739933467093 0.14204240271516577 -0.8125693700908483 145 132 98
-0.14327917484226424 0.14404199575332285 -0.8130018682783997 104 89 60
-0.14331023315653366 0.1447877687442467 -0.8145020738816148 104 88 57
-0.14344919449352017 0.14820129222699469 -0.8137117189846458 113 101 67
-0.14353639767724138 0.1503352665816483 -0.8140104664066009 113 99 64
-0.14362428273400787 0.15248616760620567 -0.8142880634055473 124 109 71
-0.1436136998945428 0.1522024876332367 -0.816665776183906 148 133 92
-0.14358491376463697 0.15146866910287402 -0.8194384870088485 155 141 102
-0.14353173962375562 0.1501317537424088 -0.8227423466553904 146 133 95
-0.14340785918143745 0.14704638354191987 -0.8275804744451167 149 136 97
-0.1435446362715463 0.15040628147080007 -0.8267996600700321 142 129 94
-0.14354050036332816 0.15028177636313514 -0.8290616673889959 136 124 91
-0.14360023586855897 0.1517366967853257 -0.8299390230745932 105 90 62
-0.14322393772091058 0.142408801081782 -0.8403165001253041 126 109 73
-0.1433454504222579 0.14539128670085186 -0.8398618441803628 194 176 133
-0.14342504376640874 0.14733719081589744 -0.8403150640561845 184 167 123
-0.14345215437789838 0.14798519486208483 -0.8419154429470551 167 152 111
-0.14348002047621272 0.14865188088485606 -0.8434994299581263 141 126 86
-0.14347250690042715 0.1484435426750068 -0.845864897647574 141 126 83
-0.14346049853977505 0.1481239916081882 -0.8483341469762787 143 128 84
-0.14361301002358426 0.15187354946414422 -0.8471558901151851 149 133 91
-0.14361108197035893 0.15180332569133262 -0.8494008101831855 140 126 86
-0.1436193267629543 0.15198468739852933 -0.8514223382918638 143 128 92
-0.1436245226444766 0.1520906082460822 -0.8535145316610177 142 128 91
-0.1436209548970508 0.15197972389882722 -0.8558061256811317 135 121 90
-0.1436416525568102 0.15246904197759667 -0.8575558059172671 105 93 71
-0.14364037484474526 0.15241474234480282 -0.8598020302573159 62 53 35
-0.14363866444625334 0.15234970232078293 -0.8620616245524746 77 71 56
-0.14358549984887298 0.1510117345479362 -0.865491173541318 111 107 96
-0.14353955989442635 0.1498523973108174 -0.8687662442599066 137 133 127
-0.14358159518144878 0.15086943484090917 -0.8700457114922524 157 155 155
-0.1435640399030625 0.1504122092971253 -0.8726849621822389 171 171 173
-0.13581314180493875 0.004807449355636595 -0.2985552591970624 153 144 133
-0.1360779820257113 0.011098483380822755 -0.2984553810278257 134 124 110
-0.13629561527065664 0.0162692212689817 -0.2986447002174918 95 84 67
-0.1364071251124117 0.01892159238961444 -0.2995120831450095 99 84 64
-0.13646936622840256 0.020404797354171444 -0.3006962627837464 119 101 77
-0.13652199062496465 0.02165978987310084 -0.30194127381751484 158 135 101
-0.1365798469580333 0.02303892718126674 -0.3031498032639943 180 159 117
-0.13661740743770615 0.023936445363074668 -0.3044912428935081 204 186 143
-0.13668909489290332 0.025643771899319573 -0.3056034989133549 220 203 160
-0.13668859239428516 0.025638074345593537 -0.3071982819005972 194 172 131
-0.13677654371858233 0.02773131260256756 -0.3081966933858029 173 149 109
-0.1367955646021909 0.028188887104637572 -0.3096594367395307 184 166 130
-0.1369038591374464 0.0307648209048806 -0.31051251936592644 160 147 119
-0.1370343483574269 0.03386738218387837 -0.31120727886162586 90 80 59
-0.1370589001148271 0.034456174472456705 -0.3126262762053131 62 52 34
-0.13706942368341996 0.034712101005844195 -0.3141427993740648 56 45 33
-0.13710190145308565 0.0354889667194216 -0.3155072671752454 48 38 29
-0.13711404822688236 0.03578341471051835 -0.3170139059093662 35 27 22
-0.13706117172012486 0.0345349964983776 -0.3189799738295209 22 17 13
-0.13708824517429608 0.03518363936482076 -0.3203852426046551 21 17 12
-0.13710859117650398 0.03567265521974142 -0.3218383842156874 19 15 11
-0.1371507317238861 0.03667880386263675 -0.3231359742949898 18 14 12
-0.13713680061981198 0.03635451341055365 -0.3248358039520517 20 14 12
-0.13717719439474466 0.03731921504047782 -0.326145796675088 24 17 14
-0.13723291945230834 0.038647679956989894 -0.32734339387981315 26 19 15
-0.13723913114216935 0.03880133396371965 -0.3289004331944086 22 15 12
-0.13725914578279388 0.039282494103809296 -0.33035765441583564 24 18 14
-0.13727168493169006 0.03958628738141047 -0.33187047863527563 27 21 17
-0.1372631404036406 0.03938984164855547 -0.3335405700708857 28 20 17
-0.1372915647378254 0.04007054433928335 -0.3349378971448296 32 26 20
-0.13728128380236373 0.039832914864744606 -0.336624747562028 37 33 24
-0.13723125607313544 0.03865225844556641 -0.33861318466162355 45 40 30
-0.1372647857955004 0.03945410664298203 -0.3399758045669392 48 42 35
-0.1372316341404725 0.03867388112810288 -0.3418442413143044 45 41 32
-0.13722014332014698 0.03840759114364138 -0.3435517867337149 48 44 36
-0.13720686680382993 0.03809894546964189 -0.34527581749819297 50 45 37
-0.1372392835341943 0.03887440232596846 -0.34665080668736087 58 51 43
-0.13720131492819662 0.03797994661938972 -0.34857013740764603 72 64 54
-0.13721974424621694 0.03842355723949749 -0.3500556496877753 86 78 65
-0.13722945586470287 0.03866034301556874 -0.35160988873536025 88 77 61
-0.13725305280520306 0.03922656069163721 -0.35305638440158876 91 80 61
-0.13722609370950406 0.038593352935038946 -0.35490184672567576 87 75 54
-0.13727616240330862 0.039787610106802776 -0.35614092151706844 82 68 44
-0.13716722348387048 0.03720949998656671 -0.35864410842425015 88 74 48
-0.13714158934808363 0.036607773310139036 -0.36049108647625294 93 77 53
-0.13718548721114018 0.037655646816975516 -0.36178327478663425 98 80 54
-0.13734194790859938 0.041373952381388995 -0.36216559507101653 114 95 65
-0.13751043976773814 0.0453776454194718 -0.3624407266203469 143 124 89
-0.13757016269604413 0.046800898319945994 -0.3635913896305404 155 134 96
-0.13769846170521532 0.04985100836063508 -0.3641783972385697 145 123 86
-0.1376260917614249 0.04814054199767738 -0.3664075057957022 145 125 92
-0.13765224475529783 0.048767387724685335 -0.3678303848610197 122 103 72
-0.13762934410561317 0.04823052949983593 -0.3696602354659009 125 105 70
-0.13763148818972623 0.04828782067290714 -0.3712851019554744 115 95 61
-0.13758212318894306 0.04712317937416616 -0.37334296857693183 89 74 43
-0.13753273204210484 0.045957940170432365 -0.3754067671954787 79 66 39
-0.13754113050741315 0.04616363776392832 -0.37698822466131876 79 66 40
-0.13760308632549528 0.04764631792397091 -0.37977051691718205 97 84 56
-0.13751453782701623 0.045552243135334125 -0.3821841677478046 77 63 38
-0.13759924832729692 0.04756823785121371 -0.3831171508909104 90 76 51
-0.13774641406621804 0.05106576417321078 -0.38350652525779916 94 80 54
-0.13786131132921253 0.05379779435988927 -0.38416662738010404 65 52 28
-0.13794109425121837 0.05569683458624969 -0.3851258947445558 72 57 34
-0.1375835890096873 0.04722280509485503 -0.38990641035108564 76 61 35
-0.13754581235999078 0.04633322763814143 -0.3919070760682665 84 69 41
-0.1377165462916358 0.050389754396978 -0.39207282922509895 93 76 49
-0.13811950139896131 0.05995472832945478 -0.39016974641351704 90 74 43
-0.13803618191278247 0.05798480271587794 -0.39256579159056443 115 100 71
-0.13812474116119663 0.06009197301302173 -0.3934339712969654 67 53 28
-0.13810723604654251 0.05968323261565241 -0.39524949128763215 70 60 33
-0.13814033721790867 0.06047490071099075 -0.3966122037432304 74 62 38
-0.1382345831165245 0.062716927762732 -0.39742089657242524 66 51 31
-0.13826431989067228 0.06342877944087415 -0.39881087686740874 109 92 66
-0.13834595622043658 0.0653716788126859 -0.3997268027924663 189 177 143
-0.13841714761868046 0.0670668112363336 -0.4007342643872135 110 98 73
-0.13840538925975177 0.06679440113446102 -0.4025019783390832 36 25 13
-0.13842127096421247 0.06717760771353984 -0.4040171180990185 30 19 9
-0.13821213448620617 0.062223560303666936 -0.4076220849598172 33 21 11
-0.1383204627893553 0.06479955526244932 -0.40828577009185507 39 24 12
-0.13832184960173735 0.0648389884544185 -0.4099442275670804 39 24 11
-0.13837717287746634 0.0661577360416757 -0.41109766334445225 41 26 13
-0.13849055227260323 0.06885348604565682 -0.4117009222465523 46 31 17
-0.1384016012639265 0.06675024236351496 -0.41421500959845436 47 30 16
-0.13838791558369082 0.06643220076555695 -0.4160218493338844 51 34 20
-0.13841992170188733 0.06719789708185996 -0.41739524807450107 55 38 22
-0.13842029633948852 0.0672133559814139 -0.4190717183681264 57 39 22
-0.13845180028263318 0.06796714343906234 -0.42045037854063183 67 48 28
-0.13850970921612904 0.06934719527302034 -0.42157327812042605 67 48 27
-0.13852672411057124 0.06975733104113929 -0.4230908815516934 70 51 28
-0.13852281666280708 0.06967124625025352 -0.42481325546330523 79 60 34
-0.13849645182033898 0.0690525433187956 -0.42675789075107995 80 60 34
-0.1385130035650233 0.06945171341784376 -0.42828487633948126 80 60 34
-0.138464886520107 0.06831714094466056 -0.43045084514949483 79 59 33
-0.1384607244234507 0.06822506163098117 -0.432187225834707 77 58 32
-0.13854822238678882 0.07030685970946352 -0.433014304068346 83 65 38
-0.13857204989903343 0.07087860033118872 -0.43447245146835034 83 66 39
-0.13850742326475277 0.06935253489443012 -0.4368176903396351 82 65 37
-0.13851989260256461 0.06965491874598209 -0.4383941503527736 85 69 41
-0.1385414446781541 0.07017271340670406 -0.4398799746290675 93 77 50
-0.13856333700166631 0.07069857901842944 -0.44136277649961686 98 82 55
-0.138555748010541 0.07052527614999239 -0.44314623820619536 101 88 60
-0.13850473646488226 0.06932219444915547 -0.44537641827628777 105 94 65
-0.13847053371582912 0.06851776421944986 -0.4474402804688676 104 92 64
-0.13844860402228804 0.06800441147969533 -0.4493825629806046 98 86 59
-0.13840393829485037 0.06695188722957741 -0.4515639394000125 101 89 62
-0.13841423130730815 0.0672027276366191 -0.4531803633774588 83 71 48
-0.13840009355545405 0.0668742034871258 -0.4550528026921157 60 47 30
-0.1383752849145816 0.06629263633346673 -0.4570402124495106 47 37 22
-0.13833906122527298 0.06544038389231578 -0.45915169990294613 44 36 25
-0.13831702357058426 0.064924563192707 -0.4611187023234439 36 31 21
-0.13823205094133273 0.0629163094071685 -0.46375580840769876 28 25 18
-0.13687300321249302 0.030744194891894117 -0.4925891340484373 37 36 34
-0.13713720278143457 0.03703034580812539 -0.4951310312876043 14 13 11
-0.14094740128615266 0.12745761249686854 -0.47312716698941665 47 40 34
-0.1406289276753933 0.11997990958168286 -0.49557129791445576 103 91 71
-0.1406466954162219 0.12040788549096 -0.49707762006256223 90 78 61
-0.14066802064466996 0.12092020636603218 -0.4985417427509413 87 74 55
-0.14069459436698722 0.12155696111831478 -0.49994274066815775 90 77 58
-0.14071816485533095 0.1221225151324155 -0.5013802199663279 91 76 59
-0.14076660468682556 0.12327766852911318 -0.5025146921546275 93 79 63
-0.14078611379371067 0.12374693440427595 -0.5040012978418343 102 94 77
-0.14084978810316434 0.12526324953859463 -0.5049462112087434 98 92 77
-0.14088655963088273 0.126141758810023 -0.5062194274010171 93 85 71
-0.14092966674931198 0.12717046360468798 -0.5074134328918842 88 81 67
-0.1409771117725011 0.12830200158900326 -0.5085522002700041 107 99 83
-0.14097762347334705 0.1283208915897145 -0.5102734217153191 86 75 60
-0.14100664148817527 0.1290155802077521 -0.5116407724504936 64 51 37
-0.14102234385956702 0.12939460050871104 -0.5131747946371416 71 58 41
-0.14107252982637214 0.13059110431817403 -0.5142760425141364 77 62 44
-0.14105433408819784 0.1301665314706585 -0.5162381929683946 86 71 50
-0.14106808247304758 0.13049924119778777 -0.5177996781818035 92 77 59
-0.14105277748937664 0.13014322068702283 -0.5197313818005398 104 93 75
-0.1410420997083399 0.12989690515572522 -0.5216076837370323 102 92 76
-0.1410559015283609 0.1302309033792021 -0.5231740544619081 64 50 37
-0.14103280850821265 0.12969030135992898 -0.5252150419530807 79 66 52
-0.14099114807017668 0.1287095723728251 -0.5274994125266869 94 81 64
-0.14098658640664696 0.12860829274532667 -0.5293103279344961 84 71 53
-0.1409512518796202 0.1277775582540297 -0.5315228793082089 88 76 57
-0.14104363399426573 0.12997432396878167 -0.5320795267147778 85 72 54
-0.14104884820108024 0.1301047967714219 -0.5337680814538367 69 53 37
-0.14103511650098935 0.12978617704122966 -0.5357065750291407 60 42 26
-0.14106549845410377 0.13051324756574934 -0.5370690194078279 61 43 26
-0.14106202971248794 0.13043792072029636 -0.5388773334431104 71 54 36
-0.1411253907246613 0.13194672366728405 -0.53980444780194 76 58 41
-0.14112733250872236 0.13199965507776928 -0.5415433045824902 67 48 32
-0.14112645328113047 0.13198572717832485 -0.5433218726595181 64 46 28
-0.14108548929599732 0.1310216679571321 -0.545638229227184 78 59 37
-0.14107948084812005 0.1308861872676737 -0.5474921081047442 80 61 37
-0.141083441238861 0.13098700868643182 -0.5492148367311332 74 52 30
-0.14108939350250654 0.13113505084853772 -0.5509126986753979 85 66 37
-0.14103413945713275 0.12983235118945338 -0.5534406303356727 116 99 66
-0.1381464296186813 0.06146895538356026 -0.6136928276924641 66 52 34
-0.1381329788178794 0.06115775650549177 -0.6158224872102513 66 51 33
-0.13810863714598703 0.06058845507121963 -0.61810960742775 63 48 32
-0.13804831928812297 0.059166530631176856 -0.6209107316617665 52 38 27
-0.1380555406600816 0.05934531689139472 -0.6227608580719194 46 34 22
-0.13806510064296737 0.0595795354776848 -0.6245796336216692 47 37 24
-0.13802309067273966 0.05859157152446423 -0.6271370687155664 45 35 22
-0.1378420192803623 0.054307951320725634 -0.6316942914051403 42 32 20
-0.1378075326965267 0.053498361039723774 -0.6341626526923542 51 41 27
-0.13786187583171614 0.0547939787276977 -0.6353554181710517 55 46 31
-0.13784249011757302 0.05434229237201518 -0.6376127829992612 50 40 29
-0.13777026908997692 0.05263849201881704 -0.6406414902015161 40 30 22
-0.13786413444880405 0.05487073915140209 -0.6412610484595462 39 30 21
-0.1378192982793504 0.0538159588241488 -0.6439006663770197 35 26 18
-0.1377776571594953 0.05283692191146097 -0.6465002223154367 38 29 24
-0.1378032391776198 0.05345096728743662 -0.6481182432779948 37 28 22
-0.1377982899987756 0.053341489802494035 -0.650186739113393 38 29 23
-0.1378319061465496 0.054145933679964425 -0.6516880422254023 42 34 28
-0.1379052126531727 0.05589093868998016 -0.6526001748175563 51 44 38
-0.13793894159692305 0.056698045426535476 -0.6540972169022076 56 51 47
-0.1379782534981054 0.057637450793523115 -0.6555105303998742 40 35 32
-0.13803818814810637 0.059065549263609046 -0.6566141657307858 40 34 28
-0.13810874091577574 0.06074525204758066 -0.657555526274586 54 45 36
-0.13820022007357247 0.06292082449117375 -0.6581778515958449 83 73 63
-0.13828805968527086 0.0650101302607747 -0.6588494399050471 103 91 79
-0.13843502928350498 0.06850057373106308 -0.658619408116123 81 67 55
-0.13865173339850068 0.07364340841576539 -0.6573183189991147 85 74 60
-0.13883733314005006 0.07804912943350115 -0.6564741752479949 96 87 73
-0.13901153049886375 0.08218460613752623 -0.6557899158072513 92 84 68
-0.13922359266204434 0.08721725639737896 -0.6545112390465418 92 82 67
-0.1396771027140747 0.09797103005822624 -0.6494999767657808 93 82 66
-0.139476227275246 0.09321888074973739 -0.6545496956725999 89 78 62
-0.13963576011516474 0.09700668078452596 -0.6540410341337206 99 87 69
-0.13976678445864812 0.10011893003114372 -0.6539628375765743 109 95 72
-0.13988923727189517 0.10302804269292376 -0.654008556977098 126 110 85
-0.13997553462795498 0.10508043804954117 -0.6546102962490687 136 120 93
-0.14005324741875344 0.10692940737092943 -0.6553411153940748 128 114 86
-0.1401257938119277 0.10865594561509745 -0.6561484928519915 123 106 81
-0.14020533181999856 0.1105481260403107 -0.6568415012624227 116 98 74
-0.1402615583400582 0.11188795236199581 -0.6578982389978398 124 107 81
-0.14029084270402398 0.11258941418178978 -0.6593795661284962 135 119 91
-0.14053875779611597 0.11847096402066859 -0.65738359100742 132 116 85
-0.14055868921499304 0.1189507839965546 -0.6590035765163618 125 110 80
-0.14060081773300948 0.11995652180611854 -0.6602691999804634 131 115 89
-0.14061918474379723 0.12039927854887977 -0.6619147803333704 119 105 76
-0.14059863421865898 0.11991998201371779 -0.6641876199501011 130 116 81
-0.14058929677902712 0.11970636842343305 -0.6662840872363424 129 114 79
-0.140558781921516 0.11899102897349037 -0.6687269641055075 138 123 88
-0.14065388468433498 0.12125184688859417 -0.6691358054348922 151 136 97
-0.14074103513629593 0.1233242349609052 -0.6696677565514525 140 124 89
-0.14080986367653892 0.12496252466046293 -0.6704933045881578 140 124 89
-0.14085947638540974 0.12614554797342667 -0.6716297117267881 144 129 92
-0.1409551498882079 0.12841980208412782 -0.6720073591703317 148 132 96
-0.1409980788868097 0.129444456207703 -0.6732475406377273 155 138 103
-0.14103591803807644 0.13034852166258715 -0.6745703927354855 157 139 103
-0.14109518356683912 0.1317601894950906 -0.6755372111119542 162 144 110
-0.1411210245824553 0.13238000139778808 -0.6770565479686106 166 149 116
-0.14111723411418714 0.13229783440633328 -0.6790700118321412 149 131 97
-0.14095540002073018 0.12847160333830465 -0.6837285872410639 161 144 108
-0.1408663263064662 0.12636913417729528 -0.6871856692564908 158 142 104
-0.14086166780828 0.1262664860133993 -0.6892347509929412 147 132 96
-0.14087039302546478 0.12648090484622906 -0.6910613384205939 123 107 80
-0.1406905383512048 0.12225915960433092 -0.7040457092287351 59 49 42
-0.14080130639653152 0.12489090025931485 -0.704144097903928 93 82 65
-0.14086287855718838 0.12635724555320113 -0.7050807960393102 128 116 91
-0.14095170677443544 0.12846922081145076 -0.7055439804460382 110 96 71
-0.1409395797691607 0.12818976034704255 -0.7077479977695584 102 86 62
-0.14110184152370503 0.13204117719715686 -0.7069300578671146 121 105 73
-0.14120141997955957 0.1344077337979833 -0.707189669842982 197 180 145
-0.1412638166796487 0.13589352840285424 -0.7080910769821408 238 223 182
-0.1412539121672486 0.13566670510368023 -0.7102543599716298 174 155 113
-0.14143142492277674 0.13987922829885704 -0.7091323802461844 141 122 85
-0.14148813373649052 0.14123024764243955 -0.7101216089593229 142 127 91
-0.14112096227276097 0.13254101595972814 -0.7185888336290003 143 129 95
-0.14116779824176248 0.13365824429292475 -0.719768180093636 140 124 95
-0.1412403763474385 0.1353851965213613 -0.7204888190843398 137 123 96
-0.14125118406746745 0.13564904339215217 -0.7223044262867816 123 110 86
-0.14120913676423774 0.13466098783421876 -0.7250651234206138 100 88 65
-0.14124874395511672 0.13560698931187826 -0.7263714314429992 100 87 65
-0.14135626190495812 0.13816147502842552 -0.7264577724482575 97 82 55
-0.1414010544262956 0.139230269632541 -0.7276651040621649 136 117 84
-0.1414433495779735 0.14023990773020137 -0.7289158556807971 132 112 77
-0.1414245105925423 0.13980159423328298 -0.7312716278881676 150 130 94
-0.1412701203969016 0.13615283093521907 -0.7360922206932878 155 135 98
-0.13983296676485027 0.1021723107324477 -0.7769493159684873 123 107 83
-0.13975572271123415 0.10035124812464963 -0.7805051769552516 138 123 94
-0.13983243228012388 0.10217627440898294 -0.7812076382169931 142 131 103
-0.1398905843764967 0.1035617935084246 -0.782251508354074 99 87 62
-0.13989943509673025 0.10377972840922614 -0.7842147539721798 96 82 57
-0.13992333549207012 0.10435408041494848 -0.7858978234728459 108 94 68
-0.13999552640548873 0.10607204867816322 -0.7866731588878492 116 103 77
-0.14006031403054744 0.10761467699374819 -0.7875837611469855 116 104 80
-0.14014955671542167 0.109736424994368 -0.7880282455603774 116 104 79
-0.1402644496634563 0.11246558189984485 -0.7879801605494879 103 88 64
-0.14030664244888866 0.11347308084876226 -0.7893057027499839 89 73 51
-0.14039835564464148 0.11565326498329426 -0.7896857249568137 82 66 45
-0.14042349164682716 0.11625682629391268 -0.791332190204895 75 59 36
-0.14045080611516556 0.11691197662179842 -0.7929373411756259 73 57 34
-0.14052152963094053 0.11859506886947874 -0.7937082857446052 70 54 37
-0.14057746719747255 0.11992801103353343 -0.7947599351655698 71 55 37
-0.14072145317811302 0.12334592307058337 -0.7941071652570797 60 44 27
-0.14077594194207305 0.1246445184398853 -0.7951767841677224 54 39 21
-0.1408302975961723 0.1259399515636523 -0.7962463653185353 57 46 27
-0.1408876880454573 0.12730723634487087 -0.7972542037883901 69 60 42
-0.140940505627752 0.1285662281729571 -0.7983484352553564 66 55 40
-0.1409965410462503 0.12990140521274104 -0.7993771705286051 58 46 31
-0.1410402648788687 0.13094504882613578 -0.8006448974851941 74 61 44
-0.14107362701748477 0.13174333709994537 -0.8021151521796454 95 84 58
-0.14111096774643292 0.13263582991168 -0.8035064140108819 121 110 84
-0.14116025382554914 0.1338111624482244 -0.8046603272951018 98 89 66
-0.14115936843127053 0.13379853242857354 -0.8068080648364926 102 95 70
-0.1412850055782563 0.13678167461003982 -0.8064407289070386 123 111 83
-0.1413208311611146 0.13763826633536305 -0.8078555155148655 166 152 114
-0.14141998118244933 0.13999420459795514 -0.8080025033623581 153 138 94
-0.14142231393216098 0.1400577660200296 -0.8100844682587729 207 194 151
-0.14148252721829196 0.14149176712796308 -0.8110049680778706 218 205 163
-0.14151297403015453 0.14222098525787594 -0.812522518238743 164 151 114
-0.14156430652228122 0.1434447011569742 -0.8136175683707422 131 116 81
-0.14165195078782694 0.14552813331557357 -0.813973998023426 141 125 92
-0.14164072810020845 0.14527076589452095 -0.8163340491502085 134 123 87
-0.14167502675096855 0.14609116952085927 -0.8177705638603598 103 92 58
-0.1416877182671856 0.14640000925717492 -0.8196480889257725 108 94 62
-0.14170907435654267 0.1469139929520191 -0.8213498355590145 120 105 70
-0.14173630004541182 0.14756694367165824 -0.822931829111393 162 146 103
-0.14173594735266887 0.14756697807892155 -0.8250820738955312 169 153 109
-0.14176981090209184 0.148377085875041 -0.8265288738243832 153 140 98
-0.14174513348426807 0.1478012612975903 -0.8291872882054819 134 126 87
-0.1417531986995298 0.14800061927406025 -0.831171793259194 119 112 75
-0.14193470182084716 0.15230597504579182 -0.8295486617141734 135 124 94
-0.14168888188616263 0.14649486186434912 -0.836826446951824 98 85 54
-0.14170068777754957 0.14678281941729812 -0.8387439262219157 139 122 86
-0.14182514527805543 0.1497376396551322 -0.838300221057712 179 162 115
-0.14183744905419032 0.1500373746191856 -0.8402048915271214 182 166 122
-0.1417603897928169 0.14822162113396795 -0.8439957130657545 141 127 86
-0.14185119129355073 0.15037965342906856 -0.8442494669500693 131 114 74
-0.14186891944538932 0.1508078216030024 -0.8460453034664128 158 140 98
-0.14198340668290313 0.15352651523125352 -0.8457862529136482 159 142 96
-0.1420080569888632 0.1541185350760049 -0.8474318273070998 163 148 106
-0.14203175028230874 0.15468790249273215 -0.8490983421872715 159 144 106
-0.14201651115693914 0.15433567331308595 -0.8515992049627318 153 140 98
-0.14199040304515814 0.15372617758713783 -0.8543383279089587 144 131 94
-0.14199626973120819 0.15387359177907486 -0.8563952889498586 124 113 86
-0.14200190439876387 0.1540155239612867 -0.858459845391499 91 82 61
-0.14199747884246516 0.1539193318663623 -0.8607446864421165 50 45 26
-0.1419811671463887 0.15354180139486803 -0.863291099196064 83 79 63
-0.1419296656162245 0.1523313310949505 -0.8666078632248645 117 112 102
-0.14194048469170845 0.15259604002447175 -0.8685748582291458 140 136 134
-0.14184998653373498 0.1504625753748969 -0.872758575099216 162 161 163
-0.14209276011659 0.15622626322480843 -0.8718558633167266 185 184 184
-0.13425038802948674 0.0049489779362047875 -0.2969085368645772 90 80 71
-0.13446560650168068 0.009914161519725073 -0.29717428177303024 115 108 96
-0.13468361153491423 0.0149430543508286 -0.29740990984327786 102 93 81
-0.13485061882772217 0.01880177112286087 -0.297952094369255 76 66 52
-0.1349553326420968 0.021231268968360112 -0.29887716306430306 89 75 62
-0.13501130300893552 0.02254249603197435 -0.3001056352067731 134 116 97
-0.13504932217230636 0.023441896888289196 -0.30144641303748254 180 161 129
-0.13510327750751683 0.024706843022970743 -0.30268440072853364 196 175 133
-0.13514662549110257 0.02572844203844782 -0.30398878773115046 169 147 102
-0.1351821560180812 0.026570706505303243 -0.3053426077699566 187 168 119
-0.13520942673603895 0.02722350388905491 -0.3067495376238708 218 197 151
-0.13530586408881717 0.02946274589858411 -0.30770420391918735 206 186 141
-0.13530120049308927 0.02938305605885569 -0.30931855417585136 167 150 114
-0.13541823753251672 0.03209465463729404 -0.310131012435082 121 110 88
-0.1355090285933083 0.034204199965347834 -0.311111556093163 69 59 43
-0.13556071695871055 0.035416879886748756 -0.3123487051488922 62 53 37
-0.1355875463372755 0.036059423521793074 -0.3137509176104642 54 43 31
-0.13560506942745149 0.03648854542704219 -0.3152158690955903 57 46 34
