ply
format ascii 1.0
element vertex 675
property float x
property float y
property float z
property uchar diffuse_red
property uchar diffuse_green
property uchar diffuse_blue
end_header
-0.12744710628475894 0.13625751424982122 -0.7063416028181106 62 53 36
-0.12591847272169643 0.14472541655076684 -0.7021885850804357 75 68 49
-0.1256668521880114 0.14621726295639131 -0.7030565903571622 79 69 48
-0.12551159687482752 0.14718269867125577 -0.7043036857576308 97 87 64
-0.12556739493777058 0.14699574557528167 -0.7063893484103113 109 98 71
-0.12549379575485198 0.14751541569673793 -0.707962330129047 121 107 76
-0.12583724764588308 0.1457586790632286 -0.7112044877234566 139 125 88
-0.12526287942342335 0.14901179963364067 -0.710774533573542 167 151 109
-0.1255640991463852 0.14748614027231735 -0.7138565270806675 170 153 108
-0.12514889813662025 0.14987008796133108 -0.7140575314004406 184 166 121
-0.12490396307565133 0.15132469040487254 -0.7149403805363896 147 127 80
-0.12479359490897485 0.15204504246232614 -0.7163659521194919 147 126 82
-0.12441960297523094 0.1542032514794642 -0.716719133864971 142 119 86
-0.12439291213926021 0.15446706624495343 -0.7184828093951139 113 92 61
-0.12417549902247645 0.1557709651483129 -0.7194682193184498 114 97 63
-0.12390934789626676 0.15734042980102086 -0.7202512338042697 127 112 79
-0.12387986404094478 0.15761949794052166 -0.7220038593823039 106 91 60
-0.12395049410198936 0.15735298295040323 -0.7241709929383983 139 124 90
-0.12426483887739857 0.15575847688426314 -0.7273497639927954 152 136 99
-0.12505462073852974 0.15157378273776081 -0.7325091297004028 161 145 105
-0.1268585721430371 0.1421071339124237 -0.7457452297070986 131 116 91
-0.12701247358544707 0.14139041765287963 -0.7483140845897246 138 126 107
-0.12763119611118112 0.13814279927326545 -0.7528422670562555 93 83 69
-0.1285837133427803 0.1330787151704218 -0.7587934874858515 103 94 74
-0.13199053354851578 0.1151584217241515 -0.783121703200495 71 61 45
-0.13166924183860684 0.1170328972877151 -0.783747917030018 65 54 36
-0.13136970718176796 0.11878871153491283 -0.7844627312604849 83 71 54
-0.13114968919590925 0.12011174408126743 -0.7855155489656871 92 81 62
-0.1310987774943317 0.12051493497676324 -0.7872958253572672 101 90 70
-0.13123600874083502 0.11989513521382938 -0.7898917791984437 108 96 74
-0.13092949378433277 0.12168836107568368 -0.7905677421351726 127 113 86
-0.13027866240084424 0.12535311336117613 -0.7897410206943815 156 142 106
-0.1304497490717148 0.12454947492656845 -0.7924876092480868 189 175 134
-0.13023561150028165 0.1258398842623819 -0.7935556347655557 201 188 144
-0.13009174231530546 0.12674829513052335 -0.7949294461414044 212 195 148
-0.12995449446107413 0.1276206807844569 -0.7963315992550395 202 185 140
-0.12955437075549242 0.12992114200820468 -0.7965741140954289 164 146 103
-0.129155570375785 0.13221399012162963 -0.796815750646097 164 147 102
-0.12875810881994879 0.13449914305217114 -0.7970566108508466 154 136 98
-0.1284434279570989 0.136334336400868 -0.797658644883382 126 110 75
-0.12822540213291928 0.13764441832815766 -0.798686551707521 95 81 49
-0.12791635376236277 0.13944850048692656 -0.7993053154674916 83 68 41
-0.12725472744555102 0.14316616802722285 -0.7983402677720215 74 57 31
-0.12708025397967648 0.14423899425112266 -0.7995498944676126 84 67 36
-0.12683479435169343 0.14569694916636897 -0.8004383905240108 126 110 70
-0.12661757101445406 0.14700149120612815 -0.8014511466641199 150 134 92
-0.12621742073451217 0.14929830341527212 -0.801633477434914 193 179 139
-0.12637639385086258 0.1485616948713827 -0.8043459928564711 147 134 97
-0.1261458469987775 0.14993816218468056 -0.8052927719070603 107 94 60
-0.1258969461550927 0.15141398306423248 -0.8061529689689716 91 78 45
-0.12591715896553604 0.1514303780077118 -0.8082404869426953 103 90 56
-0.1259192344797848 0.15154529797936525 -0.8102478997844645 128 111 78
-0.1258190926447038 0.15221448500482707 -0.8117880912928641 115 97 62
-0.12581749916701396 0.15234954661120342 -0.8137826410401389 122 106 66
-0.12578436984563615 0.1526556717882135 -0.8156340340189183 190 175 128
-0.12577797843941108 0.15281702966442595 -0.8176110837697695 235 220 171
-0.12541885741703288 0.15488956537033796 -0.8179524833285357 230 215 169
-0.1251696775929733 0.1563661666000602 -0.8187998078639072 235 218 171
-0.12487051505329669 0.15811327837128716 -0.8194104732029073 195 181 134
-0.12452421907432025 0.160115356760594 -0.8197960160490888 134 124 80
-0.12431315539358956 0.1613848205636773 -0.820810358289584 103 91 60
-0.12407960662759783 0.16277586457705734 -0.8217164814840456 85 70 43
-0.12392987775810493 0.16371297817508665 -0.8230148802865064 96 81 47
-0.12389718589082449 0.16401656314342092 -0.824865610341804 141 123 83
-0.12407519363618444 0.16318000556095846 -0.8277168308987809 160 140 95
-0.12426488337882297 0.16228067210881705 -0.8306304583998084 169 151 104
-0.12420770891048452 0.1627173891803701 -0.8323752477628773 173 158 111
-0.12420258360806714 0.16287262581371914 -0.834369867644602 163 150 103
-0.12415625198789312 0.16325089429182643 -0.8361696978829526 148 136 91
-0.12404957118762072 0.16395562425148708 -0.8376813595023624 140 126 87
-0.12386553584831408 0.16507862860398484 -0.8388208281042868 154 139 96
-0.12390693840540956 0.16498270455252154 -0.8410460715568224 152 138 94
-0.12391523097349963 0.16506599246336234 -0.8431148301094396 150 134 94
-0.12392882407487758 0.16512081179916532 -0.8452121431416656 148 134 97
-0.12385065208923157 0.16567172959579446 -0.8468663874826703 139 126 88
-0.12395708526060202 0.16522520854305084 -0.8494209793079123 146 134 98
-0.1239563855049541 0.16535781434654218 -0.8514574644532451 133 123 90
-0.12396284121352323 0.16545193548306356 -0.8535316501828791 116 106 76
-0.12391429565116137 0.16584329960202077 -0.8553386313428105 122 111 84
-0.12381647472757545 0.16650085790336955 -0.8569045736211229 110 100 78
-0.1237140188549715 0.16718346069959847 -0.858447933251074 73 67 52
-0.12362547072190222 0.16779099064091485 -0.860060262452921 32 28 17
-0.12351445041832355 0.16851985647465492 -0.8615616718438048 43 36 27
-0.12339079528467316 0.16931691215385916 -0.8630002349448178 62 54 43
-0.1234039191827487 0.16937583492826863 -0.8651200929140188 96 88 79
-0.12358996718022637 0.1685019208219247 -0.8681068920354513 137 133 127
-0.12359111693914626 0.16862596022150408 -0.8701749887669021 161 159 157
-0.12359039180192 0.16876028651222835 -0.8722364218849317 176 175 176
-0.12363289298917556 0.16866165359205984 -0.8745181240308406 185 183 184
-0.1428313126089471 0.014016008525346263 -0.30193823063808584 139 133 124
-0.14234321736676667 0.016873643122032683 -0.3027554337125466 110 97 81
-0.1419495078097108 0.019196000985538864 -0.3037031545864919 121 106 85
-0.14157613564482927 0.021402825087736596 -0.3046757151900491 119 103 81
-0.14119009493055676 0.02368116120189795 -0.30562520297595397 134 116 89
-0.14083214453727627 0.025800064908966372 -0.3066114089922747 154 134 103
-0.1405150248255589 0.027687401301361506 -0.30765391281501153 195 178 148
-0.1401421860486805 0.02989015159075474 -0.3086097369297386 171 155 126
-0.1399443848989253 0.031101189652084832 -0.3098235141906866 155 140 109
-0.13964756509463644 0.0328729383152563 -0.31088636526206775 165 150 118
-0.13925839928803074 0.035167461767286065 -0.3118059494060154 129 115 87
-0.13909300395857077 0.036194557744938405 -0.31306181649764137 80 67 45
-0.13917955220286216 0.03579503831058432 -0.31470269265628037 53 42 30
-0.1391236666452242 0.03620211752961673 -0.3161271700965937 41 32 26
-0.13960951066728322 0.03354241002281147 -0.31839156653780576 30 22 19
-0.13955426003998475 0.03394625043388513 -0.3198229525555855 23 17 16
-0.13930664543581728 0.03543894994104496 -0.3209538722479391 18 12 12
-0.1391587866101783 0.03636691478363477 -0.32223934115738656 18 13 12
-0.13907889761732548 0.03691017691002679 -0.3236315506233008 17 13 11
-0.1389743303174096 0.037593104807033775 -0.3249848205242493 17 13 11
-0.1388178329191753 0.03856985698960255 -0.32625495489747997 17 13 11
-0.1387173366222 0.03922971506964791 -0.3276141459445449 18 12 9
-0.13864815304002798 0.039712429938289134 -0.3290239059448876 22 17 13
-0.13851677628876882 0.04054698122297741 -0.33033314932599434 25 20 15
-0.13839874637563257 0.04130600780623929 -0.33166363791686887 25 20 15
-0.138426738485059 0.041239163078929095 -0.3332334251038016 29 24 19
-0.13845625694879998 0.041163814584344996 -0.3348078625419406 41 34 28
-0.13854699119204353 0.04074244156212034 -0.33648594570436424 38 29 23
-0.13863273261010195 0.04034949061770908 -0.33815890640309226 29 22 17
-0.13863077734738724 0.04045253281827617 -0.33968812258248915 32 25 19
-0.13875582495076622 0.03983770868381434 -0.3414327399632114 33 26 18
-0.13873360551276628 0.04005555854748906 -0.34293203860147514 38 30 22
-0.13876567120883176 0.039966660471889986 -0.3445249286871388 54 45 38
-0.13876845133695948 0.04004340688851704 -0.3460700124003489 57 49 44
-0.13879929520206724 0.03996166624713038 -0.34766501516762616 59 52 44
-0.1387431315667311 0.04037170285349484 -0.34911210452407343 71 64 54
-0.13885005553028637 0.039860324627525576 -0.35084271847805404 80 73 61
-0.13878545394993402 0.04031820409868127 -0.35227797133020394 89 81 68
-0.13909135792702795 0.038683109353250325 -0.35436256862368115 89 81 66
-0.13864200509271646 0.04131453856042805 -0.3551252099356537 80 71 54
-0.13856820976814457 0.0418244454370407 -0.35654588651465313 77 68 50
-0.13850316454181455 0.04228496258231723 -0.3579825531215879 77 66 47
-0.13846524788201442 0.042592320029503986 -0.3594682430269663 86 74 51
-0.1384991451625453 0.042494243656323594 -0.36108380609014623 117 101 71
-0.13830802040060197 0.04366677640032196 -0.3622961129410316 142 123 89
-0.13847866277197401 0.04279686920976192 -0.3641619611991097 156 137 100
-0.13826149669675344 0.04411640258423091 -0.36532686357640204 129 110 74
-0.1379445601596016 0.04599896337396611 -0.3663073668687442 128 108 74
-0.13777399937240217 0.047055166514383115 -0.3675529757792922 131 109 74
-0.13753566064580502 0.048493794884693395 -0.3686722973045684 154 130 91
-0.13739720916300466 0.049368627325716063 -0.36997440972695744 177 153 109
-0.13704065969904858 0.051474008846979696 -0.3708696370170631 175 150 105
-0.13679490524629195 0.0529540349557672 -0.3719677408316062 195 173 128
-0.13639815896687557 0.05528570383485444 -0.37277947192585426 160 143 104
-0.136251285886684 0.056207576316401775 -0.3740579401538716 105 90 63
-0.13610106890004647 0.057148259894584094 -0.3753292396721841 92 78 59
-0.13599238304559413 0.05785466448637759 -0.37667880846587515 97 84 64
-0.1360115952927977 0.057839810529940194 -0.3782730849288793 82 67 45
-0.13623335177018148 0.05668298971937123 -0.38025897511567586 106 90 60
-0.13578733576925064 0.05929153928094184 -0.38096032625246284 113 95 62
-0.13584202348316082 0.059076920779543324 -0.3826273597266582 103 85 53
-0.13637401918716946 0.0561718064727971 -0.38522757796480234 112 95 62
-0.1362393072790226 0.05702533675999831 -0.38653328865606235 114 99 66
-0.13669597604678357 0.05454574922183553 -0.38900161091740804 110 95 62
-0.13694209253419226 0.05325333026950978 -0.39106369334891017 106 89 61
-0.13699869104531628 0.053029218884318996 -0.39275575243867317 93 77 50
-0.13701978760116448 0.05300530942458409 -0.3943798018815758 114 99 70
-0.1370193935840201 0.0531026059185446 -0.39596296157197447 91 76 43
-0.1360968642304255 0.05839482478013944 -0.39569357649174797 90 76 45
-0.1362019115791982 0.057897900638729155 -0.39748509381271246 81 67 42
-0.13582944064263436 0.06009077047306367 -0.3983115746108352 71 53 37
-0.13471675939378908 0.06645212388437124 -0.3976251742558052 88 68 44
-0.1356238179859437 0.06143855081853454 -0.4010536472669215 135 117 85
-0.13392938459020273 0.07107456325929525 -0.39915374619294264 99 84 61
-0.13412268685718406 0.07008039630364934 -0.401121703088842 48 35 21
-0.13418687755916298 0.06981340647066771 -0.4028272280961148 47 33 19
-0.13497582262477562 0.06546679240173323 -0.40604435510289905 49 36 19
-0.13491543614459828 0.06590174362843261 -0.4075017012165569 51 35 19
-0.13502235233894594 0.06539513291738926 -0.40931099580345925 47 33 20
-0.13489071467233416 0.06623123211121663 -0.4106210148341898 39 25 14
-0.13477861840023825 0.06695733646354322 -0.41197184385297314 42 29 15
-0.1347562121803084 0.0671787830842104 -0.4135131579841229 47 33 16
-0.1346847728142482 0.0676761736231677 -0.4149511647084878 52 35 17
-0.1341803723847922 0.07060920274649887 -0.4154613583828962 59 41 20
-0.13397152207172097 0.07187934851431531 -0.4166006495279228 64 45 23
-0.13384222946724203 0.07270191323444455 -0.4179099922970202 69 49 27
-0.1341811420175117 0.07089133027725016 -0.4202353000209603 76 55 32
-0.13399705434221365 0.07202221362369053 -0.42142833458650486 78 57 33
-0.13409023112300367 0.07159401170700284 -0.4232267987472579 80 60 35
-0.1341397295936327 0.07141158819608846 -0.4249327362034725 83 63 39
-0.13429740375224922 0.07062119674650857 -0.4268801248816783 81 61 37
-0.13445553065706944 0.06982853991530152 -0.42883317446243696 76 59 33
-0.13460657459443276 0.06907597416400046 -0.4307751369489068 82 65 39
-0.13460870571153985 0.0691605805339484 -0.43238894920798016 84 67 41
-0.1346229575613346 0.06917718599301402 -0.4340318129850357 85 69 42
-0.13454748360461832 0.06969808318224073 -0.4354746666611186 85 70 41
-0.13451728077152833 0.06996465544452866 -0.4370203559832004 85 70 41
-0.13437283734207509 0.07087309445824656 -0.4383079395751795 87 72 43
-0.13422842403137528 0.0717813164771352 -0.43959479536332685 88 74 45
-0.13413785967519326 0.07238703265026569 -0.44100410126624756 89 74 46
-0.13440753449265555 0.0709695713229957 -0.4432413806891602 87 73 46
-0.13474205302189485 0.06918837414563367 -0.44563502396374377 85 70 44
-0.13502340009476446 0.06770622024849005 -0.44791347863250286 81 66 40
-0.13528801434166565 0.06631843480215688 -0.4501600293279604 79 65 40
-0.135145761758795 0.06721521855636908 -0.45146346029125917 76 64 40
-0.13540408235387927 0.06586334457014584 -0.45370495861968746 70 58 37
-0.13542542095732338 0.0658420325087552 -0.4553954833134975 59 49 33
-0.13538392509276664 0.06617350757324633 -0.45693985325293174 45 36 26
-0.13562572888426339 0.06491521931851563 -0.4591571162338699 41 34 25
-0.13601488767995304 0.06283046153340185 -0.4617314949417853 32 27 21
-0.1362396477787531 0.0616686438415541 -0.46392207398180835 25 20 16
-0.12412040131539381 0.1308806609545652 -0.4551897067560588 82 73 63
-0.12380355329200435 0.13275008727628654 -0.455959878808993 103 92 75
-0.12391303368856953 0.13223082999034566 -0.45780429664321887 114 102 75
-0.12357754267653642 0.13420443290752987 -0.45852285209005517 125 111 76
-0.12335283802875206 0.1355572282187198 -0.4595192202726529 139 122 85
-0.12326403468593382 0.13614874371257135 -0.46086076259565734 128 110 79
-0.12313632742107498 0.13695813228833598 -0.4621025696681986 89 71 45
-0.1229674665955714 0.13799792465211103 -0.46323774283880237 56 38 20
-0.12274575365040982 0.13933355018328536 -0.4642348603573594 37 20 9
-0.12256865675250556 0.14041925564315177 -0.4653453997051813 61 44 33
-0.12230739015440209 0.14197603409205134 -0.4662351380851932 102 88 72
-0.12163580593281419 0.14582926734025697 -0.466048964736672 110 97 78
-0.12140912844728528 0.1471918510670631 -0.4670192834013147 102 85 60
-0.12115769999671866 0.148692793622607 -0.46792192403581045 92 77 50
-0.12095258726361247 0.14993439727309077 -0.4689440065491703 84 70 45
-0.12079782701703187 0.150894155713643 -0.47009755828107036 85 71 45
-0.1207193345022132 0.1514271756843929 -0.47145300665533196 78 62 40
-0.12033991791592169 0.15364352417785598 -0.4720048059223064 61 43 28
-0.1202369589870128 0.15431325589907413 -0.47329241426132457 60 45 30
-0.12015287356855354 0.15487742554770217 -0.4746306560175677 58 44 27
-0.11995649173502457 0.15606957790486292 -0.47566586251709797 98 86 66
-0.11988652098517338 0.15655478591346822 -0.47704169743666147 135 126 102
-0.12032058240805242 0.15422201780038367 -0.4797887860852089 112 100 76
-0.12017053840155484 0.15515521188547848 -0.48095189518298226 89 72 50
-0.12020470821919334 0.15505863032766548 -0.48261848759444204 79 62 40
-0.12000668409726449 0.15625997422552296 -0.48364938818630265 63 47 24
-0.11981497297594033 0.15742591820666357 -0.4846957181374 66 50 29
-0.11973152836876483 0.15798675397505446 -0.4860398483581734 68 52 31
-0.11939227717001748 0.15997690918809349 -0.4866736983562963 64 47 28
-0.11923826621004105 0.16093186828225536 -0.48781912305695396 62 45 26
-0.11912043191264679 0.1616846656920134 -0.4890645876958988 70 54 31
-0.1191251031506121 0.16175315741578736 -0.49065343763898533 82 66 41
-0.11899369995220097 0.1625817570762112 -0.49186099339566325 86 69 41
-0.11877759493034666 0.1638833343206738 -0.4928284673797121 86 69 41
-0.1186274008779838 0.16481672662602737 -0.4939804949584282 90 73 45
-0.11878712138981758 0.16401968951782003 -0.4960133379671696 95 78 49
-0.1188595938302 0.16371003745499907 -0.4978020329515938 95 77 48
-0.11886589624737122 0.16376995566634783 -0.49940442001541624 95 78 49
-0.1185391552797678 0.16568890789744906 -0.500051314357245 94 77 48
-0.11815816252733831 0.16791036746110471 -0.5005371669285325 97 77 48
-0.11829147240536575 0.16726146485817656 -0.5025060914024261 99 78 49
-0.11852053632723171 0.16607854022714133 -0.5047576113407057 102 81 52
-0.11867240710824392 0.16532667766918463 -0.5067905523382535 103 83 53
-0.11864174795547712 0.16559337793457157 -0.5082946300908003 108 89 57
-0.11858412088802858 0.16601058350292658 -0.5097208636246543 107 88 56
-0.11856130294258153 0.16623368733072125 -0.5112503171994006 111 92 59
-0.11808105562515553 0.1690079020308039 -0.5114300928153491 122 102 68
-0.11868535708492792 0.1657339154254105 -0.514816435303323 129 109 73
-0.11851213173679237 0.16679600337428785 -0.5159046512425742 134 115 76
-0.11943873655810944 0.16172635085760612 -0.520272612415191 134 115 75
-0.11947732018153881 0.16160818286518547 -0.5220027007184393 140 121 79
-0.11833474742420717 0.16807381534876686 -0.5201880768273784 143 124 82
-0.11845624275552226 0.16749317235579797 -0.5221616114674184 147 128 85
-0.11862510534487965 0.16664882600911884 -0.5242826811254913 156 136 91
-0.11914806878976601 0.16383171226872495 -0.5274831058846345 161 141 94
-0.11923765467407679 0.16342990338531418 -0.5293770370462586 160 139 93
-0.11935133839762871 0.1628940713213719 -0.5313482664329975 163 142 95
-0.1195711580333008 0.1617672835688076 -0.5336488276288863 162 145 96
-0.11973913994153262 0.16092959713560323 -0.5357964249825921 162 144 96
-0.11976718877492509 0.16087153004055832 -0.537517882683436 167 149 102
-0.11989621702077555 0.1602513111935998 -0.5395542211005474 171 152 105
-0.11992999222857988 0.16016172342138552 -0.5412994995558188 154 134 89
-0.12085078571843075 0.15513401561842433 -0.5458091571702407 141 121 79
-0.12114894663895467 0.15357353320873735 -0.54839450347628 138 117 80
-0.12136828368951653 0.15245227003401357 -0.5507408405896611 130 112 75
-0.12136563659350522 0.1525668362612289 -0.5523957226481733 123 107 72
-0.12156396430610532 0.1515631235954098 -0.5546864038816274 125 109 76
-0.13797784970057111 0.06077449147869568 -0.6156545904975914 73 59 36
-0.13788367633746396 0.061409049873907856 -0.61719843005645 81 67 46
-0.13766873335177154 0.06271517499373705 -0.6183530663142831 61 49 31
-0.13768390136417008 0.06274176081322419 -0.6202500258664579 54 43 26
-0.13778439022601166 0.06229417031348608 -0.6224264381532444 71 58 41
-0.1377418649618849 0.06264181480912517 -0.6241415050234275 61 48 32
-0.13798604564896844 0.06139599518463082 -0.6267943475262695 56 44 28
-0.13959734608800525 0.05255283948737291 -0.6339336563880643 63 50 34
-0.13914601182180464 0.05517363214238949 -0.6343291503072058 65 53 37
-0.1394339225684385 0.05368656027225499 -0.6371548848639302 68 57 43
-0.13966914915243925 0.05249267547191347 -0.639814581376946 62 52 39
-0.1398967774551732 0.05134142734310074 -0.6424562002066142 61 51 40
-0.1397004266118577 0.05254555193290858 -0.6436938314237468 52 43 32
-0.1400176055665995 0.050897534666384026 -0.646643993760205 60 52 42
-0.14006820975571302 0.05073038314848549 -0.6487103553998962 51 43 36
-0.14010445564159146 0.05064315769963279 -0.6507318354950961 46 39 33
-0.13996413366891472 0.05153640627146666 -0.6521614449718938 62 55 49
-0.13971542741373766 0.05303129143402943 -0.6532241283676238 76 69 63
-0.1394968771560457 0.0543586184609382 -0.6543861791726855 69 66 62
-0.13938506870822634 0.05509338890784124 -0.6559089744336793 51 46 43
-0.13909813769264348 0.056799986614159775 -0.6568343961160241 41 35 33
-0.13879658101702552 0.05858751818626162 -0.6577060962932143 46 39 36
-0.13859976260605958 0.05979370504793452 -0.6589332620334907 66 59 50
-0.13821636909794205 0.06203481545047268 -0.6595163487916627 95 87 74
-0.13736293883372958 0.06688283205606227 -0.65847071291259 99 89 77
-0.13636108819348997 0.07255309250126724 -0.6568954330436689 77 67 56
-0.13553139737295558 0.07726749024288906 -0.6558994743979244 101 91 81
-0.13443938417765058 0.08343555894424884 -0.6539743037166774 96 88 75
-0.1336238313461685 0.0880695826234314 -0.6529946432501827 92 84 69
-0.13274057749929616 0.09307802794854256 -0.6517627321675165 85 75 62
-0.13223992736783552 0.09596467434272721 -0.6518597169972273 93 83 71
-0.13156547913838573 0.09981409374490113 -0.6513354543844573 93 83 70
-0.1311206991224388 0.1023900069126294 -0.6516115776344126 96 86 72
-0.12952840314933514 0.11132411299428971 -0.6478092962629609 99 88 72
-0.12896244301640403 0.11456984093168449 -0.6476276780262368 98 85 67
-0.1285363817135417 0.11703995175586401 -0.6479355925464655 97 83 63
-0.12807504433425457 0.1197050575528581 -0.6481104044750361 123 108 84
-0.12801863495237664 0.12012695212139313 -0.649731486086917 127 112 85
-0.12745841680325457 0.12333900850746043 -0.6495393520272758 125 109 82
-0.1279885681373644 0.12051269986528604 -0.6532756433030523 130 115 84
-0.1273794124563497 0.12399524182487859 -0.6528984332468096 138 123 90
-0.12723455811946885 0.12490672315084184 -0.6541973101547045 143 128 93
-0.1270497750222987 0.12603917644303425 -0.6553498344990081 140 124 87
-0.1269278049557471 0.12682386918481747 -0.6567301998349254 175 158 120
-0.1267770944398109 0.12776759386909212 -0.6580048522143576 155 138 103
-0.12664271441105643 0.12862089433641918 -0.6593385490481314 141 123 88
-0.12645615462670523 0.1297628599044482 -0.6604792270006383 149 130 92
-0.12693341206503592 0.1272323399119019 -0.6640727161969631 152 133 93
-0.12649440995528682 0.12977092528073458 -0.6642808552233819 152 136 97
-0.12606274735296846 0.1322684829559156 -0.6645090702618557 143 127 90
-0.1260096768921235 0.1326718998818692 -0.666142397915428 146 131 91
-0.12581796730613612 0.1338420052256393 -0.6672582021379752 141 126 86
-0.1259670153074152 0.13312796007611086 -0.669650570691886 152 137 95
-0.12586406210513346 0.13380738753315463 -0.6711002561371375 160 144 101
-0.12566579011494283 0.13501370728302256 -0.6721902916389603 152 135 93
-0.12566817038695519 0.13511089834741669 -0.6740376459204936 150 132 91
-0.12370131053484268 0.14630974730820723 -0.6720585941072794 140 125 86
-0.12365300423992986 0.14679592640876898 -0.6755274215914369 131 110 78
-0.12358615433474802 0.14727499030962984 -0.6771000702499577 138 118 82
-0.12342768171487949 0.1482600809453044 -0.6783197706257151 140 122 82
-0.12313659344984829 0.14997736945868653 -0.6790247726328716 142 124 86
-0.123248559881609 0.14946911096530438 -0.6812907453454027 134 118 82
-0.12334724970241234 0.14903443058415297 -0.6835097754088697 139 123 86
-0.12338823519923928 0.14891853278122966 -0.6855079346224665 144 128 92
-0.1237227000058634 0.147183086719189 -0.688658628159689 147 131 97
-0.12388817472078809 0.14638078387689668 -0.6911553593645154 126 110 78
-0.12404949346013008 0.145601771809562 -0.6936417048070683 126 110 80
-0.12480577832412479 0.14154062597426745 -0.698483752386428 104 89 58
-0.12516232459038273 0.13968576016978895 -0.7017617374602302 90 77 49
-0.12413725903249034 0.14545215830224595 -0.6995626373792758 50 40 24
-0.12392696381467276 0.14672378915271608 -0.7005881570112716 49 43 29
-0.12374915383760814 0.1478161414194513 -0.7017410724895358 67 60 45
-0.12374841956526421 0.1479320434816143 -0.7036015777264752 101 92 73
-0.12369104311063141 0.14836035849992094 -0.7052369158983429 85 74 51
-0.12362041571196021 0.14886178207627307 -0.706819949286839 104 92 65
-0.12402049608010585 0.14676883261637835 -0.7103048291626431 132 120 87
-0.12384540685578566 0.1478463618722578 -0.7114716164645118 166 153 115
-0.12374447017942353 0.1485151872811813 -0.7129379846161589 180 164 121
-0.1235989314430361 0.149429763200349 -0.7142228081198567 201 183 139
-0.12324688904462412 0.15148192163452107 -0.7146634140197593 176 157 109
-0.1228932660442104 0.15354245227714156 -0.7150919776036938 186 168 124
-0.12266531636223134 0.1549104767292518 -0.7160309809042068 143 124 91
-0.12241340779823663 0.15641027579943087 -0.7168685464068744 128 110 80
-0.12243163889681435 0.15642239765620003 -0.7188181764481612 118 102 69
-0.12215906357037191 0.15803576411053544 -0.7195665686067318 129 114 83
-0.12198091471061057 0.15912908752863225 -0.7207031769531351 126 111 81
-0.12201047295454641 0.1590790321787398 -0.7227028042570334 121 107 74
-0.12222316547556385 0.15802126258099433 -0.7254699629323296 135 121 85
-0.12256116596254564 0.15627436819173243 -0.7287688707505853 161 146 107
-0.1229799478296773 0.15408360284314715 -0.732416943718337 155 140 101
-0.12339250959528322 0.1519277763873755 -0.7360508123650098 154 138 104
-0.12390378382949789 0.14922965827685053 -0.7401131096690677 142 126 97
-0.12435528946655366 0.14686112626386072 -0.7439366326837467 125 112 89
-0.12460264232311045 0.14561609665562256 -0.7469067295499081 101 92 76
-0.12567074977542994 0.13985839619903054 -0.7533768451958041 95 84 67
-0.12625259681307327 0.13677582694369364 -0.7577996021136865 128 115 90
-0.12692167500794804 0.1332146651111173 -0.762611365571475 117 103 76
-0.12760601999637647 0.12957066148151947 -0.7675065257844325 103 89 64
-0.1301470132106404 0.11584375668575447 -0.7824069124260672 94 83 62
-0.12992142735848763 0.11720360995192286 -0.7834363894003554 96 85 65
-0.12967036571013585 0.11870326609159382 -0.7843527613938206 91 80 60
-0.12941839526882062 0.12020771898975788 -0.7852619265849987 93 82 62
-0.12943783816313836 0.12022122391708673 -0.7873507642639401 100 89 67
-0.1294616181988127 0.12021109142755856 -0.7894615798032318 113 100 76
-0.12946770484797307 0.12029830392291399 -0.7914979975747402 128 113 84
-0.12942580015064142 0.12064917407551873 -0.7933262921968871 163 149 113
-0.12858166982539568 0.12540415904892957 -0.7916222942337605 201 188 145
-0.1284204474597804 0.1264095999620238 -0.7929174260883773 211 195 151
-0.1283291942093538 0.12703095470613404 -0.7945212267266694 204 189 145
-0.1277272122609734 0.13045503257367894 -0.7938577157321962 175 159 122
-0.12731006939044093 0.13286421723363576 -0.7940055636376605 152 135 98
-0.12694863606008835 0.13496733313033926 -0.7943948653675064 167 151 110
-0.12665954992239406 0.1366732312010167 -0.7951020353689308 143 127 95
-0.1260756067022833 0.1399961130780533 -0.7944818709237735 116 103 75
-0.12591436202177092 0.14100019760913662 -0.7957522666813611 88 76 51
-0.12571428061409567 0.14221716575433233 -0.7968462455940758 64 52 32
-0.125527065261508 0.14336346425330143 -0.7979962643336639 49 36 17
-0.12534651773440292 0.14447309886855494 -0.7991746696025817 109 94 65
-0.12513376263061143 0.1457591701445566 -0.800204951059606 137 121 80
-0.12481438154137747 0.1476294632605008 -0.8007467369675223 145 127 86
-0.12450111043630639 0.1494659743190699 -0.8013114435837221 163 147 105
-0.12401847485773428 0.152230162771984 -0.8010952395346933 119 105 67
-0.12376956112980166 0.15371339152455096 -0.8019438416225698 91 77 43
-0.12362877833412594 0.15460411070918595 -0.8032871364802809 87 71 41
-0.12387338309046517 0.15338402419479008 -0.80640933755467 91 76 45
-0.12389777834542974 0.15337036922253353 -0.8085204461767608 107 90 59
-0.12376516238286593 0.15421662684917822 -0.809905919590044 113 96 63
-0.12378374075415138 0.1542350881743154 -0.8119944538490208 109 94 59
-0.12364507797813545 0.1551144866620625 -0.8133523801295177 119 103 64
-0.12379116378807725 0.15443530553587884 -0.8160416093229499 185 166 121
-0.12374321570141603 0.15481837328718767 -0.8178269705812191 229 210 164
-0.12346643309429473 0.15645369579865995 -0.8185378227190742 217 199 154
-0.12328272438548361 0.15757954855318862 -0.8196833778616021 228 212 167
-0.12289115243183582 0.15984240419066492 -0.8198447255375108 180 167 123
-0.12258791422544608 0.1616216850020166 -0.8204177742611442 126 112 79
-0.12228040118520367 0.16342406166645831 -0.8209657957990687 98 83 57
-0.1221528998389311 0.1642417909810194 -0.8223662970756733 81 66 37
-0.1220400582699322 0.164979339012484 -0.8238363282385576 113 96 61
-0.1221037184334595 0.1647519744461318 -0.8261511397704666 138 117 76
-0.12230125421273916 0.16379308344709806 -0.8291126200085107 151 132 89
-0.12222443157804097 0.16433411141218718 -0.8307615585550081 160 144 99
-0.12233482674487343 0.16385210850349827 -0.8333143158707141 162 149 104
-0.12222292061933758 0.16458506020356972 -0.8347974476834737 152 137 95
-0.12213907983423192 0.1651646816506269 -0.8364165631313456 143 128 89
-0.12202104744563963 0.16593110914709366 -0.8378701114773864 148 133 90
-0.12202234452113236 0.16604578197755254 -0.8399048686832052 155 140 96
-0.1220564858725704 0.1659812562485719 -0.8421027730214115 151 136 94
-0.1220848376797759 0.1659485541601766 -0.8442758482541077 151 136 96
-0.12214897050572768 0.1657207097678875 -0.8466279767504129 147 133 92
-0.12214275572038356 0.1658771311207185 -0.8486381444674959 151 138 99
-0.12213652195019761 0.1660338089410551 -0.8506507649192084 143 131 95
-0.12215316498954572 0.16606579542733468 -0.8527790981629538 139 127 93
-0.12202167608238249 0.16690625214060686 -0.8541759726903336 122 109 77
-0.12195173173064434 0.1674109035953699 -0.8558782603579205 115 102 75
-0.12194164061201658 0.1675891136898839 -0.8578798261584332 97 90 70
-0.12183113547712808 0.168315157017466 -0.8593821693277993 55 49 36
-0.1217378677493716 0.16894719428035274 -0.8609708242608687 38 31 21
-0.1215406479432031 0.17014608251386273 -0.8620379181287754 53 44 34
-0.12154231156595782 0.1702605228680079 -0.8641039405792826 87 80 70
-0.12178747922779483 0.16904772438223978 -0.8674015197636284 125 120 113
-0.12169561846780827 0.1696724381308214 -0.8690030428949881 154 151 148
-0.1217981167850184 0.16923796800252383 -0.8715906686887319 172 170 169
-0.1218364112537825 0.1691536653204225 -0.8738572240376066 183 181 182
-0.14085354364699434 0.016469565055031027 -0.30124341034007096 131 119 104
-0.14047675462351664 0.018709327314031077 -0.30221409723191817 120 105 85
-0.14010760949575893 0.020905146169365188 -0.30319138027536763 124 108 86
-0.13974179464977965 0.023081681257323516 -0.30416909974043627 142 124 96
-0.13938058882005566 0.025231630400427058 -0.3051492217088776 148 128 96
-0.13897745126941263 0.027620903503740593 -0.3060626571318193 141 121 89
-0.13867020526430887 0.029462072461327718 -0.3071144135434392 145 125 95
-0.13849018538274332 0.030576276673445896 -0.30835398130012526 160 144 113
-0.138258977429541 0.0319827872820557 -0.30951481717664736 166 152 121
-0.13799507560787713 0.03357590246459374 -0.3106237523404075 144 131 105
-0.13769300940863424 0.03538681756833692 -0.31167160458678395 107 92 74
-0.1373981476298491 0.0371563987172793 -0.3127271334193872 72 59 45
-0.13743594889173114 0.03702627336283443 -0.31429337348588604 54 45 34
-0.1373930234884768 0.03735719186010718 -0.3157364881788924 43 34 27
-0.1372997391114471 0.03797566724210147 -0.31710188239795334 30 22 19
-0.13720464635868673 0.038604470965028045 -0.3184645254328119 26 18 18
-0.13764299519286968 0.03618832009635811 -0.32066931050664504 22 16 15
-0.13746147549527607 0.03731068077320017 -0.32189939218276614 21 16 13
-0.13734394440237502 0.038067767807038036 -0.3232301707033529 20 16 12
-0.13724676492828303 0.038708696268580464 -0.3245932741747358 24 19 14
-0.13705226594219191 0.03990495323423543 -0.32579950242277367 36 31 24
-0.1369614348338329 0.040509615966826576 -0.3271721280545578 42 35 26
-0.13679767666521164 0.04153035446210761 -0.32842608021400194 41 33 22
-0.13671362367484086 0.04209632965434111 -0.3298094565066517 42 35 24
-0.13657241658482266 0.04298834323262786 -0.3310990029157152 40 33 23
-0.13639745550246374 0.04407284260199884 -0.332331982792356 40 32 24
-0.13662665475097766 0.0428522052124722 -0.3342357869604548 51 42 34
-0.1367009820652967 0.042515096699013516 -0.3358862925464069 53 44 35
-0.13686639907012696 0.04165872823240989 -0.3376927725018654 55 47 38
-0.13691499018872655 0.04146874376743227 -0.33930649125342677 59 51 41
-0.13702127226228292 0.040949982907519736 -0.34102062932944965 59 51 41
-0.13717011196203693 0.04018880370219316 -0.3428108564578718 62 55 45
-0.13718162774335987 0.040210671301710174 -0.3443699349482446 59 51 43
-0.13712671976875734 0.040611258661766306 -0.3458164856069029 66 59 53
-0.1370820250095737 0.040953679557439115 -0.3472814801086776 72 64 57
-0.13701475294353474 0.04142482132545337 -0.34870813434549236 82 75 65
-0.13698606697154894 0.04167611220635874 -0.35020280362197653 81 75 64
-0.13698387667113768 0.041776499968276246 -0.3517452407780647 80 71 60
-0.13715025436198086 0.04091656513997251 -0.3535869635901723 80 69 56
-0.13669443763409195 0.043601544983214585 -0.35432940955092534 82 71 55
-0.1366418986233386 0.04398889214875376 -0.35578466329312475 87 76 58
-0.13655997699627154 0.044543650021049944 -0.35718809335850615 93 81 60
-0.13690745194693174 0.042652775753095104 -0.3593647453826678 102 87 62
-0.13693251242071938 0.04259851010472136 -0.36096599168676186 134 113 82
-0.13674823663654317 0.04373644656389923 -0.3621889726545913 150 128 92
-0.1366877502191078 0.04416943416818836 -0.3636365276130479 157 134 93
-0.13661549246774413 0.044669481669755554 -0.3650631699260515 161 139 97
-0.13669708953201606 0.04429364760528369 -0.3667738963145885 166 145 103
-0.1362529235259427 0.046910948098273966 -0.3675140582450185 172 148 105
-0.13594719136354713 0.04873992906524649 -0.36850581699128365 180 154 108
-0.13558606196643846 0.050884005166046645 -0.369390427500245 188 163 114
-0.13536572192724697 0.05222657472571006 -0.3705349016811674 186 165 116
-0.13489950433452688 0.05496821788743811 -0.3712133262760775 173 151 105
-0.13463758353363717 0.05654702458200678 -0.37227260921265215 143 123 82
-0.1346195006564192 0.056738325209928 -0.37379340359955376 117 98 68
-0.13468259302853153 0.056467891035661064 -0.3754709181406431 93 76 54
-0.13441343460182983 0.05808766726782305 -0.37651272799369534 95 81 60
-0.13419439407182615 0.05942219733801096 -0.37764831768652174 84 68 48
-0.13411634697322636 0.05995469048183631 -0.37905525390737455 111 93 67
-0.1343230593226135 0.058867743381128906 -0.3810173496546806 107 87 57
-0.13400889987477901 0.06074310269753144 -0.3819654493087891 103 86 57
-0.13447608757241009 0.058175414036653036 -0.3844458072114286 101 85 55
-0.13622807532998496 0.048393523871853514 -0.3910583321696226 100 84 55
-0.13502361711322922 0.055330612359968306 -0.39024537471324316 95 76 51
-0.13519409971948082 0.054451277517010996 -0.39216448964159734 99 81 54
-0.13485823851640458 0.05645007285215134 -0.3930705813668692 121 105 73
-0.135173919487865 0.054745851854027805 -0.3952879638205447 79 64 32
-0.13434547605191563 0.05954364470188078 -0.3951925593848084 82 67 37
-0.13448702504519894 0.0588291190733871 -0.3970598818722041 82 67 42
-0.1345812321327639 0.05838381487445651 -0.39883465816513575 73 55 36
-0.13362640386266164 0.06389835500457403 -0.39845751626664533 88 70 47
-0.13266204115581862 0.06946618842883599 -0.3980454365896834 127 111 85
-0.13245765805444623 0.07071641469206508 -0.39919295618595363 80 67 48
-0.13261273749816213 0.06992494864139108 -0.40108679588621365 48 34 23
-0.13281080377749796 0.06888961756255767 -0.40307505022111545 45 32 20
-0.13318255020362696 0.06686834175540682 -0.4054332583185462 41 29 15
-0.13367134612962508 0.06418293764147068 -0.40804671021054745 45 30 15
-0.13339031353330075 0.06586884302422265 -0.4090407480243318 49 34 19
-0.13347788074101113 0.06546202323944442 -0.41081529880181444 46 31 16
-0.13316331330574668 0.0673381066478041 -0.41173452686449546 52 36 21
-0.13300980351132108 0.06829981137922327 -0.4129952527758753 61 42 26
-0.13301210212069953 0.06837717694063802 -0.4145905294643499 61 41 23
-0.1326085606335512 0.07075776754225442 -0.41531004512839353 64 43 22
-0.13227911484358623 0.0727175948486752 -0.4161849635382486 69 49 24
-0.13281355708361378 0.06977555843334851 -0.41893947972626017 77 57 32
-0.13258578511494373 0.07115852140788756 -0.4200365309417075 79 58 34
-0.13291060096164492 0.06940658653451925 -0.4223462437428765 80 60 35
-0.13303318198980263 0.0688022406236492 -0.4242171846259853 80 62 36
-0.13314165234295375 0.06827815884603489 -0.4260608983298478 82 64 38
-0.1333319309094979 0.06729033196718989 -0.42809052357676025 77 59 34
-0.13339922860848227 0.06700020795191697 -0.4298505726034082 81 64 38
-0.13294679777496746 0.06965727099258558 -0.4304472721367051 86 69 43
-0.1330403995668252 0.0692180875265919 -0.4322679810121585 86 70 44
-0.1332670137807112 0.06802502511046604 -0.4343931939855616 85 69 43
-0.13308957747077474 0.06912275738450943 -0.43560650531787914 85 69 41
-0.1330758758796024 0.06929232699234666 -0.437191875073607 88 72 43
-0.13293328656559447 0.07019248277024047 -0.4384836770225619 92 76 47
-0.13274486267322683 0.07135234689769095 -0.4396693221313246 89 76 47
-0.13262577758452493 0.07211920113160425 -0.4410134218023163 88 75 49
-0.13305292571544272 0.06979101484189229 -0.4436232014351406 80 67 43
-0.13356140564763036 0.06700258956510885 -0.4464319783427023 74 61 36
-0.13360115003526185 0.06687022275976198 -0.44815695978847003 70 57 36
-0.13380908415779635 0.0657852866496253 -0.450279030404329 64 52 32
-0.1339549450933496 0.06505225968806283 -0.45226066624318284 64 51 33
-0.1339705128765172 0.06505740722002931 -0.4539388805711764 63 52 33
-0.13411587983629356 0.06432763099700439 -0.4559273188860207 52 44 27
-0.13433117225217034 0.06320216779093932 -0.4580869512968497 39 31 21
-0.13458251067923532 0.06187295112319005 -0.46033870269302635 31 25 16
-0.13483837983592048 0.060518458606325515 -0.4626079170729314 29 24 18
-0.14202146881672004 0.02054160549098813 -0.491980347301339 45 43 41
-0.14207072932912143 0.02036185990737882 -0.4938424348960789 33 30 29
-0.141438975964902 0.024034491398010366 -0.4940148251495216 24 22 20
-0.12244674570961638 0.13199914331655524 -0.4561957137208513 71 63 55
-0.12211603251411658 0.13395789585625473 -0.4569224715840597 90 79 64
-0.12250434540933088 0.13185225987603602 -0.4594863102814712 96 82 61
-0.12208422188919787 0.13431621786404802 -0.4599811450266406 103 89 63
-0.12188882558329861 0.13550984784885364 -0.4610496523316674 108 93 67
-0.12174660851584956 0.13640287282419125 -0.4622539872905164 96 79 54
-0.12154680012876132 0.1376212451659276 -0.4633077478013993 77 57 34
-0.12127914375572832 0.13922281668001793 -0.4641825238936754 67 48 27
-0.12107277289647225 0.14047799816641976 -0.4652144853901564 94 78 60
-0.12044776773118827 0.14409770697817664 -0.4651441799793453 123 110 92
-0.12022264096865992 0.14545835169652746 -0.4661184242132141 118 106 85
-0.12002160654759284 0.1466827961730509 -0.4671539569047535 107 93 66
-0.11977138553360357 0.14818487428859167 -0.4680567844037777 100 86 59
-0.11961387798741592 0.14916329537375062 -0.4692038418090871 90 77 53
-0.11935723953748567 0.15070131650793073 -0.4700844266193378 86 73 49
-0.119118142083586 0.15214013829243478 -0.4710090084497837 79 66 44
-0.11913392344112618 0.15214010010398324 -0.47261778756767586 68 53 35
-0.11917680725695615 0.15198721477650448 -0.4743020221181645 69 55 37
-0.11896702144414725 0.1532604354398237 -0.47530301974494116 70 56 38
-0.11940148231168483 0.15089804550197983 -0.4780569440886919 100 87 66
-0.11922385463160032 0.15198991827926261 -0.47914767054676083 123 109 86
-0.11900470509060958 0.15331596243629497 -0.4801228762341374 100 83 62
-0.1188269378038313 0.15440841830385524 -0.48120962151553187 92 73 51
-0.11878874699777861 0.15471346126315355 -0.4826804420033543 76 57 35
-0.11871799662531005 0.15520221121471245 -0.48406209022899827 59 44 23
-0.11838489858854052 0.15717054586151807 -0.4847141802693961 62 48 27
-0.11836478295453196 0.15737366909407446 -0.48623562411452126 70 57 34
-0.1182859710731426 0.1579078388080062 -0.48759405523697424 70 55 32
-0.11795693989616075 0.15985276669173945 -0.48824917790414446 63 46 25
-0.11793387269775546 0.16007257545358342 -0.48976310573927717 68 52 29
-0.11788015831622044 0.16046521973476405 -0.4911916659829009 79 63 39
-0.11751224018569026 0.16262886941076812 -0.49172822996648025 84 67 41
-0.11773659813240055 0.16145427621455005 -0.4939482113250716 85 68 41
-0.11759994051819754 0.16231444297782122 -0.49514154972334723 88 71 44
-0.11751400485230336 0.16288876240780104 -0.49647969718801344 92 74 47
-0.11738607349781593 0.16369970010907042 -0.49769704153677363 90 72 44
-0.11729195387479921 0.1643201214516387 -0.49901148307563675 94 76 47
-0.11708828050610007 0.16555765737437925 -0.5000081621022192 95 77 47
-0.11680581493422806 0.16723886110303893 -0.5007733571408727 95 76 46
-0.11675490764105514 0.16761575295311165 -0.5022111122349977 96 76 46
-0.11769153010457643 0.16243163672286953 -0.5065436798893813 96 76 46
-0.117780552143458 0.16202128435030846 -0.5084044626569616 102 82 52
-0.11781819700695666 0.1619004022846663 -0.5101173413201164 112 93 61
-0.11790391247033355 0.16150905402142993 -0.5119751861692481 112 93 61
-0.11803326918749504 0.16087225451576753 -0.5139662846440232 111 92 60
-0.11820030859705404 0.16002361596249848 -0.5160741930386497 121 101 66
-0.11793620927258061 0.16160167338770542 -0.5168981211584733 131 111 75
-0.11779195772167309 0.16250511915752192 -0.5180782717438159 135 116 77
-0.11777274609443006 0.1627049430332182 -0.5196338746474044 136 117 76
-0.11800917947555613 0.1614665527951034 -0.5219631755184975 138 119 79
-0.11791302960650546 0.16209952213540707 -0.523291282185242 140 120 80
-0.11796311461943082 0.16190991687741238 -0.5250640249411673 143 125 81
-0.11693411444857255 0.167789742466966 -0.5235478576320481 154 136 89
-0.1175248358500167 0.16455938080191534 -0.5269703450575524 161 142 95
-0.11761764899302678 0.16412969742621497 -0.5288777300222363 162 143 95
-0.11771065921027862 0.16369912343845155 -0.530789547665958 162 143 96
-0.11796744531176476 0.16234799432340205 -0.5332114380214446 167 149 103
-0.11809248034983985 0.16173792130030956 -0.5352319099237568 166 148 102
-0.11824156197508226 0.1609929383547153 -0.5373317006867667 166 148 102
-0.11839772370776 0.16020844641484422 -0.5394585909811522 174 155 107
-0.11849308196116531 0.1597659534851606 -0.5414002181488968 162 142 92
-0.11932266536328473 0.15519787753244266 -0.5456525847252406 152 131 86
-0.11967734643462455 0.1532992033138787 -0.5484269474263778 143 122 81
-0.11970780875164089 0.15322254957739137 -0.5501852921399579 133 115 75
-0.11978922603997008 0.1528598045582862 -0.5521079195591566 126 107 70
-0.11973328019643659 0.15326882937418304 -0.5535970381062341 124 106 73
-0.13628439383004531 0.06093110943380611 -0.6173371536754055 75 62 42
-0.13637712021448892 0.06051591674942844 -0.6194905808340586 51 39 22
-0.13604753034895783 0.06247111015014087 -0.6202692957324205 63 52 37
-0.13596993797392257 0.06301191624863434 -0.6218688308899673 60 45 29
-0.13605879283475 0.06261880953655105 -0.6240159140326733 63 48 33
-0.13623435895927996 0.06173944279439603 -0.6264529069573503 51 37 21
-0.13766289482182198 0.053831371472842254 -0.6330387509487877 62 49 33
-0.13746602098351426 0.055042550196533424 -0.6342652541722072 68 56 39
-0.1379371361922813 0.052507061586572173 -0.637712553139381 69 58 42
-0.13767076226032082 0.05410819574909062 -0.6387104251164274 57 47 35
-0.1378230579798451 0.053361439738222466 -0.6411068149758798 48 38 28
-0.13790759084276982 0.05299493795413032 -0.6432811008956728 51 42 33
-0.13818816219397664 0.05152960822846478 -0.646119933082711 52 45 36
-0.13832364323219687 0.05087808443513844 -0.6484766170620405 55 47 39
-0.13844401243622506 0.05031155837896567 -0.6507872350822788 53 46 38
-0.1383821696662677 0.0507665260056992 -0.652483090361677 58 50 43
-0.1381204189793269 0.052341828490978404 -0.6534980834653066 66 59 54
-0.13772245543571243 0.05468020058211337 -0.6540438413196663 61 58 53
-0.13772932375121894 0.054750051754311246 -0.6559729787719302 58 53 48
-0.13732896353201635 0.05710140478785941 -0.6565026471545388 46 39 36
-0.1370321644292329 0.05887230597464732 -0.6573838187068094 44 37 33
-0.13659576261277848 0.0614248927054728 -0.6577774957836745 68 60 53
-0.13624894864388554 0.06347536293481876 -0.6584755348819524 101 94 83
-0.1358799890144865 0.0656495583845367 -0.6590913817152892 75 67 56
-0.13442614324957344 0.0738978848480161 -0.6559093880093924 87 79 69
-0.1337824796965396 0.0776087427166656 -0.6555395250910153 99 91 81
-0.13246193021275735 0.08510812311477872 -0.6527777537418642 97 89 77
-0.13176965160604787 0.08908939118320339 -0.6522064138954097 88 79 66
-0.13098128185932398 0.09360774694769661 -0.6512826190073214 90 78 68
-0.13043660815896344 0.09676152281084624 -0.6512091358905101 88 76 66
-0.12986072172125887 0.10008941824940806 -0.6510151939792065 92 80 70
-0.1292938715798103 0.10336618566562758 -0.6508434743065737 95 83 72
-0.12798652710258585 0.1107849379728158 -0.6480101641764615 98 87 73
-0.1272657924464944 0.11492091264514692 -0.6472580316966589 94 83 66
-0.12681158750895474 0.11756541473148202 -0.6474528541830324 88 78 59
-0.12647667502989068 0.11954235117566075 -0.6480712045692761 97 86 64
-0.12576171446737774 0.12364417879095657 -0.6473072947857059 116 103 79
-0.12530996467223474 0.12627358404168101 -0.6474869510334628 118 102 76
-0.12611636925299874 0.12186869425802113 -0.6522458743665365 130 115 85
-0.1255765509968003 0.12499032327255041 -0.6521021096401987 134 119 86
-0.12538001000677423 0.12619270501634458 -0.6532078199291755 140 123 89
-0.12530689897047856 0.12670515101575727 -0.6547655292430304 164 146 110
-0.12502094082002915 0.12840705984213674 -0.655538737230477 158 139 103
-0.12472894780383191 0.13014246474123994 -0.6562856770853949 153 137 99
-0.12456749026886539 0.13114834594151836 -0.6575129190407569 149 130 92
-0.12433581529398192 0.1325464125505337 -0.6584775966949281 178 159 119
-0.12452161268581208 0.131612452463143 -0.6609977253773027 161 144 101
-0.12466642145020058 0.1309077768277161 -0.6633707540312859 169 153 109
-0.12448211900084029 0.13204131361677318 -0.664513625691298 198 182 138
-0.1245159454943083 0.13195675874289783 -0.6664760831849678 186 172 125
-0.12442456484914334 0.1325714324557148 -0.667968757099181 178 162 117
-0.12434675852128999 0.1331103432356645 -0.669513133910993 175 158 113
-0.12437282115779519 0.13306949665182036 -0.6714526254568361 184 167 121
-0.1229297759036258 0.14154079345349144 -0.6732941464122617 137 118 79
-0.1223180759933004 0.14505775189893835 -0.6727733967693411 142 128 88
-0.12187847429098791 0.1477180768228004 -0.6747358426765192 101 82 46
-0.1217655914460358 0.1484517466816332 -0.6761287631488548 111 92 56
-0.12168578163923244 0.14900098021064684 -0.6776503929488271 116 97 60
-0.12130500763929641 0.15122831638328418 -0.6779961008132775 127 109 73
-0.12148086252819186 0.15035208377932185 -0.6805176724352038 121 104 71
-0.12158069544451061 0.1498999815595554 -0.682746618296261 138 121 85
-0.12170240908539075 0.149326180235218 -0.6850663763424862 133 117 77
-0.12159497651280447 0.15002972414716403 -0.6864852258633729 130 114 80
-0.12182565685903955 0.1488491366833924 -0.6892445540408837 104 88 55
-0.12203889600557923 0.14776615560597925 -0.6919420427496249 122 106 74
-0.1223220379892059 0.14629413699151916 -0.6949253820412966 108 93 62
-0.12317197919794146 0.14166522279640362 -0.7001837852070963 79 64 39
