ply
format ascii 1.0
element vertex 672
property float x
property float y
property float z
property uchar diffuse_red
property uchar diffuse_green
property uchar diffuse_blue
end_header
-0.19826627897544052 0.05635831841217495 -0.5245181500597313 115 99 73
-0.19818640876685822 0.05727860160209686 -0.5259028833128406 153 135 103
-0.1981881886707468 0.057580718715532664 -0.5275952201235837 185 164 125
-0.19798767189422323 0.05941380314955688 -0.5285222125945462 182 163 121
-0.1978108149376167 0.06106721088283382 -0.5295354008349488 168 149 109
-0.19764632121687645 0.06262653141255606 -0.5305925687238938 131 112 76
-0.1976406228888811 0.06298483321281542 -0.5322544231370625 116 101 71
-0.19766444517288365 0.06312022132657408 -0.5340306128471265 133 121 100
-0.19780450087286913 0.062377756216709185 -0.5362561237802018 89 78 63
-0.1977529667340988 0.06308323724747625 -0.5377461548348779 104 93 78
-0.19723458425290347 0.06731374111788749 -0.5374269558966649 85 76 56
-0.19732258079081794 0.06696487404389473 -0.5394534716921349 102 91 69
-0.1974062754208225 0.06664909435770625 -0.5414665475112361 137 124 98
-0.19766468357116163 0.06501591643883503 -0.5441663660767108 129 115 87
-0.19792168403729507 0.06339476789377832 -0.5468682090464058 111 99 76
-0.1979734224165375 0.0633225349982286 -0.5487694873417488 67 56 39
-0.19807236983448542 0.0628949540998967 -0.5508596615564219 85 73 58
-0.19805210583183622 0.06336625672710985 -0.5524811986325426 114 100 84
-0.19806375958940933 0.0635972749192063 -0.5542302565345739 81 67 49
-0.19809031003129482 0.06371639802842338 -0.5560401699553719 89 75 55
-0.19847994016477666 0.06110274922948544 -0.5593037791660473 140 127 108
-0.19860744327191635 0.06046370921579561 -0.5615268151569134 167 155 136
-0.19850480278018534 0.061556843643693904 -0.562828218552995 134 121 104
-0.1985917361672162 0.061224010020619696 -0.5648933752120728 93 80 65
-0.19856163371383906 0.061771714992923304 -0.5664880826242465 97 87 71
-0.19864180704308715 0.06149067398117261 -0.5685310448576315 95 87 69
-0.1986777462211743 0.061542590218805426 -0.5703970229058524 106 98 79
-0.19864874874631727 0.06208265795172477 -0.5719997839644705 115 102 81
-0.1985324895735919 0.06327806147141196 -0.573245411773575 126 114 93
-0.19861616272358024 0.06297232616033407 -0.5753111867079596 113 101 82
-0.1985632844493311 0.06369193088349237 -0.5768172374220791 98 87 68
-0.19863068727614083 0.06350916833967626 -0.5788206030826035 132 123 104
-0.19916886209314927 0.05979632967291476 -0.5827796524863221 126 117 103
-0.19989477689839996 0.05467869492366445 -0.5875344712626637 100 89 76
-0.21379188721006273 -0.04155026546243942 -0.6878792978317811 98 86 69
-0.21335242489098843 -0.037914519990181084 -0.6878720496832954 107 93 76
-0.21308417882061104 -0.03555456442689184 -0.6886191848087277 110 96 76
-0.21280202693348227 -0.03309219558213669 -0.6892986217022963 147 133 106
-0.2126936983821396 -0.031923440086476906 -0.6907524898104336 112 99 69
-0.21247440270662987 -0.02993007490383226 -0.6917054498337183 94 81 54
-0.21225558354357643 -0.02794104146350601 -0.6926563374679379 94 80 55
-0.2120642359217955 -0.026156874879322833 -0.6937273726364603 116 102 71
-0.21188181955910756 -0.0244396932835918 -0.6948354348515487 149 135 98
-0.21169668878202522 -0.02270297688130607 -0.6959278454269492 166 152 114
-0.2116318274554055 -0.021859472131887714 -0.6975659575552349 145 131 97
-0.21152068278094915 -0.020672640620395033 -0.6989918863700414 103 90 61
-0.21143614013704337 -0.019683385695413058 -0.7005384646633688 96 85 59
-0.21132078957532413 -0.018465860434258297 -0.7019424132682018 96 82 55
-0.2111949293230861 -0.01717073571614558 -0.7032962541414393 70 57 32
-0.2110878203798171 -0.01601489748236795 -0.7047350416191295 64 52 31
-0.21091293769284 -0.014357310021721748 -0.7058578267005305 65 53 36
-0.210891604162229 -0.013837294010198953 -0.7076922715641178 66 53 35
-0.21080095508957306 -0.012804029786612436 -0.7092039770526151 83 72 50
-0.21068491113784618 -0.011583026275312769 -0.710595852372687 164 148 119
-0.21056614467955917 -0.010342185751667565 -0.7119733324704354 147 127 94
-0.21013791961035236 -0.006813194412819412 -0.7118926338330696 128 109 79
-0.20980175702838227 -0.003966599805017845 -0.7122367495999007 104 89 63
-0.20957892909407425 -0.0019589428213731552 -0.7131099015738209 93 81 59
-0.20923214451420233 0.0009636620130923923 -0.7133904567444632 102 90 69
-0.20877922109739536 0.004668722435675066 -0.7131583855379585 123 111 89
-0.20854679783371793 0.006743897825148948 -0.7139680044249337 112 100 79
-0.20845103957306022 0.007809538797274418 -0.7154267886239439 109 96 77
-0.20849698957930765 0.007829428710892039 -0.7175642357716663 95 83 64
-0.20846281395397612 0.008440779767279194 -0.7193188333901239 92 83 63
-0.2085687068555645 0.008019456838408157 -0.7217494563093517 106 98 78
-0.20856381352533432 0.008415492503873523 -0.7236484381967907 91 84 65
-0.20863186540386414 0.008274270302954745 -0.7259023687786158 103 95 77
-0.20862458965844088 0.008688497628777103 -0.7277932010307563 95 85 67
-0.20869357844942552 0.008541369229821516 -0.7300570017007811 105 95 75
-0.20877068254089626 0.00833509672723809 -0.7323636395483463 123 114 94
-0.20844363574450273 0.011103470447698438 -0.7326929265650531 122 113 96
-0.20855950419375668 0.010612320302221423 -0.7351915583211259 114 107 91
-0.19873541729565034 0.021841183041403922 -0.4334793017784485 170 170 168
-0.19809208080789986 0.027159612716387505 -0.4331344406539528 125 122 114
-0.19769031252305036 0.030592841968229395 -0.43352554916514074 106 99 87
-0.19732306826475746 0.033755537332657404 -0.43401583047979675 96 88 74
-0.19695675513156494 0.036909572702342436 -0.434501391533895 89 82 66
-0.19660396286159101 0.03995692172093948 -0.43502180381443345 105 98 80
-0.19639584394359386 0.041876731049814514 -0.43599107642607254 97 90 72
-0.1961898688050334 0.04377914609161185 -0.43696327823230274 89 82 64
-0.19594122530129995 0.046012817700550254 -0.4377961154470781 101 93 75
-0.1958662590360731 0.04689477638752465 -0.4391779635947003 92 83 67
-0.19578252119353498 0.0478448135377164 -0.4405310542661338 87 78 62
-0.19570322426633266 0.048760165510957035 -0.4418975216606706 97 88 66
-0.19561903932358585 0.04971335805226561 -0.4432474400335605 112 104 81
-0.19552917693294747 0.05071049162618094 -0.44457807740816796 98 89 70
-0.19526017568068918 0.05309875449655581 -0.4453256767498484 90 79 59
-0.1952020225738648 0.05384890027869087 -0.4467554789992392 87 77 57
-0.19513079603543215 0.0547004737097761 -0.4481422108259806 98 88 69
-0.1951275927648203 0.05502407164165758 -0.4497517961079071 98 88 69
-0.19512283012962814 0.05535995857153707 -0.4513572797424019 89 78 61
-0.19516164602003533 0.05535805151642871 -0.4531079675772744 84 74 58
-0.19505477975026383 0.056486056523277456 -0.4543768923560598 88 80 63
-0.19521783642098686 0.05552157040189579 -0.45654404241657065 67 57 41
-0.19517160792633592 0.056179758744439534 -0.45801615271983076 79 72 57
-0.19508717656860172 0.05713389560881148 -0.45936001272966737 94 87 70
-0.1952102412460979 0.056480909728394146 -0.4614020808257273 98 88 69
-0.19520097052918384 0.05685325680584126 -0.4630007663765519 86 75 51
-0.19572957341287495 0.053062606354639885 -0.4664256485599716 100 87 60
-0.19582406692985607 0.05263357974296287 -0.46838603795870115 91 78 52
-0.19597309910546715 0.05178329663024964 -0.47053625143697764 80 66 42
-0.19602581218114992 0.05167875746957004 -0.4723608504775993 81 66 44
-0.1956860268119528 0.05460910848228459 -0.4728368746805178 79 64 38
-0.1954767669355192 0.05652933451026637 -0.473756643200219 126 111 81
-0.19528109410235733 0.05834385053361249 -0.4747195603095777 182 164 131
-0.19509137170057686 0.060111735267291494 -0.47569955373329853 170 149 115
-0.19498535682087992 0.061232577508955444 -0.4769682604409631 149 128 94
-0.19496817218334048 0.06166739368373955 -0.4785466790401449 102 87 59
-0.19497541578682467 0.0619138138077758 -0.4802116810560361 71 56 35
-0.1947983709674901 0.06358233353279041 -0.48122797167159037 86 72 51
-0.19481245362731647 0.06377607324502077 -0.48291756066403324 84 70 45
-0.1948203496951171 0.06401779041825706 -0.4845866594818366 95 79 55
-0.19474890568098602 0.06487135712734837 -0.4859743345055878 71 55 34
-0.19480951438064317 0.06470716350929956 -0.48783363456063095 77 63 44
-0.1949748733672565 0.06373644467214323 -0.4900714370802949 84 73 50
-0.1950894529610239 0.06315777952137364 -0.49213159819299035 80 69 47
-0.19528312651010263 0.06197085113016709 -0.4944814655802796 68 55 36
-0.19540602736174534 0.06132977220086441 -0.4965806740445178 78 65 45
-0.1953954890644031 0.06171628696171283 -0.4981986841983305 84 70 51
-0.19548932973187258 0.06129999821607629 -0.5001985337128346 88 74 55
-0.19542995450802486 0.06206266241066946 -0.5016407789734774 77 63 43
-0.1954784785044364 0.061995710602392506 -0.5034791656650058 72 61 38
-0.19544733480898946 0.06254151947082312 -0.5050262065316874 68 56 33
-0.19553589718678452 0.06216760959039391 -0.5070164125362894 79 66 44
-0.19620805915123488 0.057311411654886874 -0.5111757937291548 86 72 51
-0.19605705947956573 0.05877970663309143 -0.5122878763000916 71 56 34
-0.1962014473355842 0.05797986244351799 -0.5145009194706285 70 55 29
-0.19644525669095717 0.05641786639339644 -0.5170913469635827 96 81 50
-0.19609319325728175 0.05942895256739725 -0.5174481675294429 103 89 58
-0.1961802117524274 0.059070852829768705 -0.5194540699107175 115 99 73
-0.19631112109298202 0.05837681991283086 -0.5216294374566741 95 78 55
-0.19647818157952898 0.05740648395994857 -0.5239465114036397 91 72 48
-0.19641711476837762 0.05818532210541161 -0.5253997248378955 164 146 115
-0.19640694472226333 0.05857418084535826 -0.5270471538093628 155 136 95
-0.19626581566374074 0.05996618155115099 -0.5281933003792412 160 139 100
-0.19608619848104497 0.06165243319555369 -0.5291890484895033 131 110 75
-0.1958745453959069 0.06358328492282322 -0.5300578645755741 167 150 115
-0.19579160117561617 0.06452853076643858 -0.5314209770487774 137 125 94
-0.1959562243836752 0.06357984809490846 -0.5337449031854018 128 116 93
-0.19597338397895722 0.0637598225850006 -0.535499438426002 77 63 47
-0.19599358827718089 0.06391681772974761 -0.5372674881723849 88 73 57
-0.19599452964070788 0.06422134320452677 -0.538961678073987 89 78 55
-0.19563564585271737 0.06727526362922484 -0.5392413631355117 111 100 72
-0.1957199188484514 0.06694292024623366 -0.5412623855972684 139 123 93
-0.1958677452331064 0.06612590976269975 -0.5435383356054615 137 119 89
-0.19592960732043613 0.06596599874098857 -0.5454777254232567 111 96 70
-0.19600860193541692 0.06567585302914863 -0.547488117603972 85 73 55
-0.1958992565377467 0.06682309454609617 -0.5487488894494367 87 74 59
-0.19609874260694532 0.06561476037811081 -0.5512463775309268 115 102 85
-0.19623578341247552 0.06488366086673888 -0.5534989052566415 110 96 75
-0.19639401278173207 0.06399192068971002 -0.5558415572289556 98 85 64
-0.19655270724878676 0.06309759074514323 -0.5581912654791589 96 84 61
-0.19665051975228245 0.06266796808642613 -0.5602990008446084 119 107 83
-0.19657539506833618 0.06355591734538812 -0.5617061493797324 128 114 93
-0.19664579115507408 0.06333595494710678 -0.5637070499893729 94 80 60
-0.1966769893812718 0.06341484727687613 -0.5655503192087701 92 80 61
-0.1966954811510091 0.06359077732169086 -0.5673433600402866 135 124 106
-0.19675666559981975 0.06344231378878046 -0.5693140874424357 106 97 79
-0.1966945924895481 0.06423151812235559 -0.5707778634920275 92 77 63
-0.19655875211335888 0.06558135735970677 -0.5719353040452051 97 84 69
-0.19663962443422237 0.0652840739658467 -0.5739921768921131 83 71 55
-0.19663540635738944 0.06563376156081152 -0.5756972092884282 92 79 58
-0.19654715477775622 0.06662179906526464 -0.5770515980405699 138 125 102
-0.19713758986550425 0.06245733049578356 -0.5812544681843527 122 109 93
-0.198313381175705 0.053853423326843064 -0.5879385881474968 88 75 60
-0.21165537681968782 -0.03956371401542111 -0.6866354860136107 114 103 85
-0.21126843854612365 -0.03628888276511674 -0.686840401190763 113 100 81
-0.21107686871762119 -0.03448728218562949 -0.6879194245266383 118 104 83
-0.21087620429970425 -0.03261785221654201 -0.6889536849588106 121 107 81
-0.2106555971844949 -0.03059899485451273 -0.6898935335582764 95 84 59
-0.2104417802442216 -0.028632032533957463 -0.6908600106097285 93 80 57
-0.21035689987188916 -0.02763584327855939 -0.6924115549722081 117 101 74
-0.21001438026496216 -0.024702159291749348 -0.6927816052666291 140 125 91
-0.2097899821687922 -0.02265793720642828 -0.6936870178441599 124 111 76
-0.2095661021437088 -0.02061842577636297 -0.6945903881828904 94 82 50
-0.2094981780745732 -0.019751519928245365 -0.6962100987487311 77 65 37
-0.2094191335316102 -0.018801155782212475 -0.6977778920917151 68 56 31
-0.20934012103473715 -0.01785115545395205 -0.6993451662958338 68 56 35
-0.20932553374469612 -0.017384880650982704 -0.701212027656954 67 54 33
-0.2088805764180492 -0.013688915866675533 -0.7010685505976066 64 52 32
-0.2088072573940968 -0.012782719155142064 -0.7026565780604562 63 52 36
-0.20882943120007097 -0.01259274066028121 -0.7046928550040065 58 47 34
-0.20892765315621933 -0.01297251898050883 -0.7070894790914921 54 44 31
-0.20883739583518995 -0.011939028182780254 -0.7085993689191232 70 62 47
-0.2087115011831881 -0.010638720483256925 -0.7099394189693233 105 93 71
-0.2083675643209081 -0.007705714724196733 -0.7102414919833976 123 105 78
-0.20796166625951157 -0.004310195088784274 -0.7102407333537573 110 92 68
-0.20761277506539733 -0.0013430604844459348 -0.7105031194993625 86 74 53
-0.20725544456502257 0.0016857918751217449 -0.7107173279556558 90 78 61
-0.20699064549836083 0.004021043582922934 -0.7113680889299336 95 83 63
-0.2064293718605417 0.008572167889405014 -0.7105851230334194 87 75 53
-0.20633079424324755 0.009662127970246959 -0.7120237713624761 100 88 64
-0.20617668323081492 0.01116684895197484 -0.7131922391316288 114 102 79
-0.2061134559013408 0.011992152088778796 -0.7147994181698318 116 105 85
-0.20605138833539882 0.012808742044628674 -0.7164119615610829 92 82 63
-0.20600607314876676 0.013500221768659504 -0.7181060510502923 76 67 50
-0.20593267773899157 0.014401298604111712 -0.7196628472247752 83 75 57
-0.20625097503339687 0.012380024976828885 -0.7231419802870853 100 90 74
-0.2063095822127785 0.012297357215455218 -0.7253525991418381 99 87 71
-0.2061800620136398 0.013617851887246901 -0.7266376390835283 112 101 83
-0.2061252751464181 0.014380964634997384 -0.7282904851021115 101 92 73
-0.20590573609380083 0.01637160742638899 -0.7291257791135229 101 92 75
-0.20564568120045262 0.018663214199201805 -0.7297550853222404 102 96 79
-0.20561576781976273 0.019240185220395 -0.7315269405023814 108 101 84
-0.20578493014989416 0.018335443537582596 -0.734295098836493 119 114 97
-0.20514053255005543 0.023485541403689636 -0.732989210979897 100 95 79
-0.20607844508825862 0.016862532455070578 -0.7396237279673615 105 99 82
-0.19770697064508483 0.016090644897681472 -0.4303880282922824 186 188 191
-0.1972766320181962 0.019788126426885405 -0.4307074793798252 185 186 187
-0.1968815777186203 0.023205418448312337 -0.4311273164001655 161 161 158
-0.196538444034526 0.026211468313745073 -0.4317006805904915 121 118 109
-0.19610770447275191 0.0299073583456069 -0.4319926814053328 106 98 85
-0.1957364032365019 0.03313278236919279 -0.43246220687023895 95 85 68
-0.195438911518362 0.03577481590599371 -0.4331567321715031 93 84 69
-0.1952208338294135 0.037789764938104736 -0.4340966700071926 101 92 76
-0.19497315796024833 0.04003720733858246 -0.4349383886719184 99 91 73
-0.19444966098654265 0.044456734434365056 -0.43489519167989515 78 69 51
-0.1942730891181325 0.04614179269221862 -0.435951579748547 99 90 70
-0.1941837982100191 0.04713904832838606 -0.43728541734643617 125 115 88
-0.1940592882897042 0.048413344989531065 -0.43850456574267416 126 115 85
-0.1939454414623329 0.04960338626145708 -0.4397563609777721 122 108 81
-0.19385491391950513 0.050609673763603494 -0.4410823380306964 101 89 61
-0.19375126339489598 0.05171897877720054 -0.4423644184390692 123 112 85
-0.19367027810293036 0.052649819911588916 -0.44371934946111974 109 98 76
-0.1934951192718461 0.05432076499488443 -0.4447638220406139 80 69 50
-0.19327694613304533 0.05632916269720638 -0.44566321753903304 71 60 42
-0.19326403103959322 0.0567242649875032 -0.4472382588667239 87 76 58
-0.19327160076573893 0.056958628615622536 -0.4488822105219249 96 86 68
-0.19331071695776442 0.05694553687927917 -0.4506327295461556 80 67 51
-0.19350468695306097 0.05571729883072969 -0.4529038871405809 80 67 51
-0.1933187384479376 0.0574714539101456 -0.45390405511014825 90 82 64
-0.19348471501525313 0.0564641152076098 -0.45608789050172027 73 66 50
-0.19343229288872107 0.057170586267277224 -0.45753756897127906 68 60 48
-0.1933902821376674 0.057795399143317744 -0.45902247470963586 93 85 71
-0.1935171552487139 0.057096452363884886 -0.4610833511701009 107 97 81
-0.19364436786861447 0.056395616196670134 -0.4631496376533234 73 61 41
-0.19411167614356523 0.053031260826087945 -0.4663881853060344 96 84 58
-0.1940623955869868 0.05371497548747062 -0.4678588704228411 94 80 54
-0.19393648901054547 0.05499862187887569 -0.469064453240333 78 65 41
-0.19388972014887643 0.05566248340146915 -0.47054279111201114 59 47 27
-0.19413375191845567 0.054050820583734116 -0.4730341226332201 72 59 37
-0.19371744811914032 0.05760612846345106 -0.4732242264002486 117 103 75
-0.1935443471331664 0.0592578017500735 -0.4742584071863496 202 186 151
-0.1934137647361435 0.060576485379317646 -0.4754391555072246 179 160 121
-0.19323882222012406 0.06224151586920945 -0.47646112079164177 166 147 109
-0.19333214282976083 0.0618098043001854 -0.4784309348980149 143 127 98
-0.19332830169375004 0.062137709207149644 -0.4800585577774199 60 44 24
-0.19309678650935339 0.06424379539782195 -0.4808744887496874 66 50 31
-0.1930935349721648 0.06456697030294944 -0.48250352432006155 113 98 73
-0.19318268580221146 0.06416915118284236 -0.4844657760361744 97 83 56
-0.1931834513003046 0.0644615798789108 -0.48611259107886573 98 85 61
-0.19315776687822536 0.06496054115276273 -0.4876648506167022 94 82 60
-0.19348782394182518 0.0626854805906217 -0.49050958247327736 87 76 55
-0.1937282123074571 0.06111116286312085 -0.49303690092094427 78 67 47
-0.1938246125879947 0.060660327908388684 -0.49504485365090856 66 53 36
-0.19404590591439164 0.05923705255135453 -0.4975145975760562 79 66 48
-0.19400013551650783 0.05989517544737896 -0.4990078424562343 77 64 46
-0.19408410456386546 0.059543043088036735 -0.5009803579079772 81 68 50
-0.1940191218727392 0.060351030514745246 -0.5024040753776328 66 53 34
-0.19385479028066285 0.061932102227817254 -0.5034578908434142 72 61 41
-0.1943266293565041 0.05856319765342621 -0.5068824905761578 63 52 33
-0.19403049570096773 0.06116977756881792 -0.5074449628647352 69 56 39
-0.19461367183122674 0.056938131973796574 -0.5113040947338006 81 68 51
-0.19442573019353437 0.05870344389722551 -0.5122728602120862 61 47 29
-0.1946259968881975 0.05745135508545446 -0.514706010641193 86 71 49
-0.19484580015466946 0.056048617026213915 -0.5172194750601797 106 92 65
-0.1943774277883847 0.0599917709946064 -0.517120256298798 109 95 67
-0.19445859265551593 0.059666310322142896 -0.5191090574503465 91 76 52
-0.19454197100619303 0.059324253939983945 -0.5211095628928994 64 46 26
-0.19461315977311014 0.05907737983895883 -0.5230664955998222 87 66 44
-0.1946360726705182 0.05920553866350564 -0.5248402348021581 159 140 108
-0.1946343176226672 0.05952531988495685 -0.5265203028009099 166 147 108
-0.19443885175019943 0.061347105441021316 -0.527449614343378 153 132 96
-0.19431920733401964 0.06258056192492129 -0.5286704641874304 110 89 59
-0.19411575905773049 0.06446301738033391 -0.5295620925401829 102 86 58
-0.19395588940108793 0.0660072028846157 -0.5306205893933391 141 128 102
-0.1942079774098797 0.06436082897549605 -0.5332960654762047 92 79 59
-0.19425862241032948 0.06427526407578207 -0.5351844845871023 73 56 40
-0.19429360554975683 0.06431135673409483 -0.5370134040503988 68 52 33
-0.19423631565997085 0.06506172060278159 -0.538478094387852 100 86 61
-0.19395192406573458 0.0675685458633169 -0.5390380951140602 137 124 96
-0.19403452488815226 0.0672366421545319 -0.5410583075497518 122 106 76
-0.19407843756676452 0.06720438996895794 -0.5429267573135554 145 129 98
-0.19426314873478528 0.06608453095098862 -0.5453636109266302 115 99 73
-0.19430685393668462 0.06605504730049774 -0.547237646497311 90 77 58
-0.19408138025097965 0.06810483769121059 -0.5480249219771727 97 84 68
-0.19409099386684522 0.06833878404156535 -0.5497618112054758 107 93 74
-0.19427065632655652 0.0672605011051649 -0.5521924813248711 107 93 70
-0.1944255363064114 0.06637448974460128 -0.5545277200888632 111 99 76
-0.19458088830620837 0.06548577338699132 -0.5568700497018332 113 100 78
-0.1947029354672331 0.06485482311246199 -0.5590806865009457 111 99 77
-0.19454449719913172 0.06638694468464806 -0.5601394133263307 97 85 61
-0.19470124877401562 0.06548945902521283 -0.5624986424198778 110 98 75
-0.19473953845113182 0.06550560541340364 -0.5643717378251336 93 81 60
-0.19440668984928564 0.06838070762541368 -0.5647028825061188 89 77 57
-0.19484650588684282 0.06530511534143385 -0.568251358950245 87 74 55
-0.19483705661583534 0.06569000285073434 -0.5699316141911271 71 54 39
-0.19478139169320446 0.06643070663476533 -0.5714187985231591 76 60 43
-0.19473947996002655 0.06706557376422798 -0.572963712333253 94 79 57
-0.19499357330562614 0.0654240385443162 -0.5757592875203167 126 109 83
-0.1952090745002762 0.06408061404859605 -0.578399083809 119 101 75
-0.19545190757091946 0.06252834958221637 -0.5811618183362692 104 88 68
-0.19614297783971021 0.05753340294615236 -0.5858429251151592 95 80 61
-0.19675814356676904 0.053124944661894796 -0.590218480650777 117 101 79
-0.2099795687947191 -0.04139764504877699 -0.6855052387827302 117 105 86
-0.20987956826617402 -0.040280115098962954 -0.6870027090767153 108 96 78
-0.20929331353883598 -0.03545296901259462 -0.6862810583519028 110 94 73
-0.20896635952188206 -0.03260604634324679 -0.6867316094800052 142 125 100
-0.20878790887105725 -0.03089270984945003 -0.6878562541938487 115 102 76
-0.20854530161142937 -0.02869094624194063 -0.6886824796336302 113 103 77
-0.20841148584533223 -0.027319063206029615 -0.6900056706728337 112 99 73
-0.20820009928627756 -0.025356664273951668 -0.6909678601349802 141 125 95
-0.20798916420404154 -0.023398455417256714 -0.6919280011330035 120 104 71
-0.20780763513160713 -0.021664858361096884 -0.6930208307492945 78 64 34
-0.20758005221279177 -0.019581385130064688 -0.693895401706768 73 62 35
-0.20731199091295502 -0.017190784247926305 -0.6945759825291107 70 58 33
-0.20737760086637824 -0.01733898207275203 -0.6968166266028722 67 55 33
-0.2073873187703137 -0.017061652557627982 -0.6987973962691143 69 56 38
-0.2070257681891604 -0.013962074718530781 -0.6990279069101334 66 54 36
-0.20694670022980086 -0.013010397816128949 -0.7005869728770612 63 51 35
-0.20684154064642327 -0.011860652130352145 -0.7020215468480573 55 44 33
-0.20692454467669857 -0.012140002597029353 -0.7043500909745167 52 42 32
-0.20705199762818416 -0.012756122484614052 -0.7068943231811335 51 42 31
-0.20692750243557897 -0.011459380821704723 -0.708237819344819 74 67 53
-0.2067993650637564 -0.010135350352720507 -0.7095619540544484 98 86 67
-0.20637451778068372 -0.006561421900244224 -0.7094565584609944 146 130 106
-0.20585164578982545 -0.0022460947583182733 -0.7088683897411383 105 91 68
-0.20542236975384362 0.001357585721958321 -0.7087205529064453 92 82 62
-0.20501531121769656 0.004791114701307109 -0.7086705015758658 100 88 70
-0.20473454687883164 0.007266332249947216 -0.7092253732062961 98 83 64
-0.20426572693699044 0.011164403668653178 -0.7088569154478516 102 89 71
-0.20410731520996087 0.012710806912005268 -0.7099955643390101 88 77 58
-0.2040284710323538 0.013654597557479664 -0.7115216079779488 93 81 64
-0.20396128086448456 0.014510100471740783 -0.713104254640799 106 95 77
-0.20387367797909675 0.015519898957641276 -0.7145858521951174 95 84 68
-0.20370910561994934 0.017111407956598046 -0.7156859535280456 77 68 53
-0.20352389891159406 0.018858316431098143 -0.7166807606541047 90 83 67
-0.2034215438077172 0.019978632147717085 -0.7180838660179509 95 88 73
-0.20340219022853745 0.020471825322288334 -0.7198993364006749 93 85 71
-0.20343693123552514 0.02055675343075597 -0.7219860341337683 107 98 82
-0.20355861283595092 0.019985897167354272 -0.724510727408409 115 107 88
-0.20325645251472363 0.022613914744983227 -0.7249104942207222 103 95 76
-0.2030614724653789 0.024432266257269214 -0.7258435230734108 92 83 65
-0.2031037916639666 0.024460576412726837 -0.72797139376304 103 94 77
-0.20309492901187845 0.024875157222060545 -0.7298425792243071 117 109 91
-0.20208538932576878 0.03283063612514897 -0.7266333059121318 114 108 89
-0.20289851156718344 0.027051066946086444 -0.7326786109763922 102 95 76
-0.20379076191603412 0.020679833848458784 -0.7391511567883013 112 103 85
-0.20328234448240157 0.025557034439395776 -0.7423321703702093 116 107 89
-0.2050234159557036 0.025377821573370984 -0.8224713262591781 119 107 83
-0.20496198872898255 0.026198130338998316 -0.8241285981139909 123 112 88
-0.20469350488521648 0.028556619180680698 -0.8246125677789955 128 116 90
-0.20450737424769394 0.030302433289596697 -0.8255582942849801 139 128 100
-0.20483011734418372 0.02826973384025444 -0.8293975233301749 148 137 109
-0.20462463763541947 0.030159092659737208 -0.8302325298828555 146 136 108
-0.20440706114372173 0.03213742978163986 -0.8309941067875075 145 134 106
-0.2042381265266176 0.03375419297521465 -0.8320300842930166 145 135 107
-0.20441049145938578 0.03284003638955779 -0.8350249804973908 148 137 109
-0.20419522474862728 0.034799877319212524 -0.835792277967758 150 139 111
-0.20431334605590346 0.034288906170141575 -0.8384810158265908 148 137 109
-0.20441915215751516 0.03387001497393627 -0.841103235117013 147 136 108
-0.20454162281215457 0.03332855373821342 -0.8438266478949814 146 135 109
-0.19549949578197234 0.020556400648663486 -0.42859361582019095 184 184 182
-0.19515737284757292 0.02358442892980836 -0.42916823477829763 158 156 150
-0.19476002406628412 0.027052402418425797 -0.4295620558934945 125 119 108
-0.19461896469704384 0.028471775153660034 -0.43075613228049925 118 110 94
-0.19414338410538257 0.0325619492969024 -0.430888144185069 100 90 73
-0.19375204841675053 0.035977726912365116 -0.43127760229665446 87 75 59
-0.19360223355327558 0.03746446837119208 -0.4324296847101351 85 76 59
-0.19335253177852116 0.03974772004499094 -0.4332591377644741 105 95 78
-0.19294002470775515 0.04332869097735109 -0.4335598837268562 115 104 86
-0.19269700995501254 0.045556486648927044 -0.4343989897497124 91 79 63
-0.19247553356801744 0.04761171686071532 -0.43530309362509856 109 95 76
-0.19240750858311292 0.04844319235563316 -0.4367021941799355 144 130 102
-0.19237310210238737 0.049006711746037115 -0.4382105633242731 162 147 113
-0.1922057491514861 0.0506292669497089 -0.43928338806467915 177 161 127
-0.192027934859037 0.05233459782746529 -0.44031881456948996 139 123 92
-0.19194051241784404 0.0533197333646772 -0.44164956305564246 128 113 86
-0.19185313276837224 0.05430434768593036 -0.44297944168062253 137 123 99
-0.19173492361657482 0.05553408222577835 -0.4442057217151767 84 73 54
-0.191623186540615 0.05671201809672219 -0.4454518445317598 75 64 46
-0.191512560868534 0.05788082734817056 -0.4467000776772396 83 72 54
-0.19136903890630277 0.059310880975928446 -0.44783603907710934 97 86 66
-0.1914666304345298 0.05882416537514536 -0.44978382106857207 86 74 56
-0.19128452090501832 0.06056049632706663 -0.45078716806110564 82 70 53
-0.1913466422477395 0.06035618940241719 -0.45261794783688086 90 82 65
-0.19154424508146786 0.05907646974656973 -0.4549139536550349 63 55 42
-0.19171802753826525 0.0579869400821329 -0.45713438442403526 51 42 32
-0.19171940094033618 0.05826676471680331 -0.4587673844807603 71 62 52
-0.19190937697992408 0.05705031414002426 -0.4610524897931818 110 101 89
-0.19185713692809683 0.05775626341089862 -0.4625045055577488 66 54 39
-0.19196592938362902 0.05718517274631488 -0.4645161474833059 86 74 53
-0.1921509013892619 0.05601082454409034 -0.46679740947569837 88 75 51
-0.19220238775959936 0.05589547562953576 -0.46861710135765067 75 62 40
-0.19203819422743748 0.057489502767573974 -0.4696814552690635 70 58 40
-0.19220102600765826 0.05649254982346716 -0.4718959462413185 77 64 45
-0.19206608419929233 0.057854612909630676 -0.4730620217515905 83 68 43
-0.19197657297942375 0.058856617058538646 -0.47438721341671114 155 138 104
-0.19180285145359757 0.06052492009712154 -0.4754112629531739 189 171 130
-0.1916204086352503 0.062261662032255596 -0.47640095023524054 201 183 146
-0.19162795709914499 0.06249494289167107 -0.4780690001083009 124 107 81
-0.19149715232788797 0.06382254761342873 -0.4792402097801265 61 43 26
-0.1915071172980203 0.06403689913284132 -0.48091797004783526 59 43 26
-0.1913962313357936 0.06520663861492929 -0.48215894763288725 95 80 56
-0.19155139309493732 0.06427400076092193 -0.4843663263612392 103 91 64
-0.19164427256002067 0.06383423081071038 -0.48635137375098314 97 86 62
-0.19192296399052924 0.06192778724665923 -0.48902066943606637 84 74 52
-0.19195536205881322 0.06196715377344142 -0.49079272596410867 79 69 49
-0.19210561399695256 0.06107674985846584 -0.4930015101803426 81 70 52
-0.19225794455501802 0.06017083168973006 -0.49522295011919154 67 54 37
-0.19231558456497413 0.06001270063269826 -0.49709773383462963 72 59 42
-0.19248799137680303 0.05895005247169319 -0.4994028400979021 70 58 42
-0.1925720136819852 0.05858514542710708 -0.5013829976525082 70 58 42
-0.1926347003223788 0.05838897465043996 -0.5032864185699727 69 56 40
-0.19280323522230583 0.057359353785177036 -0.5055910727216366 66 54 38
-0.19271713850642244 0.0583362953395149 -0.5069394190562395 57 45 29
-0.19270080795611647 0.05876371054187671 -0.5085511769933074 62 49 33
-0.19304027560475517 0.056390453215169334 -0.5115165992016367 73 60 44
-0.1928611852149793 0.05809981591482388 -0.5125134933862275 57 45 28
-0.19266107422578446 0.05997395950031334 -0.5134265866294578 78 65 45
-0.1927303770044111 0.05972843899991623 -0.5153704655337752 100 88 63
-0.19280480650001236 0.059443136482841774 -0.5173370588993838 99 86 59
-0.19276815283435456 0.060031565088277755 -0.5188773183662156 74 59 37
-0.19281009177922576 0.060002436845760815 -0.5207226748885019 58 40 23
-0.1928520757526678 0.0599733606742702 -0.5225704795088906 110 91 72
-0.1928542265729154 0.06025753137709472 -0.5242650520903517 160 144 113
-0.19282436097570635 0.0607933044540194 -0.5258354884767291 167 151 117
-0.19273733523277456 0.061777820066898415 -0.5271817631856931 153 135 103
-0.19265437852631442 0.06273022591237673 -0.5285430693339837 101 81 56
-0.19257752651278617 0.06363458059744892 -0.5299276127844019 75 59 38
-0.19244829989016501 0.06494954251181687 -0.5311035923673972 110 97 78
-0.19259765106069424 0.06408005466053185 -0.5333863835024703 90 74 58
-0.19248369827752979 0.06527519214704755 -0.5346227358386328 80 62 44
-0.19250231190015984 0.06543129847098594 -0.5363884718837142 77 60 37
-0.19259288318959808 0.06502404581117954 -0.5384450995845644 108 93 68
-0.19263561332508608 0.06499206676376179 -0.5403123803539528 103 87 62
-0.1923462810228163 0.06756010298036888 -0.5408388950381499 98 83 56
-0.19235139615517244 0.06782257865782354 -0.5425539230647223 164 149 120
-0.19266963309351914 0.06563541023098551 -0.5455448226797214 117 102 78
-0.19271801857138712 0.06556063723340197 -0.5474432652169142 86 71 54
-0.19273116858335862 0.0657618281527671 -0.5491998510313689 100 86 67
-0.19269395469891157 0.06635700188578791 -0.5507510588234972 105 90 68
-0.1926934715704779 0.0666651776826202 -0.5524539354880902 107 93 69
-0.1928195435075539 0.06598485102539042 -0.5546813054234505 94 82 59
-0.19265889728608046 0.06754466907583159 -0.555723947067092 86 73 55
-0.19285194486150278 0.06634234114750759 -0.558235248540748 103 90 71
-0.19254935072189336 0.06900992876153028 -0.558684203107301 115 104 80
-0.19273304131130956 0.06788169571899919 -0.5611623761096441 86 73 51
-0.19277553500944555 0.06785601295144852 -0.5630535975268887 91 77 57
-0.19271850463683995 0.06860690745887435 -0.5645279270469257 92 77 57
-0.19270464605183343 0.06902117491275364 -0.5661844325880421 75 60 39
-0.19276250337186338 0.06887664011846231 -0.5681457726966592 69 53 32
-0.19283057540465584 0.06865300470429758 -0.5701532827938846 87 70 46
-0.19322666982540254 0.0658747954718367 -0.5735625830712887 117 100 71
-0.19345646102124642 0.06439367120443684 -0.576272104562873 123 103 72
-0.19362078710624425 0.06342347068635973 -0.5787079927522338 125 103 74
-0.1937883936382439 0.062428728239015074 -0.5811635316070141 121 102 76
-0.1944402155300606 0.05766772350110866 -0.585714733696484 103 86 62
-0.19510858169719356 0.052781300626945804 -0.5903558219977071 111 95 71
-0.1959924121566198 0.04622287843260742 -0.5959512600483259 103 91 74
-0.20798945990867987 -0.04048004520941334 -0.6849004176413414 110 99 82
-0.2075379483969797 -0.03664167756575282 -0.6847748168529199 112 97 77
-0.20722098631760338 -0.033844742619849016 -0.6852601184334922 154 136 108
-0.2070442453875261 -0.03213209397305314 -0.686387934254872 150 134 102
-0.2068574950715707 -0.03034274177803231 -0.6874659880017414 115 102 76
-0.2065624432976977 -0.0277180355893325 -0.6880359857727526 117 107 79
-0.20637636741446477 -0.025935408104097224 -0.689108675364286 144 132 101
-0.2061803669303806 -0.024076848857422506 -0.6901313407365377 114 99 67
-0.20596840474436443 -0.022095871558675373 -0.6910752171890615 99 84 56
-0.20596064104699466 -0.021689928422426785 -0.6929769903757792 73 59 35
-0.2057872151660498 -0.02000698059697109 -0.694097220351284 69 55 32
-0.20563494262582302 -0.018487586923253585 -0.6953144790018216 69 57 36
-0.2054953931879634 -0.017066663615077027 -0.6965895518184343 69 56 38
-0.20565938099664327 -0.01798339716909958 -0.6993086944780486 67 54 37
-0.20509721024501926 -0.013309385867526002 -0.6985637436023158 60 48 31
-0.204948553339799 -0.011819898916628435 -0.6997866585517255 56 45 34
-0.20490820804884546 -0.011164095029568721 -0.7015274743267925 40 30 24
-0.20498209650002588 -0.011386741416437918 -0.7038190775825206 45 36 28
-0.2051391532898306 -0.012248184463960199 -0.7065159551298571 74 66 56
-0.2047952361129281 -0.009258294311057014 -0.7067910441465 82 75 62
-0.20480307561715982 -0.008972444390184298 -0.7087674581456833 104 92 75
-0.2041118883118671 -0.003317157645568336 -0.7073396543166744 133 118 100
-0.2034748607154465 0.001919200919823838 -0.7061593009783975 83 72 54
-0.20300731575780517 0.0058517900890674435 -0.7057935538170921 89 81 64
-0.20269841863668756 0.00856497201954648 -0.7061960146937274 106 94 77
-0.20240011622223214 0.011195645357707007 -0.7066437566464517 102 88 69
-0.20201476993971487 0.014492662129596184 -0.7066549039370542 117 105 88
-0.20177509676663075 0.01667127792440845 -0.7073785974580636 72 63 47
-0.20160795128249123 0.018293134386102222 -0.7084574445052904 80 70 56
-0.20154398829477618 0.01912388983971089 -0.7100470452427552 87 77 63
-0.2015701434415756 0.019264353971984283 -0.7120863441990806 76 67 50
-0.20151419610622842 0.020033838391154496 -0.7137166587757346 96 87 70
-0.20138198127381357 0.021387084617349117 -0.7149639507988752 92 85 68
-0.20121487253665188 0.023006949855002845 -0.716033405355489 93 87 72
-0.20114212665102502 0.02390442594056305 -0.717576069934763 94 86 73
-0.20113479235296008 0.024301592002564487 -0.7194492493095619 84 76 61
-0.20097040274990527 0.025899613491547235 -0.7205265845397391 104 95 78
-0.2008062808289211 0.027495043938187358 -0.7216022275533751 113 104 86
-0.2006735994063715 0.028849729696933224 -0.7228352365815692 115 104 87
-0.20068956769016882 0.02906872610476377 -0.7248265161493262 96 84 67
-0.20061020583170072 0.03001589530873297 -0.7263306539286601 84 73 57
-0.19999164127679497 0.03507841206328621 -0.7250608696916241 102 93 77
-0.20033027205446036 0.03283467763770476 -0.7287116381259089 99 91 75
-0.20019117901698946 0.03423675963853909 -0.7299030430321293 112 105 88
-0.20113362769836832 0.02773502474240158 -0.7386232552074212 109 101 82
-0.2004431262223117 0.0333407256492958 -0.7369505787516615 107 99 81
-0.19989474833421358 0.03786062377978247 -0.7360030327499895 108 100 82
-0.20029677732518536 0.03514032927853586 -0.7400209109603924 120 112 95
-0.20339138539516374 0.021477193658392457 -0.811700923803649 124 113 88
-0.20330884349738756 0.02245741909973853 -0.8132379060097845 123 111 85
-0.20335315261938847 0.022480896772855863 -0.8154914049289387 125 112 86
-0.20302068911301724 0.025345223271401707 -0.8156117711902438 134 119 93
-0.202891590975112 0.026675561402895287 -0.8168800223058104 133 119 91
-0.20281572130435319 0.027604516981876825 -0.818449394437147 130 118 91
-0.2028714190740665 0.02754250976519973 -0.8207695275484431 132 121 92
-0.20294004212577693 0.027383742286562485 -0.8231667352572829 137 125 97
-0.2026668895519665 0.029797827042133018 -0.8236058697687461 131 120 91
-0.2025330461751943 0.031162702989565805 -0.824840304343647 130 119 91
-0.20242307498877207 0.03234763053284018 -0.8262101558839504 135 124 96
-0.20242367370084238 0.03270094903225429 -0.8282176757102746 136 125 97
-0.20219682041332462 0.03476407523560132 -0.8289084980879876 140 129 101
-0.20188012953845957 0.03750132147870433 -0.8290724866908745 149 138 110
-0.20183241986332157 0.03821692747365163 -0.8307955514026919 153 142 114
-0.20137543924581142 0.04200555121500388 -0.8301294269513103 155 144 116
-0.20150106226147874 0.041419158825148406 -0.8328613995165653 151 140 112
-0.20163604957163142 0.04076340817340629 -0.8356533791873725 148 137 109
-0.20172798211290963 0.040431559098856595 -0.8381975148242757 144 133 106
-0.20205230155550183 0.03871725753814648 -0.8441281182995702 142 131 107
-0.2021784795097236 0.0381313691742316 -0.8468894903266411 148 138 109
-0.20249580162667877 0.03611459103855347 -0.8507908908903221 157 148 120
-0.2025742963748018 0.03588807653354764 -0.8532814297906073 138 131 107
-0.20257007316213685 0.036281430031773476 -0.8552822488375139 111 104 86
-0.2026623860700795 0.03595265037791806 -0.857861791643231 102 96 82
-0.19380430365949666 0.020697737570231495 -0.4267281793455326 178 177 174
-0.19336369691840122 0.024552146035957595 -0.4269830071180655 146 142 133
-0.19317320446167144 0.026381400229723934 -0.4280208763790125 127 120 103
-0.1927988789583915 0.02969686126779633 -0.42847025870123295 121 111 91
-0.1925429630559944 0.03205347027668576 -0.42928978335468077 115 105 84
-0.19236969379941565 0.03374109032379491 -0.4303691577661135 99 91 73
-0.19199586964661697 0.037048927884341276 -0.43079980447014465 102 94 81
-0.19167827643111385 0.03990103990621416 -0.43140405476649246 90 79 63
-0.19131518986600615 0.04311942528896334 -0.4318540133413511 95 84 67
-0.19098416956012412 0.04607750078846251 -0.43240053387806654 124 112 94
-0.19082333491843156 0.04766047788063807 -0.4334962716809154 106 93 73
-0.19067686644984708 0.049127013399448874 -0.43463630317855884 97 82 59
-0.19063422293306648 0.04975541731523539 -0.43611579849673915 111 96 69
-0.1904517351825539 0.05151184242797435 -0.4371330618154307 118 101 75
-0.19033268071433562 0.05275614853826162 -0.43835743482741507 128 111 82
-0.1901371403590777 0.05461674868990392 -0.4393252266046679 118 102 75
-0.1901000916596785 0.05519931773027845 -0.4408191948897869 102 86 61
-0.1899987692110361 0.05629980625989048 -0.4420976982329424 104 91 66
-0.18989754076132798 0.05739929611164453 -0.4433751423475775 90 79 60
-0.18977843029431796 0.05864254871561611 -0.4445907548344262 92 81 63
-0.18980751468197984 0.05869239166354276 -0.4463074237539595 90 79 61
-0.18966628496560928 0.060113358692814575 -0.44744590599703465 95 84 65
-0.18975645737685473 0.05967194910541232 -0.44937303642190307 98 85 66
-0.18949106207531505 0.06209140442453433 -0.4500836496513609 86 74 56
-0.18957448034141072 0.06170472955057356 -0.45198990223337066 80 71 54
-0.1898241535925375 0.059981966394944033 -0.4544739932324298 58 47 37
-0.19004412095841391 0.058499272334193025 -0.4568624796406648 56 45 38
-0.18990544635831164 0.05989958608469939 -0.4580091622840792 57 46 39
-0.19030684997439717 0.05696093877608932 -0.4610404287981716 66 55 45
-0.19006467531252835 0.05919283788693182 -0.461826356707508 69 58 45
-0.1900412904733768 0.059667257712206226 -0.46337726557364883 79 67 52
-0.19030674940024608 0.05782335760210669 -0.4659488249534252 87 74 57
-0.19039105926587074 0.057434441773489 -0.46788623086444125 68 55 37
-0.19028433598251274 0.058578598805491267 -0.4691474746753028 66 52 37
-0.1904949352667619 0.0571775900690083 -0.47153986233969025 69 55 37
-0.19027348284245654 0.05924178089687365 -0.4723911100446288 63 46 24
-0.19036919399189195 0.05876297967197358 -0.4743780535589821 117 100 68
-0.19031425914394265 0.05949197511749768 -0.4758251620052095 157 139 102
-0.18999973424752348 0.062300516338792314 -0.4763323280952415 189 172 140
-0.19000189474010826 0.06257159535672273 -0.4779831389992603 132 117 92
-0.1899160218002849 0.06354773754685719 -0.4793142666217014 60 45 28
-0.18987470298331954 0.064167078134362 -0.480807381655928 58 44 27
-0.18985873322711308 0.06458359614445033 -0.48239368281187356 71 60 37
-0.18993593042800083 0.06425492624505405 -0.48432394846386245 93 82 59
-0.19016973361045367 0.06267432996581637 -0.48683622499614554 89 79 59
-0.19036441206037538 0.061407805800998805 -0.48921053003378295 76 68 49
-0.1904362473260908 0.061124268787130814 -0.49113379520183575 77 66 48
-0.19055568827299738 0.06046084905965701 -0.4932378712714099 93 82 64
-0.19068953875031858 0.05968306109579108 -0.4954001889909899 71 58 42
-0.1907825935974676 0.05923189611732918 -0.49741373083859514 67 54 39
-0.1908779942262743 0.0587626302978512 -0.499439702888951 65 53 39
-0.19104334725878308 0.05773564635068215 -0.5017341321804744 58 46 33
-0.19162183706143046 0.053412901473001845 -0.5056032678005999 61 49 35
-0.19153753131811724 0.05438040229538607 -0.5069623645758564 64 52 37
-0.19151664404529012 0.05484196070976813 -0.508563030546483 63 51 35
-0.1911721866195332 0.05788345350009816 -0.5089228777093897 64 51 32
-0.19117269120977629 0.05817401316236054 -0.5106031030360405 68 56 36
-0.19117318818404233 0.05846484903692037 -0.5122845268271966 66 55 36
-0.1910645063861074 0.05962564116316155 -0.5135440667034079 83 72 51
-0.1910925833317976 0.05969701674868741 -0.5153337839456543 101 90 65
-0.191149013521296 0.05954299332142912 -0.5172360523047743 106 94 70
-0.1911444531348443 0.05987488915343925 -0.518902274851952 81 67 48
-0.1911927732050788 0.05978620028422463 -0.5207772588730433 62 45 30
-0.1912270843074833 0.0598093847867594 -0.5225995193884487 80 63 45
-0.19134731041476588 0.05914968925351263 -0.5247634900585898 133 119 93
-0.19131795559243453 0.05967997717573434 -0.5263386062001376 119 104 78
-0.19131740409949255 0.05998141588752773 -0.5280287884206125 101 87 62
-0.19130343658815868 0.06038966923488637 -0.5296666354858125 88 71 48
-0.1909001805789679 0.06389040820208997 -0.5297464537898213 74 57 39
-0.19080149439195504 0.0649708558405957 -0.5310406436554789 76 62 46
-0.1909482486922866 0.06410251793860719 -0.5333227284627173 77 62 44
-0.19090289035787827 0.06475980919085339 -0.5348330673103597 70 52 33
-0.19093192269875922 0.06482686146307218 -0.536645216913079 79 61 38
-0.19104435401344966 0.06423272856564566 -0.5387987357228186 71 55 31
-0.19086322987459936 0.06596718510689889 -0.5397580121445403 65 47 27
-0.19091719293853102 0.06583735528845017 -0.5416765844272585 87 72 49
-0.19104011642582208 0.06516145675510684 -0.5438811174625354 125 112 89
-0.19094029239281404 0.06625117144082274 -0.5451720527050838 91 75 56
-0.1909308882398188 0.06662445542163037 -0.5468354654795211 74 57 42
-0.19098653575868732 0.06648280656632785 -0.5487696793623748 100 84 64
-0.19093212155366598 0.06721289598862248 -0.5502486673991885 100 84 60
-0.19092215865036655 0.06759117322985414 -0.5519130034551504 108 92 68
-0.19105113765028225 0.06687037668550522 -0.5541600409119374 77 64 44
-0.19074979396087632 0.06955392548255787 -0.5546044132515477 86 72 56
-0.190968215180284 0.06812654769576659 -0.5572318825190219 93 80 59
-0.1908094332683378 0.06968205621520135 -0.5582722451052511 106 90 64
-0.19094356965613524 0.06892230864484156 -0.5605514261219067 82 65 39
-0.19104282744071222 0.06843894180202337 -0.5626870667392523 82 65 41
-0.1909822863993521 0.06921830332286344 -0.5641449568683337 70 53 31
-0.1910025373842079 0.06935971767033197 -0.5659481881651713 82 67 46
-0.1910276415470126 0.06946313956398759 -0.5677740387097426 105 90 68
-0.19117441020975254 0.06860686636726879 -0.5701255657432949 103 86 59
-0.19167845410996381 0.06493312670493476 -0.574024971595858 118 101 70
-0.19175798321495435 0.06460974582794363 -0.5761002399697366 115 95 63
-0.19183764486351948 0.06428591134524209 -0.5781794532057886 133 112 81
-0.19204916534025365 0.06292341704928217 -0.5808366425508107 104 87 56
-0.19273626489343942 0.05781492903574936 -0.5855794087303777 108 91 65
-0.19338989374374838 0.052973501306504606 -0.5901948878788075 112 98 72
-0.20598218949439467 -0.03940440158423056 -0.684201822766811 111 99 76
-0.2054577683660058 -0.0349561847868296 -0.6837109603525534 164 148 118
-0.20508871420365515 -0.0317259978935194 -0.6839341887064632 179 162 130
-0.2048980331146321 -0.029892720569930892 -0.6849856863609235 131 116 89
-0.20475568981406203 -0.028438125643274276 -0.686260897135835 132 118 94
-0.20451679132927106 -0.02622905197148645 -0.6870781699237091 165 154 128
-0.204371166975013 -0.024749881719231592 -0.6883317650057641 139 126 97
-0.20414253485501746 -0.02262256037471977 -0.6891890044860975 96 83 55
-0.2038552539149674 -0.020037951462243186 -0.6897624339563284 82 70 47
-0.2039501922254815 -0.020439140924298826 -0.6921534749615541 75 61 42
-0.20395806770156008 -0.02015997406168074 -0.694131885389355 75 59 39
-0.20214745554650887 -0.002308892344381752 -0.7066413575492145 107 94 79
-0.20130953069017765 0.004547742557906687 -0.7044283930862473 84 75 62
-0.20071112530192353 0.009538243143440983 -0.7033825309606582 73 65 53
-0.20046300038117537 0.011803377781554492 -0.7040646960731062 75 63 52
-0.19997936368618716 0.015897652165115073 -0.7035664144262074 76 65 53
-0.19970478417496004 0.018365846277849873 -0.7041022843629252 95 86 74
-0.19963915850727776 0.019210267892188937 -0.7056803630977593 81 72 62
-0.19938885452525043 0.021488362853493675 -0.7063290242726477 76 68 58
-0.1993441983506876 0.022169464098803604 -0.7080096013909679 83 75 61
-0.1994216527943612 0.021903190354054664 -0.7103080206689784 104 97 77
-0.19922442049664246 0.023768068965867556 -0.7112168420280931 102 94 74
-0.19916392129628946 0.02457204589952891 -0.7128170315567154 103 94 75
-0.1990683372195042 0.025647937879838933 -0.7142380778478621 113 103 86
-0.198928029623066 0.027070180056465443 -0.7154292487098256 122 113 97
-0.19881238453393094 0.028300945470306565 -0.7167444249658275 70 60 45
-0.19864403374944092 0.029939562046869067 -0.7177869033495549 85 76 61
-0.1984977849836854 0.03140650707655873 -0.7189400905240062 95 86 71
-0.19838033764138135 0.03265009203280969 -0.7202395224611418 93 84 71
-0.19833325043693914 0.03334899208863237 -0.7219017493053596 87 76 63
-0.19823269257766643 0.034461479953930396 -0.7232862788397946 92 82 69
-0.19815723198069546 0.03537967871582198 -0.7248002075243043 92 84 72
-0.1979759222180422 0.03711593083677758 -0.7257605697970599 87 79 67
-0.19813258574624096 0.036239986235881705 -0.728487449209752 90 84 69
-0.1981251428882731 0.03663272934821041 -0.7303583379839158 110 104 86
-0.19779156396852532 0.03954419825656638 -0.7305132946180631 107 100 82
-0.19727691698763433 0.04385210745267221 -0.7297045525278619 90 83 66
-0.19729262867282263 0.044398982218474214 -0.7335941553913116 110 104 87
-0.19898175702855037 0.03170603542244391 -0.744487152067829 112 106 90
-0.20298797671298852 0.008185145239274827 -0.807832024236176 123 110 86
-0.20255100767472636 0.011885798795702618 -0.8073900777183054 126 114 90
