ply
format ascii 1.0
element vertex 831
property float x
property float y
property float z
property float nx
property float ny
property float nz
property uchar diffuse_red
property uchar diffuse_green
property uchar diffuse_blue
property uchar class
property uchar detection
end_header
-0.0292 -0.0724 -0.2202 -0.731 -0.375 0.570 52 39 26 0 0
-0.0547 -0.0789 -0.6908 -0.492 -0.764 -0.417 76 72 68 0 0
-0.0536 -0.0760 -0.7223 -0.715 -0.641 -0.280 36 32 29 0 0
-0.0538 -0.0762 -0.7243 -0.556 -0.766 -0.322 29 25 22 0 0
-0.0971 -0.1238 -0.7841 -0.448 -0.748 0.490 71 60 38 0 0
-0.0981 -0.1248 -0.7895 -0.323 -0.765 0.557 50 37 14 0 0
-0.0988 -0.1255 -0.7908 -0.415 -0.771 0.483 49 36 15 0 0
-0.1153 -0.1431 -0.8244 -0.449 -0.888 0.096 106 91 61 0 0
-0.0033 -0.0435 -0.1465 -0.419 -0.800 0.430 179 178 179 0 0
-0.0038 -0.0439 -0.1494 -0.713 -0.665 0.224 159 152 126 0 0
-0.0283 -0.0703 -0.1951 -0.700 -0.567 0.433 45 33 21 0 0
-0.0284 -0.0703 -0.1966 -0.534 -0.611 0.585 44 32 20 0 0
-0.0393 -0.0772 -0.3129 -0.942 0.334 0.037 12 9 8 0 0
-0.0183 -0.0498 -0.3695 -0.558 -0.560 0.613 183 183 187 0 0
-0.0187 -0.0502 -0.3710 -0.781 -0.346 0.519 183 183 187 0 0
-0.0194 -0.0505 -0.3794 -0.955 -0.050 -0.291 180 180 183 0 0
-0.0189 -0.0499 -0.3814 -0.980 0.198 0.015 183 183 187 0 0
-0.0191 -0.0500 -0.3831 -0.962 0.234 0.141 182 182 186 0 0
-0.0655 -0.0899 -0.6700 -0.080 -0.909 -0.410 5 5 5 0 0
-0.0676 -0.0923 -0.6719 0.084 -0.825 -0.559 7 7 6 0 0
-0.0556 -0.0757 -0.7215 -0.612 -0.749 -0.255 34 30 27 0 0
-0.1059 -0.1351 -0.7122 -0.581 -0.719 0.380 117 104 78 0 0
-0.1061 -0.1352 -0.7140 -0.391 -0.707 0.589 121 105 75 0 0
-0.1067 -0.1358 -0.7154 -0.223 -0.739 0.636 113 94 65 0 0
-0.0985 -0.1228 -0.7840 -0.674 -0.608 0.420 53 43 21 0 0
-0.1003 -0.1246 -0.7905 -0.447 -0.733 0.513 104 90 63 0 0
-0.1015 -0.1259 -0.7934 -0.483 -0.645 0.592 102 87 59 0 0
-0.1163 -0.1417 -0.8225 -0.372 -0.902 0.218 91 76 43 0 0
-0.0061 -0.0445 -0.1461 -0.211 -0.977 0.013 178 178 180 0 0
-0.0322 -0.0720 -0.2062 -0.586 -0.756 0.292 55 39 21 0 0
-0.0324 -0.0720 -0.2122 -0.316 -0.932 0.178 61 48 27 0 0
-0.0327 -0.0721 -0.2136 -0.316 -0.932 0.178 74 61 44 0 0
-0.0326 -0.0711 -0.2336 -0.570 -0.683 0.456 63 47 32 0 0
-0.0372 -0.0727 -0.3062 -0.911 0.333 0.245 14 11 10 0 0
-0.0378 -0.0734 -0.3076 -0.911 0.333 0.245 20 16 15 0 0
-0.0384 -0.0740 -0.3089 -0.919 0.319 0.232 14 12 10 0 0
-0.0185 -0.0478 -0.3648 -0.771 -0.630 0.092 153 153 154 0 0
-0.0192 -0.0485 -0.3661 0.058 -0.970 0.237 141 141 141 0 0
-0.0196 -0.0489 -0.3677 0.058 -0.970 0.237 119 118 118 0 0
-0.0200 -0.0492 -0.3709 -0.475 -0.778 0.412 132 132 132 0 0
-0.0208 -0.0500 -0.3722 -0.829 -0.553 -0.080 134 134 133 0 0
-0.0209 -0.0501 -0.3739 -0.978 -0.096 -0.185 128 128 126 0 0
-0.0204 -0.0494 -0.3760 -0.936 -0.153 -0.316 126 126 124 0 0
-0.0199 -0.0487 -0.3780 -0.948 -0.082 -0.309 117 117 115 0 0
-0.0193 -0.0479 -0.3801 -0.952 -0.124 -0.281 108 107 105 0 0
-0.0183 -0.0466 -0.3824 -0.994 -0.050 -0.097 136 135 136 0 0
-0.0184 -0.0467 -0.3841 -0.971 0.164 0.175 147 146 149 0 0
-0.0600 -0.0829 -0.6293 0.617 -0.772 0.155 103 99 98 0 0
-0.1074 -0.1342 -0.7119 -0.292 -0.866 0.405 120 106 77 0 0
-0.1079 -0.1348 -0.7133 -0.257 -0.816 0.518 123 104 71 0 0
-0.0980 -0.1199 -0.7774 -0.343 -0.877 0.336 87 76 54 0 0
-0.1013 -0.1233 -0.7886 -0.298 -0.729 0.617 133 117 87 0 0
-0.1156 -0.1388 -0.8117 -0.511 -0.758 0.404 76 62 33 0 0
-0.1164 -0.1396 -0.8130 -0.462 -0.810 0.361 94 77 48 0 0
-0.1176 -0.1407 -0.8202 -0.372 -0.902 0.218 90 75 44 0 0
-0.1187 -0.1417 -0.8255 -0.632 -0.692 -0.349 118 102 68 0 0
-0.1256 -0.1488 -0.8451 -0.423 -0.857 0.294 135 119 84 0 0
-0.1260 -0.1492 -0.8468 -0.423 -0.857 0.294 123 108 73 0 0
-0.1264 -0.1495 -0.8485 -0.389 -0.805 0.449 153 139 97 0 0
-0.1269 -0.1501 -0.8499 -0.389 -0.805 0.449 143 128 93 0 0
-0.1286 -0.1515 -0.8612 -0.206 -0.925 0.319 54 53 42 0 0
-0.0339 -0.0700 -0.2381 -0.778 -0.519 0.353 51 41 30 0 0
-0.0340 -0.0699 -0.2412 -0.932 -0.261 0.251 62 53 40 0 0
-0.0162 -0.0433 -0.3493 -0.468 -0.867 -0.170 71 71 66 0 0
-0.0160 -0.0431 -0.3511 -0.544 -0.839 0.028 74 73 71 0 0
-0.0165 -0.0435 -0.3543 -0.723 -0.618 0.308 96 96 94 0 0
-0.0695 -0.0891 -0.6726 -0.063 -0.823 -0.564 6 6 6 0 0
-0.0603 -0.0762 -0.7147 -0.690 -0.723 -0.034 30 26 24 0 0
-0.1078 -0.1324 -0.7086 -0.465 -0.793 0.393 78 70 55 0 0
-0.1083 -0.1329 -0.7101 -0.465 -0.793 0.393 93 82 61 0 0
-0.1098 -0.1345 -0.7126 -0.441 -0.867 0.232 130 110 76 0 0
-0.0993 -0.1190 -0.7730 0.002 -0.964 0.265 92 80 55 0 0
-0.0991 -0.1186 -0.7755 -0.548 -0.811 0.203 91 80 58 0 0
-0.0998 -0.1193 -0.7768 -0.536 -0.811 0.233 94 82 61 0 0
-0.1003 -0.1199 -0.7783 -0.461 -0.863 0.207 110 98 72 0 0
-0.1187 -0.1396 -0.8160 -0.428 -0.823 0.373 122 105 70 0 0
-0.1204 -0.1412 -0.8226 -0.178 -0.981 0.076 86 70 41 0 0
-0.1285 -0.1494 -0.8472 -0.528 -0.841 0.117 160 143 101 0 0
-0.1287 -0.1496 -0.8492 -0.528 -0.841 0.117 146 131 96 0 0
-0.1287 -0.1495 -0.8514 -0.604 -0.797 0.005 123 108 80 0 0
-0.1289 -0.1497 -0.8534 -0.510 -0.858 0.059 105 92 64 0 0
-0.1290 -0.1496 -0.8556 -0.437 -0.870 0.227 87 76 53 0 0
-0.1293 -0.1499 -0.8574 -0.324 -0.886 0.332 82 73 55 0 0
-0.1303 -0.1509 -0.8605 -0.157 -0.964 0.213 51 49 40 0 0
-0.0116 -0.0459 -0.1527 -0.357 -0.780 0.513 159 141 105 0 0
-0.0201 -0.0557 -0.1579 -0.331 -0.607 0.722 245 231 195 0 0
-0.0225 -0.0579 -0.1692 -0.432 -0.756 0.493 181 166 134 0 0
-0.0322 -0.0665 -0.2221 -0.758 -0.403 0.512 67 54 39 0 0
-0.0354 -0.0696 -0.2348 -0.589 -0.789 -0.175 64 50 32 0 0
-0.0249 -0.0488 -0.3923 -0.655 0.338 0.676 181 182 182 0 0
-0.0592 -0.0723 -0.7110 -0.579 -0.616 0.535 29 28 27 0 0
-0.1108 -0.1332 -0.7107 -0.503 -0.745 0.438 106 92 65 0 0
-0.1114 -0.1338 -0.7121 -0.527 -0.813 0.249 120 101 67 0 0
-0.1151 -0.1378 -0.7201 -0.545 -0.644 0.537 126 107 66 0 0
-0.1155 -0.1382 -0.7217 -0.490 -0.731 0.475 113 95 61 0 0
-0.1368 -0.1554 -0.8710 -0.091 -0.816 0.570 180 178 179 0 0
-0.0113 -0.0433 -0.1500 -0.231 -0.879 0.417 202 190 165 0 0
-0.0118 -0.0438 -0.1513 -0.231 -0.879 0.417 208 194 154 0 0
-0.0327 -0.0649 -0.2207 -0.731 -0.343 0.590 64 54 43 0 0
-0.0338 -0.0660 -0.2234 -0.440 -0.562 0.701 59 47 30 0 0
-0.0332 -0.0650 -0.2283 -0.712 -0.613 0.342 68 55 35 0 0
-0.0362 -0.0682 -0.2349 -0.511 -0.859 0.042 69 54 35 0 0
-0.0360 -0.0677 -0.2396 -0.670 -0.742 -0.027 68 55 37 0 0
-0.0204 -0.0435 -0.3465 -0.603 -0.772 0.203 15 11 11 0 0
-0.0211 -0.0442 -0.3479 -0.266 -0.902 0.340 16 14 14 0 0
-0.0219 -0.0450 -0.3492 -0.035 -0.979 0.202 40 39 37 0 0
-0.0222 -0.0453 -0.3508 0.062 -0.982 0.176 43 42 40 0 0
-0.0285 -0.0521 -0.3646 0.465 -0.885 0.032 52 45 35 0 0
-0.0287 -0.0522 -0.3662 0.436 -0.900 -0.006 54 47 36 0 0
-0.0287 -0.0520 -0.3697 0.407 -0.914 -0.013 60 52 42 0 0
-0.0287 -0.0520 -0.3714 0.438 -0.899 -0.009 62 55 44 0 0
-0.0291 -0.0523 -0.3729 0.419 -0.908 -0.011 61 54 42 0 0
-0.0279 -0.0506 -0.3789 0.410 -0.893 -0.186 72 63 54 0 0
-0.0590 -0.0741 -0.6237 0.679 -0.481 0.555 116 111 105 0 0
-0.0737 -0.0887 -0.6749 0.008 -0.830 -0.557 6 6 6 0 0
-0.0732 -0.0880 -0.6776 0.010 -0.794 -0.608 6 6 6 0 0
-0.0655 -0.0782 -0.6902 0.010 -0.794 -0.608 7 7 7 0 0
-0.1126 -0.1328 -0.7100 -0.357 -0.820 0.447 114 99 71 0 0
-0.1186 -0.1392 -0.7236 -0.209 -0.971 0.119 111 92 58 0 0
-0.1188 -0.1392 -0.7276 -0.245 -0.958 0.151 128 110 72 0 0
-0.1140 -0.1325 -0.7444 -0.284 -0.902 -0.326 132 113 73 0 0
-0.1204 -0.1364 -0.8127 -0.363 -0.828 0.426 87 71 41 0 0
-0.1226 -0.1387 -0.8186 -0.480 -0.796 0.368 89 76 46 0 0
-0.1317 -0.1478 -0.8508 -0.517 -0.849 0.110 125 114 82 0 0
-0.1320 -0.1481 -0.8526 -0.653 -0.729 0.205 105 95 59 0 0
-0.1308 -0.1455 -0.8730 -0.261 -0.956 -0.133 138 134 132 0 0
-0.1380 -0.1542 -0.8689 -0.296 -0.937 0.183 176 172 173 0 0
-0.1384 -0.1546 -0.8706 -0.468 -0.804 0.366 181 177 178 0 0
-0.0254 -0.0567 -0.1689 -0.599 -0.627 0.498 170 150 117 0 0
-0.0367 -0.0683 -0.2000 -0.524 -0.838 0.155 96 83 53 0 0
-0.0369 -0.0685 -0.2014 -0.524 -0.838 0.155 96 82 51 0 0
-0.0371 -0.0686 -0.2029 -0.524 -0.838 0.155 101 88 57 0 0
-0.0372 -0.0687 -0.2043 -0.433 -0.879 0.200 100 86 57 0 0
-0.0369 -0.0666 -0.2365 -0.613 -0.692 0.381 78 66 43 0 0
-0.0371 -0.0667 -0.2380 -0.670 -0.742 -0.027 74 61 41 0 0
-0.0229 -0.0445 -0.3355 -0.853 -0.277 0.442 15 13 14 0 0
-0.0227 -0.0441 -0.3373 -0.643 -0.765 0.031 11 10 9 0 0
-0.0218 -0.0426 -0.3464 -0.290 -0.859 0.422 18 14 13 0 0
-0.0235 -0.0446 -0.3472 -0.064 -0.965 0.254 27 24 22 0 0
-0.0240 -0.0450 -0.3487 0.062 -0.982 0.176 29 28 26 0 0
-0.0323 -0.0541 -0.3631 0.342 -0.910 0.232 44 39 31 0 0
-0.0326 -0.0544 -0.3646 0.355 -0.933 0.051 43 37 28 0 0
-0.0329 -0.0546 -0.3662 0.361 -0.925 0.119 50 43 33 0 0
-0.0331 -0.0548 -0.3678 0.301 -0.952 0.053 60 51 41 0 0
-0.0334 -0.0551 -0.3694 0.351 -0.936 0.015 54 45 35 0 0
-0.0334 -0.0550 -0.3711 0.245 -0.945 -0.217 44 34 27 0 0
-0.0338 -0.0553 -0.3726 0.151 -0.919 -0.363 49 39 32 0 0
-0.0330 -0.0544 -0.3748 0.151 -0.919 -0.363 63 55 47 0 0
-0.0323 -0.0533 -0.3770 0.177 -0.942 -0.284 70 62 53 0 0
-0.0319 -0.0528 -0.3790 0.169 -0.948 -0.269 65 59 49 0 0
-0.0315 -0.0522 -0.3810 0.126 -0.935 -0.331 67 61 50 0 0
-0.0301 -0.0504 -0.3835 0.225 -0.921 -0.318 79 74 63 0 0
-0.0295 -0.0495 -0.3856 0.225 -0.921 -0.318 78 74 64 0 0
-0.0260 -0.0449 -0.3948 -0.123 -0.938 -0.323 117 117 114 0 0
-0.1005 -0.1158 -0.7113 0.019 -0.415 0.910 54 48 41 0 0
-0.1207 -0.1391 -0.7226 -0.340 -0.894 0.293 112 94 59 0 0
-0.1211 -0.1395 -0.7242 -0.272 -0.893 0.358 123 105 66 0 0
-0.1162 -0.1327 -0.7431 -0.394 -0.827 -0.400 123 104 66 0 0
-0.1053 -0.1178 -0.7790 -0.310 -0.728 0.611 106 91 60 0 0
-0.1060 -0.1185 -0.7803 -0.310 -0.728 0.611 110 95 64 0 0
-0.1120 -0.1249 -0.7946 -0.516 -0.630 0.581 51 39 20 0 0
-0.1149 -0.1280 -0.7996 -0.378 -0.642 0.667 51 38 18 0 0
-0.1327 -0.1472 -0.8352 -0.482 -0.875 -0.054 128 114 73 0 0
-0.1327 -0.1463 -0.8511 -0.895 -0.419 0.151 112 100 73 0 0
-0.1362 -0.1498 -0.8621 -0.208 -0.978 0.028 72 67 53 0 0
-0.1411 -0.1550 -0.8730 -0.397 -0.694 0.600 184 183 183 0 0
-0.0136 -0.0414 -0.1484 -0.532 -0.579 0.617 188 179 165 0 0
-0.0143 -0.0422 -0.1497 -0.532 -0.579 0.617 168 152 130 0 0
-0.0331 -0.0624 -0.1893 -0.882 -0.356 0.309 100 85 61 0 0
-0.0221 -0.0410 -0.3365 -0.795 -0.573 -0.199 9 7 8 0 0
-0.0222 -0.0409 -0.3399 -0.626 -0.774 0.097 8 6 7 0 0
-0.0250 -0.0439 -0.3453 0.171 -0.772 0.612 24 19 18 0 0
-0.0255 -0.0445 -0.3467 0.173 -0.862 0.476 35 32 28 0 0
-0.0358 -0.0556 -0.3652 0.356 -0.932 0.073 53 46 39 0 0
-0.0356 -0.0553 -0.3670 0.366 -0.930 -0.004 67 60 52 0 0
-0.0357 -0.0554 -0.3687 0.366 -0.930 -0.004 59 52 45 0 0
-0.0358 -0.0554 -0.3704 0.290 -0.947 -0.138 48 42 34 0 0
-0.0362 -0.0558 -0.3719 0.161 -0.918 -0.363 44 37 30 0 0
-0.0358 -0.0552 -0.3739 0.151 -0.919 -0.363 54 46 38 0 0
-0.0353 -0.0545 -0.3759 0.139 -0.931 -0.336 60 53 45 0 0
-0.0350 -0.0540 -0.3778 0.067 -0.973 -0.222 50 45 37 0 0
-0.0344 -0.0532 -0.3799 -0.002 -0.951 -0.309 52 46 37 0 0
-0.0334 -0.0519 -0.3822 0.023 -0.910 -0.414 66 60 50 0 0
-0.0327 -0.0509 -0.3844 0.023 -0.910 -0.414 71 67 58 0 0
-0.0323 -0.0503 -0.3864 0.104 -0.917 -0.385 69 66 57 0 0
-0.0279 -0.0446 -0.3944 -0.127 -0.940 -0.316 105 102 96 0 0
-0.0276 -0.0441 -0.3963 -0.124 -0.883 -0.452 120 116 113 0 0
-0.0886 -0.1033 -0.6349 0.340 -0.826 0.449 26 22 19 0 0
-0.0893 -0.1033 -0.6504 -0.319 -0.869 -0.379 15 14 12 0 0
-0.0864 -0.0992 -0.6618 0.015 -0.970 -0.242 10 10 10 0 0
-0.1130 -0.1283 -0.7083 -0.346 -0.511 0.786 78 69 56 0 0
-0.1139 -0.1292 -0.7093 -0.346 -0.511 0.786 85 75 58 0 0
-0.1163 -0.1319 -0.7126 -0.475 -0.684 0.554 150 128 87 0 0
-0.1213 -0.1374 -0.7212 -0.202 -0.894 0.401 99 82 48 0 0
-0.1219 -0.1380 -0.7225 -0.321 -0.941 0.108 134 115 78 0 0
-0.1257 -0.1370 -0.8201 -0.329 -0.885 0.330 81 67 38 0 0
-0.1344 -0.1456 -0.8528 -0.751 -0.304 0.586 123 108 74 0 0
-0.1359 -0.1472 -0.8552 -0.407 -0.812 0.419 135 119 81 0 0
-0.1376 -0.1492 -0.8550 -0.382 -0.920 -0.085 128 113 80 0 0
-0.1380 -0.1494 -0.8612 -0.208 -0.978 0.028 66 60 44 0 0
-0.1425 -0.1540 -0.8728 -0.397 -0.694 0.600 184 182 183 0 0
-0.0147 -0.0404 -0.1483 -0.744 -0.436 0.506 195 188 176 0 0
-0.0161 -0.0420 -0.1509 -0.577 -0.571 0.584 212 199 169 0 0
-0.0338 -0.0609 -0.1894 -0.882 -0.356 0.309 98 88 62 0 0
-0.0205 -0.0379 -0.3140 -0.344 -0.926 -0.152 13 11 12 0 0
-0.0207 -0.0379 -0.3190 -0.458 -0.868 0.191 10 9 9 0 0
-0.0210 -0.0379 -0.3223 -0.445 -0.870 0.213 8 6 7 0 0
-0.0232 -0.0405 -0.3229 -0.291 -0.670 0.683 6 4 5 0 0
-0.0245 -0.0421 -0.3239 -0.271 -0.626 0.731 6 4 5 0 0
-0.0250 -0.0418 -0.3390 0.238 -0.965 0.114 6 5 7 0 0
-0.0255 -0.0423 -0.3405 0.295 -0.949 0.108 6 5 6 0 0
-0.0258 -0.0425 -0.3420 0.295 -0.949 0.108 6 5 7 0 0
-0.0261 -0.0429 -0.3436 0.338 -0.902 0.269 12 9 11 0 0
-0.0272 -0.0441 -0.3447 0.309 -0.905 0.292 26 22 21 0 0
-0.0279 -0.0448 -0.3461 0.295 -0.917 0.268 41 38 33 0 0
-0.0284 -0.0454 -0.3475 0.295 -0.917 0.268 38 37 35 0 0
-0.0350 -0.0528 -0.3559 0.126 -0.809 0.574 67 63 61 0 0
-0.0378 -0.0549 -0.3751 -0.038 -0.895 -0.445 60 56 47 0 0
-0.0371 -0.0541 -0.3772 -0.118 -0.906 -0.406 51 46 40 0 0
-0.0361 -0.0527 -0.3796 -0.191 -0.908 -0.373 46 40 34 0 0
-0.0357 -0.0522 -0.3815 -0.176 -0.858 -0.482 51 45 39 0 0
-0.0344 -0.0504 -0.3841 -0.080 -0.897 -0.435 58 52 45 0 0
-0.0337 -0.0495 -0.3862 -0.045 -0.918 -0.394 69 64 57 0 0
-0.0335 -0.0491 -0.3881 -0.080 -0.933 -0.352 78 73 64 0 0
-0.0299 -0.0444 -0.3956 -0.059 -0.867 -0.495 100 95 89 0 0
-0.0288 -0.0430 -0.3980 -0.121 -0.842 -0.525 114 111 108 0 0
-0.0635 -0.0717 -0.6189 0.695 -0.422 0.582 104 97 93 0 0
-0.0883 -0.0989 -0.6610 -0.117 -0.917 -0.382 13 11 10 0 0
-0.0874 -0.0977 -0.6641 -0.117 -0.917 -0.381 10 9 9 0 0
-0.0656 -0.0696 -0.7008 -0.197 -0.967 0.163 7 5 6 0 0
-0.1230 -0.1369 -0.7206 -0.138 -0.876 0.463 117 97 62 0 0
-0.1177 -0.1289 -0.7487 -0.242 -0.871 -0.428 95 82 49 0 0
-0.1114 -0.1193 -0.7855 -0.555 -0.624 0.550 46 32 13 0 0
-0.1355 -0.1452 -0.8349 -0.205 -0.964 0.172 136 123 84 0 0
-0.1374 -0.1464 -0.8549 -0.503 -0.725 0.471 139 124 89 0 0
-0.1391 -0.1483 -0.8546 -0.750 -0.659 0.047 134 118 84 0 0
-0.1439 -0.1531 -0.8726 -0.397 -0.694 0.600 184 182 182 0 0
-0.0369 -0.0596 -0.2361 -0.865 -0.489 0.116 74 59 37 0 0
-0.0365 -0.0585 -0.2457 -0.903 -0.416 0.103 80 65 44 0 0
-0.0350 -0.0563 -0.2526 -0.851 -0.494 -0.176 56 44 30 0 0
-0.0285 -0.0478 -0.2632 -0.917 -0.092 -0.389 15 11 9 0 0
-0.0218 -0.0365 -0.3224 -0.859 -0.028 0.511 8 6 7 0 0
-0.0239 -0.0387 -0.3265 -0.894 -0.380 -0.238 5 3 4 0 0
-0.0259 -0.0410 -0.3272 -0.365 -0.520 0.772 5 3 4 0 0
-0.0269 -0.0421 -0.3284 -0.365 -0.520 0.772 6 4 5 0 0
-0.0268 -0.0418 -0.3335 0.094 -0.964 0.249 7 5 6 0 0
-0.0271 -0.0420 -0.3351 0.263 -0.950 0.168 6 5 6 0 0
-0.0278 -0.0427 -0.3381 0.339 -0.941 -0.006 5 5 7 0 0
-0.0280 -0.0428 -0.3397 0.334 -0.942 -0.035 4 4 6 0 0
-0.0285 -0.0433 -0.3412 0.328 -0.936 0.125 4 3 6 0 0
-0.0287 -0.0435 -0.3428 0.376 -0.890 0.258 10 8 10 0 0
-0.0311 -0.0462 -0.3449 0.482 -0.778 0.403 39 36 32 0 0
-0.0380 -0.0524 -0.3791 -0.162 -0.885 -0.436 56 51 45 0 0
-0.0373 -0.0515 -0.3813 -0.164 -0.893 -0.420 48 42 36 0 0
-0.0370 -0.0511 -0.3832 -0.231 -0.955 -0.185 55 48 40 0 0
-0.0368 -0.0507 -0.3851 -0.270 -0.941 -0.202 58 49 42 0 0
-0.0309 -0.0430 -0.3975 -0.059 -0.799 -0.598 94 92 87 0 0
-0.0935 -0.1032 -0.6485 0.040 -0.972 -0.231 33 29 25 0 0
-0.0767 -0.0809 -0.6857 0.214 -0.895 -0.391 8 6 7 0 0
-0.0855 -0.0897 -0.7143 0.263 -0.088 0.961 17 13 12 0 0
-0.1300 -0.1367 -0.8221 -0.177 -0.958 0.226 86 70 40 0 0
-0.1387 -0.1453 -0.8548 -0.326 -0.854 0.404 131 117 82 0 0
-0.1392 -0.1458 -0.8563 -0.326 -0.854 0.404 137 121 87 0 0
-0.1448 -0.1515 -0.8732 -0.715 -0.601 0.356 182 181 181 0 0
-0.0376 -0.0580 -0.2347 -0.687 -0.671 0.280 80 65 42 0 0
-0.0378 -0.0582 -0.2362 -0.828 -0.557 0.069 76 61 40 0 0
-0.0358 -0.0549 -0.2527 -0.809 -0.522 -0.271 45 34 23 0 0
-0.0232 -0.0369 -0.3004 -0.824 -0.542 -0.165 20 19 17 0 0
-0.0225 -0.0354 -0.3124 -0.543 -0.772 0.331 9 7 8 0 0
-0.0242 -0.0373 -0.3150 -0.405 -0.858 0.318 8 6 7 0 0
-0.0247 -0.0378 -0.3164 -0.508 -0.851 0.132 9 7 8 0 0
-0.0225 -0.0349 -0.3192 0.106 -0.992 0.062 11 9 10 0 0
-0.0227 -0.0350 -0.3208 0.106 -0.992 0.062 11 9 10 0 0
-0.0235 -0.0360 -0.3221 0.200 -0.938 0.283 6 4 5 0 0
-0.0315 -0.0454 -0.3249 0.431 -0.684 0.589 4 2 3 0 0
-0.0282 -0.0409 -0.3334 0.455 -0.880 0.138 10 8 9 0 0
-0.0348 -0.0482 -0.3453 0.376 -0.841 0.390 44 43 41 0 0
-0.0438 -0.0582 -0.3574 0.067 -0.722 0.689 56 52 49 0 0
-0.0384 -0.0502 -0.3848 -0.370 -0.886 -0.280 67 58 51 0 0
-0.0381 -0.0496 -0.3867 -0.407 -0.860 -0.308 78 71 63 0 0
-0.0374 -0.0485 -0.3907 -0.567 -0.613 -0.550 76 69 61 0 0
-0.0628 -0.0657 -0.6159 0.616 -0.283 0.735 119 112 105 0 0
-0.0975 -0.1064 -0.6314 -0.183 -0.981 0.067 41 31 24 0 0
-0.0733 -0.0731 -0.7038 0.337 -0.883 0.328 4 4 4 0 0
-0.0797 -0.0803 -0.7117 -0.746 -0.463 0.479 10 9 7 0 0
-0.1275 -0.1323 -0.8004 -0.372 -0.783 0.498 101 85 61 0 0
-0.1314 -0.1358 -0.8219 -0.290 -0.887 0.359 84 69 38 0 0
-0.1327 -0.1370 -0.8268 0.088 -0.656 0.749 108 92 59 0 0
-0.1337 -0.1382 -0.8276 -0.051 -0.998 -0.024 110 95 57 0 0
-0.1371 -0.1417 -0.8363 -0.595 -0.708 0.379 118 106 70 0 0
-0.1460 -0.1502 -0.8733 -0.715 -0.601 0.356 181 179 179 0 0
-0.0235 -0.0348 -0.2991 -0.985 -0.073 0.158 19 18 16 0 0
-0.0273 -0.0383 -0.3174 -0.434 -0.069 0.898 7 5 6 0 0
-0.0248 -0.0351 -0.3203 0.314 -0.674 0.669 5 3 4 0 0
-0.0314 -0.0429 -0.3222 0.269 -0.678 0.684 4 2 3 0 0
-0.0310 -0.0420 -0.3308 0.455 -0.880 0.138 11 9 10 0 0
-0.0315 -0.0425 -0.3322 0.455 -0.880 0.138 10 8 9 0 0
-0.0399 -0.0493 -0.3864 -0.277 -0.925 -0.259 64 57 49 0 0
-0.0394 -0.0486 -0.3884 -0.346 -0.866 -0.362 59 52 44 0 0
-0.0350 -0.0427 -0.3982 -0.125 -0.758 -0.640 90 88 81 0 0
-0.0806 -0.0789 -0.7078 -0.303 -0.690 0.657 10 9 7 0 0
-0.0811 -0.0794 -0.7094 -0.154 -0.941 0.302 11 10 8 0 0
-0.1049 -0.1081 -0.7072 -0.035 -0.913 0.407 30 27 22 0 0
-0.1052 -0.1084 -0.7089 0.056 -0.926 0.373 39 34 30 0 0
-0.1056 -0.1088 -0.7105 -0.030 -0.975 0.220 42 37 32 0 0
-0.1285 -0.1310 -0.7985 -0.485 -0.796 0.363 109 95 69 0 0
-0.1319 -0.1342 -0.8117 -0.621 -0.725 0.297 81 67 42 0 0
-0.1318 -0.1340 -0.8141 -0.579 -0.705 0.409 78 63 36 0 0
-0.1331 -0.1352 -0.8212 -0.700 -0.704 0.120 89 73 42 0 0
-0.1336 -0.1357 -0.8228 -0.735 -0.575 0.359 99 84 48 0 0
-0.1400 -0.1422 -0.8407 -0.634 -0.757 0.155 111 100 65 0 0
-0.1519 -0.1549 -0.8684 0.034 -0.925 0.378 184 183 181 0 0
-0.0241 -0.0334 -0.2926 -0.709 -0.697 0.105 12 10 11 0 0
-0.0235 -0.0324 -0.2979 -0.932 -0.359 -0.046 12 10 10 0 0
-0.0235 -0.0323 -0.2996 -0.963 -0.240 0.118 10 8 9 0 0
-0.0248 -0.0327 -0.3175 0.305 -0.631 0.713 8 7 5 0 0
-0.0259 -0.0341 -0.3186 0.339 -0.618 0.709 6 5 3 0 0
-0.0275 -0.0359 -0.3196 0.352 -0.703 0.618 5 3 4 0 0
-0.0287 -0.0373 -0.3206 0.286 -0.746 0.601 4 2 3 0 0
-0.0369 -0.0462 -0.3368 0.247 -0.962 -0.113 36 33 35 0 0
-0.0437 -0.0516 -0.3813 0.047 -0.916 -0.398 69 65 57 0 0
-0.0373 -0.0430 -0.3974 -0.143 -0.762 -0.632 83 81 71 0 0
-0.0999 -0.1048 -0.6194 0.291 -0.955 0.056 51 42 35 0 0
-0.1061 -0.1069 -0.7072 -0.058 -0.617 0.785 29 25 21 0 0
-0.1108 -0.1126 -0.7079 -0.881 -0.120 0.457 43 40 35 0 0
-0.1254 -0.1298 -0.7133 -0.442 -0.574 0.690 160 140 98 0 0
-0.1262 -0.1307 -0.7143 -0.336 -0.606 0.721 176 153 112 0 0
-0.1328 -0.1328 -0.8100 -0.621 -0.725 0.297 104 90 64 0 0
-0.1331 -0.1331 -0.8117 -0.621 -0.725 0.297 91 77 51 0 0
-0.1354 -0.1350 -0.8243 -0.522 -0.681 0.514 123 106 67 0 0
-0.1357 -0.1354 -0.8261 -0.499 -0.610 0.616 113 97 61 0 0
-0.1534 -0.1544 -0.8634 -0.240 -0.815 0.528 172 171 169 0 0
-0.1537 -0.1545 -0.8675 -0.453 -0.891 -0.005 183 182 180 0 0
-0.1548 -0.1558 -0.8681 -0.569 -0.793 0.218 186 185 183 0 0
-0.0387 -0.0523 -0.2323 -0.553 -0.609 0.568 59 44 23 0 0
-0.0396 -0.0532 -0.2351 -0.953 -0.256 0.163 67 52 32 0 0
-0.0387 -0.0514 -0.2480 -0.713 -0.678 -0.181 44 30 15 0 0
-0.0386 -0.0511 -0.2496 -0.734 -0.650 -0.198 56 45 31 0 0
-0.0371 -0.0448 -0.3221 -0.197 -0.650 0.734 9 9 9 0 0
-0.0386 -0.0465 -0.3230 -0.033 -0.687 0.726 19 19 18 0 0
-0.0458 -0.0517 -0.3807 -0.031 -0.879 -0.475 77 75 69 0 0
-0.0883 -0.0892 -0.6026 0.460 -0.719 0.520 87 83 80 0 0
-0.1020 -0.1050 -0.6165 0.249 -0.954 0.168 49 40 34 0 0
-0.0957 -0.0940 -0.6702 -0.317 -0.816 -0.483 9 7 8 0 0
-0.1265 -0.1286 -0.7133 -0.582 -0.350 0.734 160 141 99 0 0
-0.1201 -0.1167 -0.7801 -0.232 -0.913 0.335 88 77 47 0 0
-0.1205 -0.1171 -0.7818 -0.207 -0.927 0.314 83 70 41 0 0
-0.1213 -0.1179 -0.7830 -0.131 -0.866 0.482 82 67 38 0 0
-0.1216 -0.1182 -0.7847 -0.259 -0.767 0.587 97 82 53 0 0
-0.1338 -0.1314 -0.8103 -0.697 -0.646 0.312 93 79 53 0 0
-0.1343 -0.1318 -0.8119 -0.595 -0.694 0.404 86 72 46 0 0
-0.1362 -0.1334 -0.8227 -0.483 -0.830 0.277 91 77 43 0 0
-0.1557 -0.1544 -0.8641 -0.060 -0.389 0.919 176 175 173 0 0
-0.1562 -0.1548 -0.8680 -0.605 -0.796 0.030 185 184 182 0 0
-0.0370 -0.0497 -0.2024 -0.861 -0.296 0.413 60 45 28 0 0
-0.0366 -0.0486 -0.2132 -0.634 -0.565 0.528 98 85 67 0 0
-0.0375 -0.0497 -0.2144 -0.619 -0.657 0.430 143 131 104 0 0
-0.0391 -0.0505 -0.2309 -0.750 -0.538 0.384 58 43 24 0 0
-0.0270 -0.0324 -0.2840 -0.610 -0.792 0.019 17 13 12 0 0
-0.0273 -0.0327 -0.2855 -0.780 -0.622 0.065 22 18 17 0 0
-0.0376 -0.0430 -0.3207 -0.222 -0.640 0.736 21 19 20 0 0
-0.0410 -0.0468 -0.3257 0.108 -0.924 0.367 24 24 21 0 0
-0.0423 -0.0482 -0.3300 0.184 -0.983 -0.007 54 52 49 0 0
-0.0424 -0.0482 -0.3317 0.184 -0.983 -0.007 23 20 17 0 0
-0.0430 -0.0488 -0.3331 0.187 -0.982 0.025 37 34 31 0 0
-0.0434 -0.0492 -0.3345 0.223 -0.971 0.085 41 38 35 0 0
-0.0435 -0.0492 -0.3362 0.289 -0.907 0.307 59 57 55 0 0
-0.0439 -0.0496 -0.3377 0.306 -0.906 0.294 63 62 60 0 0
-0.0552 -0.0621 -0.3569 0.083 -0.970 0.230 50 46 43 0 0
-0.1036 -0.1045 -0.6140 0.140 -0.914 0.381 47 39 33 0 0
-0.0865 -0.0776 -0.7098 -0.607 -0.367 0.705 9 7 8 0 0
-0.1095 -0.1058 -0.7061 -0.297 0.010 0.955 28 24 20 0 0
-0.1110 -0.1075 -0.7065 -0.458 -0.264 0.849 35 32 27 0 0
-0.1337 -0.1341 -0.7227 -0.610 -0.791 -0.050 112 96 58 0 0
-0.1336 -0.1338 -0.7250 -0.789 -0.613 -0.027 119 100 67 0 0
-0.1356 -0.1307 -0.8118 -0.595 -0.694 0.404 81 66 40 0 0
-0.1379 -0.1328 -0.8221 -0.523 -0.636 0.567 89 74 41 0 0
-0.1643 -0.1621 -0.8661 -0.547 -0.100 0.831 192 191 189 0 0
-0.0162 -0.0252 -0.1540 -0.944 -0.000 0.330 172 170 161 0 0
-0.0268 -0.0370 -0.1708 -0.976 0.098 0.193 74 60 36 0 0
-0.0376 -0.0474 -0.2132 -0.634 -0.565 0.528 119 106 86 0 0
-0.0390 -0.0490 -0.2143 -0.702 -0.677 0.220 165 154 125 0 0
-0.0319 -0.0375 -0.2595 -0.943 -0.121 -0.309 11 10 7 0 0
-0.0295 -0.0335 -0.2768 -0.981 0.172 -0.092 26 21 18 0 0
-0.0279 -0.0312 -0.2824 -0.912 -0.379 -0.157 14 11 10 0 0
-0.0275 -0.0306 -0.2843 -0.959 -0.270 0.082 18 15 13 0 0
-0.0276 -0.0306 -0.2859 -0.922 -0.179 0.343 26 22 21 0 0
-0.0247 -0.0265 -0.2938 -0.860 -0.315 0.401 6 4 4 0 0
-0.0252 -0.0270 -0.2953 -0.860 -0.315 0.401 5 3 4 0 0
-0.0400 -0.0433 -0.3217 -0.222 -0.640 0.736 30 27 28 0 0
-0.0425 -0.0463 -0.3238 0.172 -0.951 0.257 25 21 21 0 0
-0.0573 -0.0621 -0.3563 0.083 -0.970 0.230 34 30 27 0 0
-0.0503 -0.0522 -0.3793 -0.141 -0.838 -0.528 86 82 81 0 0
-0.1096 -0.1033 -0.7054 -0.530 -0.462 0.711 25 21 18 0 0
-0.1117 -0.1057 -0.7071 -0.276 -0.293 0.916 38 34 30 0 0
-0.1242 -0.1209 -0.7087 -0.423 -0.322 0.847 90 82 68 0 0
-0.1342 -0.1324 -0.7173 -0.501 -0.616 0.608 183 164 116 0 0
-0.1347 -0.1329 -0.7188 -0.648 -0.462 0.605 169 150 111 0 0
-0.1352 -0.1335 -0.7202 -0.565 -0.631 0.532 116 100 66 0 0
-0.1352 -0.1334 -0.7223 -0.478 -0.808 0.346 111 96 59 0 0
-0.1355 -0.1335 -0.7241 -0.316 -0.894 0.318 128 110 75 0 0
-0.1216 -0.1137 -0.7704 -0.598 -0.764 -0.245 90 80 52 0 0
-0.1218 -0.1138 -0.7724 -0.494 -0.863 0.106 86 75 47 0 0
-0.1237 -0.1154 -0.7832 -0.586 -0.754 0.298 91 77 49 0 0
-0.1235 -0.1151 -0.7856 -0.370 -0.857 0.358 93 78 50 0 0
-0.1240 -0.1155 -0.7872 -0.370 -0.857 0.358 85 73 45 0 0
-0.1367 -0.1296 -0.8098 -0.197 -0.840 0.506 68 54 29 0 0
-0.1374 -0.1302 -0.8111 -0.197 -0.840 0.506 74 59 34 0 0
-0.1460 -0.1396 -0.8301 -0.417 -0.898 0.138 138 122 83 0 0
-0.1475 -0.1412 -0.8324 -0.652 -0.691 0.311 127 109 76 0 0
-0.1473 -0.1402 -0.8442 -0.690 -0.683 0.241 108 95 66 0 0
-0.1488 -0.1418 -0.8466 -0.600 -0.407 0.689 167 148 99 0 0
-0.0166 -0.0233 -0.1541 -0.932 -0.148 0.331 177 177 174 0 0
-0.0382 -0.0458 -0.2118 -0.654 -0.525 0.544 52 39 23 0 0
-0.0270 -0.0283 -0.2717 -0.995 0.065 -0.069 20 14 14 0 0
-0.0270 -0.0281 -0.2734 -0.964 0.060 0.257 20 15 15 0 0
-0.0274 -0.0286 -0.2749 -0.964 0.060 0.257 24 20 19 0 0
-0.0286 -0.0295 -0.2826 -0.910 -0.397 -0.118 15 14 12 0 0
-0.0288 -0.0296 -0.2842 -0.952 -0.297 -0.076 12 11 9 0 0
-0.0279 -0.0284 -0.2862 -0.872 -0.419 0.254 15 10 10 0 0
-0.0450 -0.0468 -0.3231 0.217 -0.955 0.201 20 18 18 0 0
-0.0452 -0.0469 -0.3247 0.153 -0.906 0.395 34 32 29 0 0
-0.1113 -0.1028 -0.7048 -0.517 -0.675 0.526 25 21 18 0 0
-0.1120 -0.1035 -0.7061 -0.343 -0.243 0.907 28 23 20 0 0
-0.1131 -0.1047 -0.7070 -0.293 -0.328 0.898 35 30 27 0 0
-0.1255 -0.1198 -0.7087 -0.076 -0.576 0.814 83 75 58 0 0
-0.1371 -0.1329 -0.7236 -0.318 -0.814 0.486 129 110 70 0 0
-0.1481 -0.1394 -0.8311 -0.526 -0.686 0.503 128 109 77 0 0
-0.1495 -0.1403 -0.8428 -0.424 -0.905 0.039 103 91 62 0 0
-0.1531 -0.1440 -0.8534 -0.159 -0.820 0.550 138 124 84 0 0
-0.1656 -0.1584 -0.8658 -0.941 -0.257 0.220 187 186 184 0 0
-0.2015 -0.2023 -0.8631 0.033 -0.787 0.616 204 203 201 0 0
-0.0183 -0.0227 -0.1569 -0.986 -0.007 0.166 177 177 175 0 0
-0.0176 -0.0218 -0.1586 -0.940 0.165 0.300 179 177 175 0 0
-0.0257 -0.0238 -0.2777 -0.869 -0.112 -0.482 14 12 12 0 0
-0.0502 -0.0503 -0.3293 0.081 -0.976 0.204 32 28 25 0 0
-0.0517 -0.0518 -0.3353 -0.056 -0.992 0.110 46 43 38 0 0
-0.0532 -0.0504 -0.3824 0.052 -0.906 -0.421 57 53 50 0 0
-0.0508 -0.0471 -0.3892 0.078 -0.948 -0.309 86 80 76 0 0
-0.0484 -0.0438 -0.3942 -0.317 -0.721 -0.616 99 94 88 0 0
-0.0992 -0.0925 -0.5965 0.251 -0.765 0.593 77 73 70 0 0
-0.1148 -0.1100 -0.6200 0.369 -0.907 0.205 55 46 34 0 0
-0.1129 -0.1020 -0.7045 -0.668 -0.390 0.634 27 23 20 0 0
-0.1132 -0.1023 -0.7061 -0.293 -0.328 0.898 29 25 22 0 0
-0.1143 -0.1036 -0.7070 -0.293 -0.328 0.898 33 28 25 0 0
-0.1156 -0.1051 -0.7076 -0.333 -0.549 0.767 37 33 30 0 0
-0.1379 -0.1316 -0.7198 -0.501 -0.690 0.523 96 82 45 0 0
-0.1238 -0.1105 -0.7776 -0.404 -0.725 0.558 69 57 34 0 0
-0.1244 -0.1112 -0.7789 -0.404 -0.725 0.558 69 57 32 0 0
-0.1254 -0.1123 -0.7799 -0.574 -0.712 0.406 68 56 32 0 0
-0.1404 -0.1287 -0.8082 -0.400 -0.900 0.172 96 80 55 0 0
-0.1414 -0.1299 -0.8089 -0.411 -0.720 0.560 88 74 48 0 0
-0.1490 -0.1378 -0.8295 -0.695 -0.696 0.182 130 112 80 0 0
-0.1667 -0.1571 -0.8661 -0.643 -0.643 0.416 187 186 184 0 0
-0.0387 -0.0415 -0.2139 -0.381 -0.838 0.391 63 53 33 0 0
-0.0532 -0.0512 -0.3334 0.052 -0.997 0.055 47 43 40 0 0
-0.0571 -0.0554 -0.3414 0.205 -0.972 0.115 42 38 34 0 0
-0.1010 -0.1043 -0.4140 -0.325 -0.929 -0.175 141 128 98 0 0
-0.1008 -0.1040 -0.4158 -0.325 -0.929 -0.175 134 120 86 0 0
-0.0991 -0.1016 -0.4188 -0.052 -0.994 -0.092 158 142 104 0 0
-0.0990 -0.1013 -0.4222 -0.067 -0.988 0.141 143 130 105 0 0
-0.1013 -0.0925 -0.5956 0.251 -0.765 0.593 77 73 70 0 0
-0.0934 -0.0752 -0.7098 0.222 -0.913 0.342 8 6 7 0 0
-0.1139 -0.1006 -0.7047 -0.668 -0.390 0.634 26 22 19 0 0
-0.1144 -0.1011 -0.7063 -0.198 -0.297 0.934 30 26 23 0 0
-0.1156 -0.1025 -0.7070 -0.198 -0.297 0.934 37 32 29 0 0
-0.1252 -0.1142 -0.7079 0.098 -0.509 0.855 66 60 48 0 0
-0.1347 -0.1228 -0.7535 -0.167 -0.903 -0.395 116 101 68 0 0
-0.1432 -0.1292 -0.8127 -0.723 -0.658 0.213 78 62 36 0 0
-0.1425 -0.1282 -0.8159 -0.555 -0.598 0.578 81 64 38 0 0
-0.1473 -0.1339 -0.8179 -0.437 -0.878 0.197 100 86 54 0 0
-0.1508 -0.1372 -0.8310 -0.498 -0.689 0.526 107 93 61 0 0
-0.1671 -0.1548 -0.8675 -0.821 -0.363 0.441 188 187 185 0 0
-0.0402 -0.0408 -0.2137 -0.621 -0.745 0.242 65 53 32 0 0
-0.0413 -0.0420 -0.2164 -0.861 -0.494 0.121 113 100 72 0 0
-0.0553 -0.0472 -0.3930 0.039 -0.988 -0.147 82 77 73 0 0
-0.0552 -0.0470 -0.3949 -0.075 -0.993 0.092 97 94 89 0 0
-0.1008 -0.1011 -0.4217 -0.067 -0.988 0.141 123 112 91 0 0
-0.1020 -0.1019 -0.4313 -0.287 -0.938 -0.195 105 93 70 0 0
-0.1200 -0.1116 -0.6150 -0.124 -0.992 0.020 85 74 59 0 0
-0.1205 -0.1118 -0.6185 -0.407 -0.909 -0.085 76 65 50 0 0
-0.1037 -0.0851 -0.7078 0.011 -0.758 0.653 10 9 7 0 0
-0.1088 -0.0917 -0.7039 -0.207 -0.680 0.703 10 8 8 0 0
-0.1101 -0.0931 -0.7065 -0.743 -0.413 0.526 16 15 12 0 0
-0.1149 -0.0991 -0.7050 -0.679 -0.360 0.640 23 21 17 0 0
-0.1156 -0.0999 -0.7063 -0.246 -0.290 0.925 28 25 21 0 0
-0.1168 -0.1013 -0.7070 -0.246 -0.290 0.925 36 32 28 0 0
-0.1341 -0.1222 -0.7110 -0.229 -0.514 0.826 108 97 67 0 0
-0.1265 -0.1085 -0.7773 -0.455 -0.635 0.625 62 49 29 0 0
-0.1434 -0.1267 -0.8142 -0.376 -0.749 0.545 70 55 29 0 0
-0.1469 -0.1306 -0.8182 -0.611 -0.616 0.497 101 87 55 0 0
-0.1589 -0.1430 -0.8526 -0.448 -0.832 0.326 131 117 81 0 0
-0.1700 -0.1554 -0.8717 -0.478 -0.860 0.179 192 191 189 0 0
-0.0517 -0.0472 -0.2921 -0.858 -0.111 0.502 20 18 18 0 0
-0.1028 -0.1013 -0.4194 -0.151 -0.988 -0.014 91 81 58 0 0
-0.1025 -0.1009 -0.4213 -0.186 -0.979 0.079 94 84 61 0 0
-0.1042 -0.1022 -0.4304 -0.671 -0.733 -0.111 79 67 44 0 0
-0.1041 -0.1020 -0.4322 -0.807 -0.591 0.002 80 68 45 0 0
-0.1044 -0.1022 -0.4338 -0.880 -0.389 0.273 84 73 50 0 0
-0.1050 -0.1030 -0.4350 -0.837 -0.432 0.335 89 77 54 0 0
-0.1054 -0.1034 -0.4365 -0.879 -0.415 0.232 80 68 46 0 0
-0.1050 -0.1027 -0.4385 -0.882 -0.464 0.078 96 84 62 0 0
-0.1206 -0.1086 -0.6316 -0.236 -0.944 -0.232 68 56 41 0 0
-0.1204 -0.1081 -0.6339 -0.236 -0.944 -0.232 54 44 31 0 0
-0.1198 -0.1072 -0.6365 -0.125 -0.976 -0.179 56 47 36 0 0
-0.0970 -0.0741 -0.7087 0.006 -0.605 0.796 8 6 7 0 0
-0.1055 -0.0847 -0.7071 0.015 -0.918 0.396 11 10 8 0 0
-0.1442 -0.1308 -0.7293 -0.265 -0.939 -0.218 150 127 88 0 0
-0.1388 -0.1226 -0.7515 -0.360 -0.834 -0.419 120 102 66 0 0
-0.1476 -0.1289 -0.8167 -0.360 -0.707 0.608 106 91 57 0 0
-0.1494 -0.1307 -0.8231 -0.590 -0.798 0.120 107 91 63 0 0
-0.1496 -0.1308 -0.8252 -0.701 -0.687 0.192 125 112 81 0 0
-0.1605 -0.1424 -0.8520 -0.443 -0.850 0.284 134 120 84 0 0
-0.1710 -0.1544 -0.8652 -0.065 -0.416 0.907 188 187 185 0 0
-0.2069 -0.1989 -0.8619 -0.288 -0.741 0.606 204 203 201 0 0
-0.2080 -0.2002 -0.8623 -0.427 -0.882 0.200 205 204 202 0 0
-0.0645 -0.0575 -0.3357 0.068 -0.990 0.127 32 30 31 0 0
-0.0648 -0.0577 -0.3373 -0.062 -0.998 -0.027 26 24 26 0 0
-0.0645 -0.0573 -0.3391 -0.039 -0.980 -0.195 23 22 23 0 0
-0.0710 -0.0647 -0.3472 0.137 -0.770 0.623 55 51 48 0 0
-0.1037 -0.0994 -0.4281 -0.436 -0.900 -0.027 78 65 39 0 0
-0.1037 -0.0992 -0.4299 -0.382 -0.920 -0.092 76 63 37 0 0
-0.1040 -0.0995 -0.4314 -0.443 -0.896 -0.028 80 66 43 0 0
-0.1035 -0.0987 -0.4335 -0.609 -0.738 0.292 65 52 28 0 0
-0.1043 -0.0997 -0.4346 -0.543 -0.569 0.617 75 62 38 0 0
-0.1047 -0.1000 -0.4361 -0.286 -0.719 0.633 81 67 45 0 0
-0.0983 -0.0733 -0.7043 0.107 -0.993 -0.040 7 5 6 0 0
-0.0983 -0.0732 -0.7064 0.107 -0.993 -0.040 8 6 7 0 0
-0.1028 -0.0784 -0.7098 -0.183 -0.384 0.905 10 9 7 0 0
-0.1452 -0.1303 -0.7168 -0.367 -0.831 0.419 154 137 94 0 0
-0.1454 -0.1305 -0.7186 -0.532 -0.798 0.283 103 89 54 0 0
-0.1461 -0.1309 -0.7241 -0.378 -0.905 0.195 126 106 68 0 0
-0.1432 -0.1220 -0.8001 -0.479 -0.708 0.520 106 89 57 0 0
-0.1438 -0.1226 -0.8015 -0.479 -0.708 0.520 95 80 50 0 0
-0.1487 -0.1278 -0.8147 -0.657 -0.650 0.381 112 95 63 0 0
-0.1492 -0.1282 -0.8163 -0.657 -0.650 0.381 102 87 53 0 0
-0.1512 -0.1301 -0.8247 -0.613 -0.661 0.432 128 113 84 0 0
-0.1520 -0.1310 -0.8257 -0.395 -0.864 0.313 100 87 55 0 0
-0.1612 -0.1409 -0.8482 -0.208 -0.818 0.537 128 113 78 0 0
-0.1618 -0.1413 -0.8519 -0.465 -0.820 0.334 125 111 76 0 0
-0.1624 -0.1419 -0.8534 -0.421 -0.877 0.232 123 112 78 0 0
-0.2132 -0.2039 -0.8644 -0.541 0.218 0.812 207 206 204 0 0
-0.0592 -0.0503 -0.3092 -0.579 -0.530 0.619 21 16 15 0 0
-0.0667 -0.0576 -0.3368 -0.062 -0.998 -0.027 51 47 44 0 0
-0.0666 -0.0572 -0.3419 -0.093 -0.989 -0.118 22 19 18 0 0
-0.0719 -0.0634 -0.3456 -0.029 -0.667 0.744 79 75 72 0 0
-0.0729 -0.0645 -0.3467 0.069 -0.636 0.769 47 42 40 0 0
-0.1074 -0.1048 -0.3822 -0.093 -0.882 0.461 125 117 96 0 0
-0.1081 -0.1054 -0.3851 -0.595 -0.762 -0.257 112 103 86 0 0
-0.1082 -0.1054 -0.3867 -0.533 -0.826 -0.185 111 103 86 0 0
-0.1075 -0.1045 -0.3888 0.124 -0.984 0.129 107 99 80 0 0
-0.1078 -0.1047 -0.3903 0.124 -0.984 0.129 111 104 85 0 0
-0.1081 -0.1049 -0.3918 0.124 -0.984 0.129 115 107 89 0 0
-0.1080 -0.1046 -0.3952 -0.148 -0.943 -0.299 106 97 79 0 0
-0.1033 -0.0969 -0.4223 -0.635 -0.763 -0.122 80 68 42 0 0
-0.1074 -0.1003 -0.4454 -0.128 -0.981 0.145 83 68 45 0 0
-0.1076 -0.1004 -0.4469 -0.128 -0.981 0.145 82 68 43 0 0
-0.1071 -0.0997 -0.4491 -0.383 -0.912 0.149 80 69 43 0 0
-0.1074 -0.0998 -0.4507 -0.383 -0.912 0.149 71 60 36 0 0
-0.1075 -0.0999 -0.4523 -0.505 -0.785 0.359 84 72 49 0 0
-0.1392 -0.1173 -0.7586 -0.339 -0.789 -0.512 108 94 60 0 0
-0.1364 -0.1120 -0.7846 -0.433 -0.827 0.359 74 63 38 0 0
-0.1453 -0.1220 -0.7989 -0.231 -0.893 0.386 102 84 53 0 0
-0.1520 -0.1289 -0.8185 -0.402 -0.698 0.592 101 86 57 0 0
-0.1530 -0.1298 -0.8216 -0.126 -0.698 0.705 119 104 71 0 0
-0.1546 -0.1315 -0.8260 -0.228 -0.962 0.147 98 85 53 0 0
-0.1555 -0.1326 -0.8269 -0.448 -0.877 0.175 117 101 70 0 0
-0.1556 -0.1326 -0.8290 -0.388 -0.867 0.314 97 82 51 0 0
-0.1597 -0.1368 -0.8410 -0.134 -0.887 0.442 116 98 62 0 0
-0.1622 -0.1394 -0.8464 -0.208 -0.818 0.537 124 111 77 0 0
-0.1106 -0.1067 -0.3759 -0.723 -0.594 0.353 130 127 122 0 0
-0.1104 -0.1064 -0.3776 -0.545 -0.812 0.207 122 115 107 0 0
-0.1097 -0.1049 -0.3864 -0.060 -0.943 -0.326 104 96 77 0 0
-0.1100 -0.1049 -0.3912 0.124 -0.990 0.072 111 103 84 0 0
-0.1094 -0.1037 -0.3967 -0.391 -0.890 -0.234 94 85 67 0 0
-0.1090 -0.1032 -0.3986 -0.530 -0.747 -0.402 91 81 61 0 0
-0.1095 -0.1003 -0.4464 0.006 -0.955 0.297 74 62 37 0 0
-0.1113 -0.1021 -0.4537 -0.421 -0.847 0.326 82 70 51 0 0
-0.1096 -0.0898 -0.5933 0.302 -0.580 0.757 75 71 68 0 0
-0.1235 -0.1031 -0.6466 -0.320 -0.826 -0.464 46 39 34 0 0
-0.1182 -0.0956 -0.6608 -0.468 -0.688 -0.554 23 18 14 0 0
-0.1124 -0.0874 -0.6758 -0.663 -0.544 -0.515 9 8 8 0 0
-0.1071 -0.0797 -0.6905 -0.838 -0.546 0.011 6 4 5 0 0
-0.1070 -0.0783 -0.7078 0.450 -0.322 0.833 11 10 8 0 0
-0.1296 -0.1065 -0.7059 0.155 -0.486 0.860 45 38 34 0 0
-0.1459 -0.1241 -0.7426 -0.364 -0.824 -0.434 99 84 50 0 0
-0.1363 -0.1093 -0.7820 -0.170 -0.836 0.522 85 73 48 0 0
-0.1391 -0.1126 -0.7848 -0.396 -0.878 0.269 65 53 29 0 0
-0.1567 -0.1314 -0.8270 -0.388 -0.867 0.314 107 90 60 0 0
-0.1588 -0.1334 -0.8352 -0.512 -0.827 0.231 89 77 49 0 0
-0.1600 -0.1348 -0.8357 -0.557 -0.736 0.386 106 94 60 0 0
-0.1615 -0.1364 -0.8403 -0.271 -0.861 0.430 102 87 55 0 0
-0.0494 -0.0352 -0.2805 0.061 -0.953 -0.297 8 8 8 0 0
-0.0707 -0.0574 -0.3391 -0.162 -0.971 -0.177 36 35 32 0 0
-0.0751 -0.0625 -0.3450 -0.132 -0.492 0.860 70 66 63 0 0
-0.1110 -0.1049 -0.3763 -0.613 -0.175 0.770 120 116 106 0 0
-0.1139 -0.1078 -0.3843 -0.172 -0.970 -0.172 87 76 58 0 0
-0.1097 -0.0998 -0.4244 -0.331 -0.919 0.216 76 64 41 0 0
-0.1127 -0.1013 -0.4535 -0.421 -0.847 0.326 75 60 41 0 0
-0.1131 -0.1017 -0.4550 -0.421 -0.847 0.326 68 55 32 0 0
-0.1135 -0.1021 -0.4564 -0.421 -0.847 0.326 79 68 47 0 0
-0.1267 -0.1130 -0.5318 0.311 -0.724 0.616 86 77 64 0 0
-0.1273 -0.1136 -0.5331 0.091 -0.821 0.564 97 92 79 0 0
-0.1420 -0.1152 -0.7605 -0.548 -0.630 -0.550 97 83 55 0 0
-0.1380 -0.1091 -0.7770 -0.187 -0.881 0.435 80 68 42 0 0
-0.1377 -0.1084 -0.7797 -0.323 -0.732 0.599 75 63 37 0 0
-0.1386 -0.1096 -0.7806 -0.605 -0.728 0.322 81 69 44 0 0
-0.1487 -0.1205 -0.8022 -0.436 -0.580 0.688 136 117 85 0 0
-0.1506 -0.1226 -0.8062 -0.632 -0.691 0.351 120 101 68 0 0
-0.1584 -0.1308 -0.8264 -0.186 -0.953 0.239 105 90 61 0 0
-0.1605 -0.1329 -0.8345 -0.714 -0.664 0.222 90 76 48 0 0
-0.1644 -0.1369 -0.8446 -0.361 -0.801 0.478 140 120 87 0 0
-0.1659 -0.1384 -0.8514 -0.496 -0.702 0.511 125 111 75 0 0
-0.1735 -0.1468 -0.8648 0.128 0.007 0.992 176 173 174 0 0
-0.0792 -0.0648 -0.3483 -0.577 -0.713 0.398 25 22 17 0 0
-0.0798 -0.0648 -0.3597 -0.457 -0.878 0.141 34 33 28 0 0
-0.0799 -0.0647 -0.3630 -0.579 -0.815 0.008 18 13 10 0 0
-0.0743 -0.0559 -0.3871 0.634 -0.733 0.247 61 58 53 0 0
-0.1092 -0.1002 -0.3765 0.064 -0.251 0.966 97 86 67 0 0
-0.1112 -0.0991 -0.4241 -0.316 -0.932 0.179 85 73 52 0 0
-0.1114 -0.0986 -0.4361 -0.235 -0.889 0.393 75 60 39 0 0
-0.1121 -0.0992 -0.4374 -0.461 -0.761 0.457 73 58 34 0 0
-0.1145 -0.1003 -0.4636 -0.296 -0.944 -0.147 87 78 65 0 0
-0.1303 -0.1154 -0.5258 0.393 -0.919 0.020 66 55 38 0 0
-0.1306 -0.1156 -0.5274 0.364 -0.931 0.013 66 55 37 0 0
-0.1307 -0.1157 -0.5291 0.364 -0.931 0.013 66 55 39 0 0
-0.1307 -0.1155 -0.5310 0.333 -0.942 0.038 68 59 43 0 0
-0.1305 -0.1151 -0.5330 0.280 -0.958 0.061 77 70 54 0 0
-0.1300 -0.1143 -0.5353 0.200 -0.977 -0.073 89 82 69 0 0
-0.1234 -0.1021 -0.5895 0.254 -0.769 0.586 34 29 26 0 0
-0.1087 -0.0758 -0.6958 -0.330 -0.901 -0.282 7 6 6 0 0
-0.1300 -0.1016 -0.7063 -0.683 -0.004 0.730 41 34 30 0 0
-0.1465 -0.1187 -0.7538 -0.252 -0.874 -0.415 99 84 53 0 0
-0.1401 -0.1087 -0.7803 -0.354 -0.859 0.370 82 70 45 0 0
-0.1594 -0.1295 -0.8245 -0.116 -0.993 -0.005 77 63 38 0 0
-0.1597 -0.1297 -0.8263 0.035 -0.913 0.407 93 79 49 0 0
-0.1646 -0.1349 -0.8393 -0.739 -0.540 0.403 86 76 48 0 0
-0.1658 -0.1363 -0.8398 -0.758 -0.647 0.086 91 78 49 0 0
-0.1670 -0.1373 -0.8471 -0.391 -0.814 0.430 127 111 77 0 0
-0.1739 -0.1444 -0.8663 0.009 0.240 0.971 173 171 172 0 0
-0.0450 -0.0285 -0.2301 -0.759 -0.586 0.286 76 62 42 0 0
-0.0655 -0.0483 -0.3066 0.081 -0.985 0.155 35 28 25 0 0
-0.1102 -0.0991 -0.3765 0.308 -0.385 0.870 100 85 59 0 0
-0.1125 -0.0993 -0.4103 -0.140 -0.990 0.036 102 88 65 0 0
-0.1166 -0.1005 -0.4628 -0.148 -0.985 -0.094 82 70 51 0 0
-0.1234 -0.0997 -0.5868 0.297 -0.866 0.401 66 60 57 0 0
-0.1241 -0.1005 -0.5880 0.239 -0.674 0.699 57 52 49 0 0
-0.1342 -0.1110 -0.6165 -0.165 -0.986 -0.030 83 72 54 0 0
-0.1259 -0.0978 -0.6521 -0.506 -0.654 -0.562 22 17 14 0 0
-0.1233 -0.0940 -0.6592 -0.753 -0.530 -0.390 29 24 21 0 0
-0.1225 -0.0929 -0.6621 -0.753 -0.530 -0.390 23 18 16 0 0
-0.1219 -0.0918 -0.6650 -0.849 -0.451 -0.274 15 12 10 0 0
-0.1107 -0.0750 -0.7036 -0.838 -0.545 0.027 8 7 5 0 0
-0.1224 -0.0895 -0.7044 -0.079 -0.475 0.877 22 18 14 0 0
-0.1478 -0.1207 -0.7129 -0.512 -0.642 0.570 167 147 107 0 0
-0.1546 -0.1283 -0.7251 -0.385 -0.908 0.167 115 93 65 0 0
-0.1401 -0.1064 -0.7753 -0.509 -0.834 0.210 93 81 57 0 0
-0.0443 -0.0234 -0.2531 -0.393 -0.259 0.882 77 69 59 0 0
-0.0486 -0.0288 -0.2530 -0.972 -0.041 -0.232 73 68 60 0 0
-0.0830 -0.0646 -0.3491 -0.252 -0.904 0.344 37 30 23 0 0
-0.0835 -0.0651 -0.3505 -0.328 -0.916 0.231 43 36 30 0 0
-0.1135 -0.0965 -0.4327 -0.561 -0.784 0.264 101 87 66 0 0
-0.1183 -0.1003 -0.4623 -0.181 -0.981 -0.068 69 57 36 0 0
-0.1181 -0.0996 -0.4661 -0.096 -0.995 0.034 86 74 55 0 0
-0.1181 -0.0995 -0.4679 -0.532 -0.833 -0.148 87 75 62 0 0
-0.1118 -0.0736 -0.7038 -0.781 -0.618 0.093 9 8 6 0 0
-0.1558 -0.1270 -0.7273 -0.496 -0.866 0.068 130 108 72 0 0
-0.1559 -0.1269 -0.7293 -0.451 -0.891 -0.054 137 117 80 0 0
-0.1558 -0.1267 -0.7315 -0.258 -0.915 -0.311 137 117 80 0 0
-0.1420 -0.1060 -0.7745 -0.804 -0.546 0.237 102 89 66 0 0
-0.1419 -0.1057 -0.7769 -0.523 -0.649 0.552 77 66 42 0 0
-0.1425 -0.1063 -0.7804 -0.466 -0.743 0.480 76 62 37 0 0
-0.1602 -0.1257 -0.8157 -0.281 -0.771 0.571 84 75 45 0 0
-0.1606 -0.1261 -0.8174 -0.584 -0.765 0.271 76 66 39 0 0
-0.0427 -0.0195 -0.2445 -0.955 -0.289 -0.061 10 11 7 0 0
-0.0495 -0.0275 -0.2530 0.074 -0.997 0.001 28 25 20 0 0
-0.0496 -0.0274 -0.2546 -0.002 -0.981 -0.192 30 29 26 0 0
-0.0494 -0.0270 -0.2563 -0.002 -0.981 -0.192 23 21 22 0 0
-0.0490 -0.0264 -0.2581 -0.207 -0.838 -0.506 16 14 14 0 0
-0.0485 -0.0257 -0.2599 -0.189 -0.878 -0.440 17 13 11 0 0
-0.0478 -0.0246 -0.2618 0.009 -0.960 -0.281 40 36 29 0 0
-0.0620 -0.0411 -0.2799 -0.258 -0.952 0.165 4 4 4 0 0
-0.0844 -0.0640 -0.3472 -0.357 -0.887 0.292 38 29 21 0 0
-0.0847 -0.0643 -0.3487 -0.357 -0.887 0.292 41 32 24 0 0
-0.0853 -0.0642 -0.3601 -0.486 -0.853 -0.189 33 28 25 0 0
-0.1108 -0.0950 -0.3759 -0.073 -0.047 0.996 120 107 88 0 0
-0.1165 -0.0971 -0.4400 -0.457 -0.874 0.164 60 47 28 0 0
-0.1186 -0.0974 -0.4701 -0.695 -0.567 -0.443 64 55 43 0 0
-0.1175 -0.0958 -0.4746 -0.552 -0.830 -0.082 49 40 24 0 0
-0.1363 -0.1170 -0.5051 -0.436 -0.637 0.636 54 41 24 0 0
-0.1146 -0.0745 -0.7019 -0.001 -0.999 0.054 11 10 8 0 0
-0.1435 -0.1105 -0.7067 -0.427 -0.210 0.880 60 51 45 0 0
-0.1472 -0.1148 -0.7105 -0.440 -0.670 0.598 105 93 64 0 0
-0.1573 -0.1264 -0.7248 -0.471 -0.675 0.568 126 106 70 0 0
-0.1572 -0.1261 -0.7270 -0.496 -0.866 0.068 126 107 72 0 0
-0.1572 -0.1257 -0.7314 -0.512 -0.838 -0.186 136 117 78 0 0
-0.1611 -0.1242 -0.8162 -0.695 -0.649 0.309 67 57 33 0 0
-0.1615 -0.1245 -0.8178 -0.697 -0.650 0.304 63 52 31 0 0
-0.1741 -0.1376 -0.8534 -0.759 -0.618 0.205 129 113 81 0 0
-0.0513 -0.0269 -0.2560 0.073 -0.958 -0.276 28 25 21 0 0
-0.0506 -0.0259 -0.2579 -0.428 -0.765 -0.482 14 11 10 0 0
-0.0505 -0.0256 -0.2595 -0.261 -0.910 -0.322 11 7 7 0 0
-0.0500 -0.0249 -0.2613 -0.009 -0.997 -0.079 14 11 8 0 0
-0.0833 -0.0607 -0.3401 -0.474 -0.877 0.080 10 10 9 0 0
-0.0873 -0.0643 -0.3579 -0.276 -0.959 -0.066 18 13 9 0 0
-0.1097 -0.0912 -0.3756 -0.053 -0.124 0.991 114 103 85 0 0
-0.1210 -0.1050 -0.3814 -0.640 -0.579 0.505 53 36 21 0 0
-0.1213 -0.1053 -0.3829 -0.622 -0.670 0.406 65 50 34 0 0
-0.1218 -0.1057 -0.3842 -0.622 -0.670 0.406 67 54 35 0 0
-0.1184 -0.0971 -0.4394 -0.564 -0.708 0.426 66 53 34 0 0
-0.1386 -0.1104 -0.5941 0.231 -0.904 0.361 84 72 48 0 0
-0.1397 -0.1116 -0.5968 0.095 -0.936 0.338 103 91 69 0 0
-0.1409 -0.1125 -0.6052 -0.290 -0.957 -0.011 90 83 58 0 0
-0.1236 -0.0857 -0.6693 -0.905 -0.367 -0.215 11 10 8 0 0
-0.1186 -0.0765 -0.7051 -0.623 -0.498 0.603 14 13 11 0 0
-0.1468 -0.1119 -0.7083 -0.416 -0.354 0.838 88 76 58 0 0
-0.1576 -0.1232 -0.7368 -0.476 -0.827 -0.298 139 120 82 0 0
-0.1455 -0.1046 -0.7798 -0.363 -0.824 0.435 69 54 31 0 0
-0.0779 -0.0534 -0.3139 -0.495 -0.857 0.147 35 26 19 0 0
-0.0882 -0.0639 -0.3462 -0.147 -0.989 0.033 62 54 46 0 0
-0.0884 -0.0640 -0.3478 -0.308 -0.949 0.073 40 32 24 0 0
-0.0885 -0.0641 -0.3494 -0.308 -0.949 0.073 41 32 25 0 0
-0.1138 -0.0940 -0.3753 0.002 -0.133 0.991 113 101 81 0 0
-0.1223 -0.1036 -0.3896 -0.567 -0.822 -0.059 96 83 64 0 0
-0.1219 -0.1025 -0.3966 -0.709 -0.694 -0.127 97 84 58 0 0
-0.1197 -0.0987 -0.4099 -0.316 -0.947 -0.066 104 90 64 0 0
-0.1197 -0.0980 -0.4185 -0.598 -0.797 0.083 97 81 55 0 0
-0.1201 -0.0962 -0.4477 -0.474 -0.862 0.180 66 54 32 0 0
-0.1423 -0.1124 -0.5953 -0.345 -0.697 0.629 128 113 91 0 0
-0.1367 -0.1016 -0.6432 0.089 -0.962 -0.260 28 23 16 0 0
-0.1248 -0.0846 -0.6673 -0.651 -0.669 -0.358 11 10 8 0 0
-0.1221 -0.0794 -0.6895 -0.798 -0.602 -0.042 8 7 5 0 0
-0.1219 -0.0789 -0.6919 -0.771 -0.598 0.221 10 9 7 0 0
-0.1194 -0.0751 -0.7013 -0.408 -0.904 -0.129 14 10 9 0 0
-0.1212 -0.0770 -0.7056 -0.773 -0.507 0.382 14 13 11 0 0
-0.1230 -0.0792 -0.7056 -0.154 -0.338 0.928 16 14 11 0 0
-0.1604 -0.1253 -0.7217 -0.366 -0.853 0.373 119 104 75 0 0
-0.1611 -0.1255 -0.7294 -0.216 -0.973 -0.074 139 119 83 0 0
-0.1472 -0.1040 -0.7793 -0.376 -0.855 0.357 80 66 42 0 0
-0.1644 -0.1227 -0.8174 -0.740 -0.636 0.219 50 39 22 0 0
-0.1660 -0.1246 -0.8195 -0.382 -0.871 0.310 49 37 21 0 0
-0.0658 -0.0386 -0.2764 -0.414 -0.903 0.110 26 21 17 0 0
-0.0833 -0.0570 -0.3247 -0.331 -0.924 0.189 66 58 47 0 0
-0.0843 -0.0578 -0.3292 -0.256 -0.803 0.538 56 48 37 0 0
-0.0849 -0.0585 -0.3305 -0.256 -0.803 0.538 48 41 26 0 0
-0.0867 -0.0604 -0.3361 -0.071 -0.877 0.475 64 59 51 0 0
-0.0861 -0.0594 -0.3381 -0.186 -0.963 0.193 12 10 7 0 0
-0.0865 -0.0598 -0.3395 -0.249 -0.931 0.266 17 15 13 0 0
-0.0886 -0.0622 -0.3417 -0.206 -0.758 0.619 85 77 66 0 0
-0.0905 -0.0633 -0.3589 -0.447 -0.892 -0.072 32 28 21 0 0
-0.0909 -0.0637 -0.3603 -0.518 -0.830 0.207 43 38 31 0 0
-0.1240 -0.1036 -0.3858 -0.477 -0.878 0.027 85 71 49 0 0
-0.1209 -0.0971 -0.4167 -0.389 -0.915 0.110 94 79 53 0 0
-0.1206 -0.0960 -0.4255 -0.426 -0.892 0.152 83 69 43 0 0
-0.1208 -0.0962 -0.4271 -0.296 -0.922 0.249 108 92 67 0 0
-0.1239 -0.0967 -0.4703 -0.170 -0.907 -0.384 54 42 27 0 0
-0.1239 -0.0962 -0.4757 -0.155 -0.951 0.267 47 38 25 0 0
-0.1424 -0.1102 -0.5925 -0.465 -0.784 0.411 110 96 70 0 0
-0.1436 -0.1116 -0.5950 -0.383 -0.784 0.489 109 95 69 0 0
-0.1232 -0.0778 -0.6939 -0.818 -0.532 0.216 13 12 10 0 0
-0.1213 -0.0748 -0.7005 -0.307 -0.947 -0.094 15 11 10 0 0
-0.1492 -0.1094 -0.7085 -0.621 -0.322 0.715 84 73 55 0 0
-0.1641 -0.1273 -0.7226 -0.332 -0.879 0.341 107 91 60 0 0
-0.1670 -0.1237 -0.8130 -0.517 -0.750 0.412 52 41 24 0 0
-0.1681 -0.1250 -0.8136 -0.722 -0.517 0.460 51 40 22 0 0
-0.1672 -0.1234 -0.8195 -0.527 -0.775 0.348 58 46 29 0 0
-0.0867 -0.0584 -0.3284 -0.269 -0.887 0.376 54 46 31 0 0
-0.0921 -0.0627 -0.3603 -0.525 -0.848 0.076 45 38 29 0 0
-0.1253 -0.1029 -0.3856 -0.477 -0.878 0.027 76 63 38 0 0
-0.1225 -0.0968 -0.4163 -0.445 -0.893 0.074 103 89 63 0 0
-0.1220 -0.0953 -0.4253 -0.426 -0.892 0.152 74 61 35 0 0
-0.1278 -0.0984 -0.4787 -0.251 -0.797 0.549 91 78 55 0 0
-0.1280 -0.0985 -0.4804 -0.127 -0.629 0.767 100 86 59 0 0
-0.1307 -0.1017 -0.4834 -0.332 -0.674 0.660 99 88 60 0 0
-0.1427 -0.1087 -0.5838 0.156 -0.975 0.161 119 105 79 0 0
-0.1438 -0.1095 -0.5922 -0.436 -0.815 0.383 108 94 67 0 0
-0.1452 -0.1110 -0.5947 -0.529 -0.730 0.433 88 74 48 0 0
-0.1282 -0.0835 -0.6663 -0.707 -0.674 -0.215 13 12 10 0 0
-0.1258 -0.0787 -0.6881 -0.336 -0.936 -0.103 9 8 6 0 0
-0.1412 -0.0967 -0.7075 -0.248 -0.783 0.570 37 32 29 0 0
-0.1514 -0.1033 -0.7859 -0.727 -0.600 0.334 92 82 57 0 0
-0.0439 -0.0092 -0.2348 -0.175 -0.945 -0.275 105 100 94 0 0
-0.0438 -0.0089 -0.2364 -0.175 -0.973 -0.150 104 100 92 0 0
-0.0437 -0.0086 -0.2381 -0.326 -0.942 0.084 103 99 89 0 0
-0.0779 -0.0473 -0.2975 -0.320 -0.760 0.566 49 43 39 0 0
-0.0882 -0.0579 -0.3282 -0.269 -0.887 0.376 46 38 21 0 0
-0.0889 -0.0587 -0.3294 -0.430 -0.890 0.151 40 31 17 0 0
-0.0943 -0.0642 -0.3462 -0.238 -0.790 0.565 50 41 30 0 0
-0.0937 -0.0617 -0.3667 -0.420 -0.859 -0.292 27 21 14 0 0
-0.1267 -0.1022 -0.3855 -0.477 -0.878 0.027 84 72 48 0 0
-0.1240 -0.0962 -0.4160 -0.359 -0.925 0.125 84 69 47 0 0
-0.1236 -0.0948 -0.4266 -0.426 -0.892 0.152 120 108 85 0 0
-0.1294 -0.0981 -0.4765 -0.658 -0.674 0.336 69 59 41 0 0
-0.1291 -0.0976 -0.4786 -0.499 -0.595 0.630 96 81 57 0 0
-0.1362 -0.1056 -0.4904 -0.605 -0.660 0.446 115 98 71 0 0
-0.1373 -0.1068 -0.4930 -0.543 -0.779 0.313 129 115 84 0 0
-0.1460 -0.1165 -0.5104 -0.287 -0.889 0.358 78 66 44 0 0
-0.1483 -0.1181 -0.5265 -0.532 -0.836 0.134 98 82 52 0 0
-0.1444 -0.1086 -0.5812 0.205 -0.978 0.039 110 96 76 0 0
-0.1447 -0.1087 -0.5848 0.030 -0.999 0.045 132 115 85 0 0
-0.1471 -0.1086 -0.6214 -0.115 -0.984 -0.134 99 88 69 0 0
-0.1293 -0.0823 -0.6664 -0.707 -0.674 -0.215 14 11 10 0 0
-0.1275 -0.0782 -0.6876 -0.336 -0.936 -0.103 8 8 6 0 0
-0.1417 -0.0947 -0.7063 -0.510 -0.519 0.686 36 32 28 0 0
-0.1430 -0.0964 -0.7067 -0.360 -0.841 0.404 41 36 32 0 0
-0.1664 -0.1250 -0.7207 -0.613 -0.700 0.367 130 112 81 0 0
-0.1664 -0.1245 -0.7272 -0.387 -0.921 -0.044 130 113 78 0 0
-0.1791 -0.1318 -0.8347 -0.640 -0.626 0.446 100 86 59 0 0
-0.1912 -0.1452 -0.8588 0.366 -0.100 0.925 174 174 172 0 0
-0.0711 -0.0378 -0.2770 -0.407 -0.904 0.128 36 31 23 0 0
-0.0900 -0.0577 -0.3278 -0.409 -0.883 0.232 43 34 20 0 0
-0.0903 -0.0580 -0.3293 -0.430 -0.890 0.151 62 54 41 0 0
-0.1290 -0.1028 -0.3846 -0.333 -0.943 0.020 77 65 44 0 0
-0.1255 -0.0957 -0.4157 -0.233 -0.969 0.084 91 76 52 0 0
-0.1308 -0.0973 -0.4780 -0.269 -0.772 0.575 104 89 67 0 0
-0.1385 -0.1059 -0.4929 -0.543 -0.779 0.313 103 90 60 0 0
-0.1492 -0.1168 -0.5249 -0.453 -0.832 0.320 78 61 36 0 0
-0.1496 -0.1172 -0.5263 -0.532 -0.836 0.134 102 85 56 0 0
-0.1289 -0.0772 -0.6874 -0.372 -0.914 -0.158 9 9 8 0 0
-0.1276 -0.0753 -0.6911 -0.424 -0.753 0.504 10 9 7 0 0
-0.1282 -0.0759 -0.6925 -0.307 -0.746 0.591 20 16 14 0 0
-0.1405 -0.0906 -0.7051 -0.148 -0.203 0.968 30 25 23 0 0
-0.1450 -0.0962 -0.7078 -0.144 -0.395 0.907 45 38 32 0 0
-0.1707 -0.1206 -0.8085 -0.378 -0.824 0.422 56 44 23 0 0
-0.1731 -0.1229 -0.8164 -0.278 -0.905 0.322 55 42 25 0 0
-0.1740 -0.1240 -0.8172 -0.340 -0.894 0.292 64 50 30 0 0
-0.1804 -0.1305 -0.8370 -0.588 -0.717 0.375 95 83 53 0 0
-0.1807 -0.1308 -0.8387 -0.515 -0.718 0.469 115 100 66 0 0
-0.1813 -0.1314 -0.8402 -0.515 -0.718 0.469 118 104 71 0 0
-0.0725 -0.0371 -0.2768 -0.692 -0.682 0.237 52 46 37 0 0
-0.0729 -0.0376 -0.2782 -0.562 -0.417 0.715 64 59 54 0 0
