ply
format ascii 1.0
element vertex 674
property float x
property float y
property float z
property uchar diffuse_red
property uchar diffuse_green
property uchar diffuse_blue
end_header
-0.03118962606746846 0.12998863469391084 -0.7898304170128759 85 72 51
-0.030305987951973687 0.13112578663619753 -0.7908485656462673 66 54 31
-0.030146921834471693 0.13130756380782774 -0.7928230561128206 87 74 52
-0.030778852550317426 0.13044627574044057 -0.7958499120889293 59 44 24
-0.029701477832803205 0.13183892782383513 -0.7966083433532225 68 55 35
-0.028845145499923133 0.1329401438766822 -0.7976572355900832 71 56 35
-0.02799625093682373 0.13403159062635508 -0.7987130014529966 66 51 31
-0.02727326766235247 0.1349570212585935 -0.7999347557552964 63 48 28
-0.02672620736254641 0.1356504593483109 -0.8013911782609436 87 72 51
-0.024742453401144227 0.13823878960258848 -0.8009076846958572 76 63 40
-0.023803714383964225 0.1394489268432692 -0.8018271089081286 86 73 54
-0.024924112124490208 0.13794308745633582 -0.805536934899253 79 66 48
-0.024948288498958276 0.13788308300170385 -0.8077665394383287 73 60 42
-0.02419754148858888 0.13884524116239136 -0.8089422711656755 71 58 42
-0.023508119702062402 0.1397265322135156 -0.8101995343207482 48 36 24
-0.02285284756995945 0.14056279756099738 -0.811501724594431 46 35 21
-0.022307512157810558 0.14125405074971245 -0.8129534364073931 47 37 20
-0.021868633551452202 0.14180486735745024 -0.8145510781525742 55 42 26
-0.021142344976524063 0.1427348761586642 -0.8157512795543849 83 68 47
-0.020990865352932667 0.1429065181608135 -0.8177461047144188 102 86 64
-0.02075224455637671 0.14319311106196914 -0.8196218466990832 118 106 81
-0.020424125900261825 0.14359777675686616 -0.8213742607066419 110 97 71
-0.020721624806013278 0.1431769132639444 -0.8240015930574844 99 86 58
-0.02040079343912722 0.14357191426982358 -0.8257680111047726 97 82 53
-0.02001014755360292 0.14405903386201488 -0.8274371587923829 108 93 62
-0.01977699181167257 0.1443383148088508 -0.8293284024104186 130 114 83
-0.01955760564250479 0.14459940519784498 -0.8312405447128035 132 117 86
-0.01670458644032405 0.14833625309613896 -0.8294253723606756 112 98 70
-0.018560811176229874 0.1458580109093297 -0.83427734631175 92 77 51
-0.01808287530711318 0.14646031755750194 -0.835824093347678 94 81 47
-0.014662935893879653 0.15094580478949074 -0.8331720365845738 97 82 50
-0.01401432786551933 0.1517735416447995 -0.8344628347185719 105 90 59
-0.013860896566120884 0.15194766426106565 -0.8364623302865022 120 106 74
-0.015766600351764026 0.14940359399000677 -0.8414255644382749 116 99 66
-0.015575742074785195 0.14962697232198835 -0.8433829377163234 130 111 78
-0.012934259434117551 0.15308551688246272 -0.8417988837709727 134 117 81
-0.013959279269514097 0.1517037687672014 -0.8455131515316572 135 119 86
-0.01183461166221128 0.1544802410554355 -0.8446606614959609 128 112 80
-0.011862572581783151 0.15441477519712937 -0.846932089297619 127 111 76
-0.012090104086595665 0.15408576373448116 -0.8494985272241351 140 123 88
-0.010225036357814313 0.15651973782240008 -0.8490047896061899 135 118 85
-0.010508409061839558 0.15611696589156196 -0.851655228700013 129 117 84
-0.010134618420566455 0.15658190131384792 -0.8533434908629393 110 107 80
-0.008960789596584084 0.15810331157972318 -0.8538511699136385 72 74 58
-0.008491879659625085 0.1586938888509632 -0.8553964185285681 35 36 29
-0.007664242482273639 0.15975821792102723 -0.8564090635767015 45 45 35
-0.00026465501280391324 0.16930267940013555 -0.8632200897222323 193 193 191
0.0018198252913229629 0.17202779160209997 -0.862293411361692 198 197 195
0.001639637454577389 0.171761152807786 -0.8648014009458569 199 198 196
0.002186362823813598 0.1724548354534941 -0.8662046515289813 198 197 195
0.00569074486431298 0.1770562668212512 -0.8630814537292911 198 197 195
0.007767001551395147 0.17977105618408004 -0.862124975888261 202 202 200
-0.13041147852800797 0.004556301077993513 -0.28357565199886337 178 180 179
-0.12663244185841682 0.009486648812574577 -0.2837117704307767 171 170 165
-0.12345786238281076 0.013624804282421549 -0.28408707999830773 144 139 129
-0.11970924437325861 0.01851570439625709 -0.2842047450077985 123 114 100
-0.11707180656953303 0.0219500441306643 -0.28478140230595367 99 88 71
-0.11649884274055256 0.022677888363610718 -0.28623529194052294 57 45 30
-0.11381578744032139 0.026172267430063192 -0.2867754154698168 51 41 30
-0.11269864049711512 0.027613697639044976 -0.28798570470789026 51 41 32
-0.11175202590136299 0.028831580910865753 -0.28926710855751064 63 54 38
-0.11047625617798969 0.030481086723149933 -0.29040100537765595 86 76 56
-0.1099080087599285 0.031202929412831176 -0.29184367145269446 99 87 66
-0.10936292398354035 0.03189441107322588 -0.29329582585347574 96 84 65
-0.10857355198371632 0.032906234868032805 -0.29463797820051213 104 92 74
-0.10722690330645987 0.034648857575646036 -0.29572750920083196 110 96 77
-0.10678106592703206 0.03521025453790866 -0.2972198542086815 106 93 70
-0.10576854452402161 0.036514801790708165 -0.2984542342440381 107 95 68
-0.10507580898867522 0.03740001378948317 -0.29983182531684577 110 100 72
-0.10495927639883729 0.03752957609293031 -0.3014729000717128 97 84 60
-0.10396086201024869 0.03881570555340483 -0.3027077169216973 111 97 72
-0.1020899273366603 0.04124621453879525 -0.3035340496101254 122 108 78
-0.10199657922480498 0.04134540070834827 -0.3051836370165235 137 124 85
-0.10236995283526207 0.04083241326551934 -0.3070539908810594 144 127 88
-0.10131994630012389 0.042186328316263566 -0.3082560300118931 145 127 87
-0.10032656520657068 0.04346601407507569 -0.30948170476457315 167 150 106
-0.09898278754322584 0.045205357120677886 -0.310537187773349 157 139 104
-0.0979145397429709 0.04658334204407079 -0.3117201248960813 144 124 94
-0.09685618820621826 0.04794839139459142 -0.3129044784845929 153 135 107
-0.09581100732321825 0.049296208862159796 -0.31409190442410084 146 129 101
-0.09522356208288989 0.05004359430696634 -0.3154991214018985 153 139 106
-0.09392803740482586 0.05171990539131639 -0.3165585734104144 188 175 142
-0.09261540373014382 0.05341872405673448 -0.3176050789162176 210 193 164
-0.09110632986419587 0.055375324925386285 -0.3185497614416939 134 113 84
-0.09013313376428703 0.056628941982672015 -0.31975534893118573 167 146 110
-0.0890644881075984 0.058007830336611166 -0.32091030398756076 181 163 129
-0.09036710272865689 0.05627555453396843 -0.3232532161509967 143 128 98
-0.08836200548248788 0.05888315746121352 -0.323934497501794 97 83 57
-0.08810027609278714 0.05920336610855742 -0.32549235614136607 101 87 66
-0.0876265332227826 0.059801759778170566 -0.32694276047531184 98 88 69
-0.08748779626840038 0.059960567853199656 -0.3285644817423609 88 78 61
-0.08748764476772541 0.05993750283533013 -0.330258898328207 72 59 43
-0.08887802058546401 0.05808967826265185 -0.3326751648283246 67 54 40
-0.08647069429534385 0.061225430049249824 -0.33312490096201525 55 40 23
-0.08575313780970541 0.06214378891441878 -0.33444773530999933 114 99 72
-0.08542293472153804 0.06255382167284398 -0.3359724132214822 212 199 165
-0.08449216863031958 0.0637520283326868 -0.33718038945491247 228 214 181
-0.0840034087883938 0.06437016841188144 -0.3386200879118072 122 102 76
-0.08396050292365267 0.06440314520471133 -0.34029695956432493 60 42 21
-0.08406405403693089 0.06424387160284373 -0.34205408478517174 52 35 17
-0.08320564884401321 0.06534716929758953 -0.3432960770662831 56 40 26
-0.08370757342612711 0.06466496376510932 -0.3452712856999395 55 40 29
-0.08382286226140329 0.064490197093912 -0.3470410527415011 51 35 24
-0.08376996171354492 0.06453616740511862 -0.34872164353302987 56 41 26
-0.08352778998209585 0.06483056625392263 -0.35030019445848154 68 53 36
-0.08345922091308663 0.06489706283749386 -0.35197521503847495 73 58 35
-0.08326528364207891 0.06512811360574024 -0.35358252158415215 89 75 49
-0.08396344139437814 0.0641880173949422 -0.35568713476476377 105 91 63
-0.08472152670384132 0.0631691686753656 -0.3578309312254487 106 93 62
-0.08475324392529472 0.06310385729411805 -0.35957289973791073 95 83 55
-0.0856285766663187 0.0619309355901133 -0.36179297876553035 74 61 41
-0.08757219069530942 0.05935534201704315 -0.3646250896423614 62 49 31
-0.08802177547049336 0.05874119278825521 -0.3666188785376683 96 81 57
-0.08837751327452516 0.058250203948357976 -0.368563440066462 116 99 73
-0.08867687066448415 0.05783319042978918 -0.3704795712177218 109 92 63
-0.08883580235575504 0.0576005160343918 -0.3723183285640668 98 81 49
-0.08836841329352986 0.0581902303029673 -0.3737969006922796 121 108 75
-0.08875174117631222 0.0576628322517105 -0.375770595342171 112 98 68
-0.08740733223849678 0.059404213510137124 -0.3767376306572384 110 96 68
-0.0879585792177948 0.05865624963145627 -0.37881372970749816 103 89 62
-0.08823930372124528 0.05826348203979523 -0.3807351648240196 94 79 57
-0.09019909310334412 0.05566556172738685 -0.38365580674295985 78 65 45
-0.09018954318668726 0.05565385976265147 -0.3854160185337631 87 74 54
-0.0906716542130264 0.05499639880027288 -0.38747245106621075 94 82 59
-0.09076321020430464 0.05485182884639325 -0.3892989041938831 91 79 54
-0.08992106935648166 0.05593357544460517 -0.3905644710839237 91 78 52
-0.09100128166680042 0.05449039242040965 -0.39299304080150343 94 82 55
-0.09134609300230986 0.05401305804474281 -0.39498175945202685 91 79 53
-0.08839564203304472 0.05786415181961102 -0.3949593704119117 91 79 53
-0.0882714797621538 0.058002864313997815 -0.3966592766485905 94 82 56
-0.08858148226966775 0.05757122842102658 -0.39862849810533235 95 83 56
-0.08871281780801218 0.057374247200786196 -0.4004908545535681 94 83 55
-0.0888444482287786 0.057176839134050944 -0.40235626876153596 101 89 62
-0.08919394004448697 0.05669318029361191 -0.4043607006213411 99 87 61
-0.08928734451540887 0.0565459050367505 -0.406208477599174 92 80 56
-0.08981907626893763 0.05582271655145102 -0.40833519472507174 88 76 54
-0.08947022363208229 0.056256406947343185 -0.40990961052916747 88 75 56
-0.09168010856361983 0.053328223168022104 -0.41311073850672747 87 74 55
-0.09157523708585262 0.05344123958090849 -0.41484842359164653 79 66 48
-0.09200483196648306 0.052851970090330325 -0.4169303546129981 69 56 40
-0.09025965085172401 0.05512027106471029 -0.4176168763815594 82 69 54
-0.0907726965326626 0.05442130113673346 -0.4197559471531703 126 116 98
-0.09125063861143928 0.053768390987601916 -0.4218772272485576 110 99 80
-0.09139814491484614 0.05354964071489124 -0.42378792999808357 84 71 52
-0.09140250983003124 0.05351895642350163 -0.42560796808025986 74 62 44
-0.08861899751257489 0.05710215924168546 -0.42922826614587495 72 62 54
-0.08884788662179066 0.05677636599187644 -0.4311991377269872 47 38 36
-0.08820320292610499 0.05759868367174617 -0.4325897940675294 32 26 23
-0.08750152536400828 0.058495929559156334 -0.4339409313053491 30 27 25
-0.08710501071475789 0.05899209107509301 -0.4354960479925979 32 28 25
-0.08652605809072524 0.05972805498795766 -0.43692783900975574 30 25 22
-0.08594738071993371 0.060463669807153675 -0.4383588904574489 28 23 20
-0.085257907875643 0.061344939498270495 -0.43971346470199724 26 20 17
-0.08472558743417219 0.062019645410525376 -0.44117409407709895 36 28 26
-0.08204238105221635 0.06552189188967492 -0.4411555320618921 48 40 38
-0.08326355704540277 0.06389150403639407 -0.4438190650101552 53 45 43
-0.08871358995854858 0.056701462680449344 -0.44942185791018596 55 49 46
-0.08320375310389572 0.0639199490045923 -0.44743244049787256 31 27 23
-0.08521123389649195 0.06125549772288108 -0.45066529888406015 42 38 35
-0.08068503402283526 0.06718120845262562 -0.44932996972597844 48 44 40
-0.07820352992821891 0.07041883185806411 -0.44941126670492515 54 49 45
-0.07598995330070744 0.07330432760849609 -0.44967040824963883 59 54 51
-0.07385276491514108 0.07608951896438852 -0.44997370015719335 67 62 59
-0.0717231117980587 0.078864934375312 -0.4502727146959202 61 55 50
-0.06973427649498588 0.08145531067245665 -0.45066281268693237 65 59 49
-0.06756289867535517 0.08428585343998336 -0.450913004808987 83 77 65
-0.0658853703034711 0.08646709687430439 -0.4515092393341913 86 79 70
-0.06523891267916547 0.08729249249356096 -0.45284434247734284 84 77 69
-0.0712178059224076 0.0794047511035005 -0.45899029138589376 79 69 58
-0.0713070938211675 0.0792623044389654 -0.4608777039388477 74 64 49
-0.07241451854940326 0.07778076522510625 -0.463513123444377 86 77 62
-0.07589220013416498 0.07318165377312122 -0.4678986432628427 86 77 64
-0.07603080272192972 0.0729740594210534 -0.4698431997366439 101 92 79
-0.0731705577137391 0.0767108575002955 -0.46957048208438307 106 96 84
-0.07105146406822531 0.07947296805752452 -0.4698347630297479 109 97 85
-0.06931681331377962 0.08172951746890485 -0.47037617977825164 100 89 77
-0.06664496185197484 0.08521899522691004 -0.47020821400685964 127 116 100
-0.06291652975852542 0.09009855195754057 -0.4692331385031507 138 123 103
-0.059242173249677094 0.09490723077310252 -0.4682799922824703 148 133 105
-0.054292503285879604 0.10139390397053932 -0.46634231188228265 156 141 107
-0.053465895196605315 0.10245667634725115 -0.4675133066634513 182 166 132
-0.052939928974891595 0.10312394930898035 -0.46891127546704076 179 161 128
-0.051675538810935714 0.10476275287443294 -0.4697429079498529 164 147 109
-0.05040397176736518 0.10641106715526896 -0.4705640664439554 165 147 109
-0.0497727175955704 0.10721696097292437 -0.47187433090321895 139 121 90
-0.04911652515860863 0.10805568670963706 -0.47316393135857837 120 105 79
-0.04871154255167874 0.1085638848198842 -0.4746473298070272 116 100 77
-0.04797559149855115 0.10950759322714128 -0.47587242701337285 123 107 82
-0.04675784827180001 0.11108532063074791 -0.47671825039881277 121 105 82
-0.04613224690524269 0.1118838879474444 -0.47802478059158066 96 81 63
-0.04621220496786218 0.11175396943266774 -0.47988660528283933 88 74 60
-0.04564021977261434 0.11248198527427791 -0.4812349615378463 84 72 56
-0.0452860880354725 0.11292330647611691 -0.482755420360813 83 72 54
-0.04478275842887035 0.11356098403449649 -0.4841571173423085 74 63 45
-0.044120086874582715 0.11440838678830027 -0.4854306361848701 72 59 42
-0.04306383614040743 0.11577383248747157 -0.4863864078741397 77 64 47
-0.04343912054374509 0.11525511388964911 -0.48849255937584907 91 78 61
-0.04307049787617893 0.11571550988998136 -0.4900012231782246 106 93 73
-0.042762689610779524 0.11609585373372035 -0.4915594264284564 94 82 59
-0.04260354460360405 0.11628049904291085 -0.49323929971793584 91 76 53
-0.042002477192320885 0.1170468638592225 -0.49455908387503 81 66 43
-0.04247180480703381 0.11640415425949642 -0.49675630753642397 86 71 48
-0.042111989920430484 0.11685290949913042 -0.4982755525077525 78 63 40
-0.041557725674202274 0.11755765482063397 -0.4996342511733778 81 67 43
-0.04183440549429667 0.11716844007447934 -0.5016814108543403 87 71 46
-0.04152607671200131 0.1175493831900583 -0.5032454471125184 92 74 50
-0.04119480520480414 0.11796052616462224 -0.5047908280330713 78 60 38
-0.04124900477560842 0.11786412831091679 -0.5066597967593859 84 67 42
-0.041121311551768305 0.11800719294667573 -0.5083783705669966 88 72 48
-0.040951766988060606 0.118205343335175 -0.5100631910717551 73 56 37
-0.04121106533441965 0.11783878145174942 -0.5121127252056041 64 48 28
-0.04102802867198527 0.1180546443055528 -0.5137900267432609 81 66 43
-0.0407913059679474 0.11834118709475037 -0.5154227876144666 85 69 47
-0.04024319095221854 0.11903779153519603 -0.5167898773709366 81 66 45
-0.03998952666211565 0.11934663207134703 -0.5184090608099091 80 65 44
-0.04010691210300314 0.11916679262025673 -0.5203490063688769 84 69 47
-0.03969185266200867 0.11968815672079822 -0.5218313710851005 64 48 27
-0.03970704250236681 0.11964285363358002 -0.5236871454232482 59 41 23
-0.039559964614641396 0.11981124139949698 -0.5254040292982057 68 52 32
-0.03951326339744539 0.11984739719766849 -0.5272101527402924 68 54 31
-0.03958699922490916 0.11972488520870123 -0.5291240156290911 84 69 45
-0.03957224007197607 0.11971890304809209 -0.530962822740519 89 72 48
-0.039020533594322504 0.12042019713111005 -0.5323297493703664 79 63 36
-0.03902419497786026 0.12038990813203904 -0.5341878762384004 71 56 26
-0.0392449647584579 0.12007357625969402 -0.5362414613329234 88 71 43
-0.039190901608611786 0.12011925803458352 -0.5380535912260193 88 71 43
-0.038986598830525646 0.12036284313376308 -0.5397333156352929 99 82 53
-0.03873112381313144 0.12067383060170413 -0.5413682570484458 123 105 72
-0.03852488212237262 0.120919939987603 -0.5430484395113331 112 91 59
-0.03873987577580251 0.12061102786295629 -0.5451106905350614 107 86 55
-0.03898604165039417 0.12026099176980784 -0.547204953064952 127 107 75
-0.038734693272614015 0.1205664511728813 -0.5488502501566461 124 105 72
-0.03853231564956125 0.12080736978108345 -0.5505411822818594 122 103 68
-0.03824921209464917 0.12115464703994261 -0.5521593450216515 138 119 85
-0.038970645266228426 0.12017816112415851 -0.5547018431718593 111 92 60
-0.03871387726909441 0.12049067110426233 -0.5563488045380395 128 109 79
-0.038503610227780524 0.12074188723232292 -0.5580396906723966 144 128 93
-0.03865343417514128 0.12051852304286531 -0.5600661361903649 148 132 97
-0.03914648874727114 0.1198427540360699 -0.5624157465173627 139 124 91
-0.03806485970271184 0.12124231912639954 -0.5632989099163735 127 112 80
-0.037416831433860334 0.12207044385311824 -0.5645845429691566 113 100 75
-0.09277817583194094 0.04896060882354386 -0.6268522171806366 52 43 34
-0.09223432622200953 0.04964902959962561 -0.6284098998875479 52 44 36
-0.09234858740203036 0.04946985583859942 -0.6305983653231089 54 47 40
-0.08991918825621595 0.05264411236117894 -0.6303418398711764 43 37 30
-0.08815838188062622 0.0549370596577585 -0.6307185819112305 55 48 40
-0.08716976509028325 0.05621202484507162 -0.631835176561798 57 50 41
-0.08589630798170694 0.05786259776565572 -0.6326714986560757 57 50 40
-0.0834589029379763 0.061047951951460094 -0.6323677193438898 65 57 47
-0.08249518356965582 0.062290304037991795 -0.6334929224201775 54 46 37
-0.08193608933598291 0.06299915314115045 -0.6350118713096881 71 62 53
-0.07981219038818921 0.06577146916343937 -0.6349896202016464 76 68 59
-0.07915540655096959 0.0666092312978531 -0.6364056291103463 68 62 50
-0.07748092481561415 0.06878910500771448 -0.6368120037008155 76 70 58
-0.07213128921371328 0.07581586562379206 -0.6335580245717785 76 70 58
-0.07093547409617722 0.07736482843482592 -0.634414415420568 75 68 58
-0.07009454626902177 0.07844580280055008 -0.6356209146438496 72 65 55
-0.06933853268985818 0.07941481723318103 -0.6369100086945166 82 75 65
-0.06939758616652174 0.07930881122916861 -0.6390173816535858 74 67 57
-0.06848372930248098 0.0804860444636547 -0.6401455503233935 75 69 57
-0.06475655294919709 0.08537424827667955 -0.6384212601665613 75 69 56
-0.06337203339108857 0.0871725400996797 -0.6390561448581411 68 62 50
-0.06278446681337468 0.08791961972742185 -0.6404971719238891 70 63 53
-0.060887256416269186 0.0903943797113658 -0.6405982408487708 67 60 50
-0.05892150421049158 0.0929596910577421 -0.640619632262004 72 65 55
-0.05761403376430729 0.09465668251989445 -0.6413083861647761 61 54 44
-0.05709702479136497 0.09531088040954266 -0.6428071996427591 49 42 33
-0.056799336652025995 0.09567572266420823 -0.6445324418673624 60 53 43
-0.056590748714537606 0.09592299439899465 -0.6463510066426388 64 57 46
-0.05522148706820762 0.0977016998069214 -0.6469620385779604 74 66 54
-0.05524175662628819 0.09764700840964868 -0.649018737600972 96 86 70
-0.05431088331846913 0.09884734869132367 -0.6500814972137585 91 80 61
-0.053927469331428904 0.09932531532950994 -0.6517164827903448 90 77 60
-0.052851507307873385 0.10071718449691394 -0.6526214685304819 77 64 50
-0.05218561696991511 0.10156795120715459 -0.6539559562073175 98 84 71
-0.051891302020642446 0.10192836513819944 -0.655683077550402 66 52 39
-0.05103184284224212 0.10303462336405275 -0.656809627120778 34 22 8
-0.046999510008171444 0.10832849886615914 -0.6545466141327868 58 46 31
-0.046170553395550484 0.10939471778143867 -0.6556898314072451 92 81 62
-0.04559162661547293 0.11013096002084155 -0.6570988927697666 86 75 54
-0.043069976733524806 0.11343149489173848 -0.6564142875079709 72 59 41
-0.0424276907458353 0.11425148593672604 -0.6577464738624258 64 49 34
-0.04178595247695854 0.11507077411163805 -0.6590777871696574 59 44 32
-0.04114580401135884 0.11588798375398152 -0.6604093625457328 58 44 34
-0.04052084844169136 0.11668515697870033 -0.6617560432623025 64 52 39
-0.0400825432488182 0.11723593964521387 -0.6633054678393344 70 57 40
-0.04373326011866285 0.11238835687919335 -0.6693396072990466 67 52 35
-0.04311811878382349 0.11317242751116857 -0.6707076679542279 67 52 34
-0.03883387073282621 0.11880083832879984 -0.6680260016821309 64 49 29
-0.038680695898342776 0.11897515502437805 -0.6698906386573072 71 56 33
-0.04106705111494176 0.11579627547036361 -0.6745758640490054 90 75 51
-0.0408061591790409 0.11611266249840513 -0.6763324700682813 100 86 63
-0.04047477004300726 0.11652212538820106 -0.6780114076982023 85 71 52
-0.040143322414108576 0.11693165750514159 -0.6796908635662877 74 62 45
-0.03980505921379926 0.1173501820553779 -0.681363248448493 57 47 35
-0.04234878970014953 0.11396268500623308 -0.6862829311278672 36 26 17
-0.042938080876468346 0.11315607509507081 -0.6890140334607405 44 32 23
-0.04271250140461445 0.11342558044162893 -0.6908284406244678 48 36 25
-0.04225887746106553 0.11399625881903114 -0.6923849730534075 59 45 33
-0.03676734848898189 0.12122101367520258 -0.6881985301365928 59 48 37
-0.0371028268278286 0.12074964541458119 -0.6906399281215629 36 29 21
-0.03712938804742705 0.12068625438905153 -0.692732176180854 21 16 12
-0.038402277829338125 0.11897649726672352 -0.6962606571611439 20 15 12
-0.039138749793756866 0.11797518430858078 -0.6991818508885091 20 15 12
-0.03956499154154999 0.11738358846890037 -0.7017519941986813 23 17 14
-0.040399832857594936 0.11625212207672281 -0.7048018564210726 30 22 18
-0.03964653976817778 0.11721866286670499 -0.7060125030517183 37 28 22
-0.03892905571519936 0.11813792442912582 -0.7072627007610043 33 25 16
-0.03825140804615251 0.11900458083279142 -0.7085575213714764 54 47 36
-0.03653040282587851 0.121249811899522 -0.7086261345772786 79 71 60
-0.035455507441066944 0.12264145209166241 -0.7094463985593689 80 72 61
-0.035907254569656155 0.12201591283957233 -0.7120642522503697 74 66 56
-0.034762693695738256 0.12349966000977311 -0.7127983530562731 66 57 48
-0.03296579118551779 0.1258455122655971 -0.7127530688557315 71 62 53
-0.03167919581325031 0.1275171236705804 -0.7133059734757896 95 86 72
-0.030250500954574308 0.1293766071755614 -0.7136832871050762 84 76 61
-0.02743893103525709 0.1330637816347994 -0.7123977718898125 91 81 68
-0.027231297069743157 0.13330971864512445 -0.7142228663337373 87 77 63
-0.02682031659689045 0.13382439608473665 -0.7158045086539738 84 75 62
-0.023084028767942813 0.1387342413554503 -0.7133700753505248 84 74 59
-0.022820458580792152 0.13905423063620564 -0.7151189074753794 123 109 81
-0.02181682572492799 0.14035244078113074 -0.7159698821704551 136 119 90
-0.02030254130583449 0.14232572414786282 -0.7161947824024107 78 64 40
-0.019303874346935992 0.1436175055654891 -0.7170419314851686 101 89 58
-0.018503581669060284 0.14464709769004894 -0.7181280439584709 164 153 120
-0.01762033690140412 0.1457863906907389 -0.719109574860255 139 128 100
-0.0190054226625275 0.14392684791846477 -0.7228822725136307 80 68 45
-0.018377617344708594 0.14472840255329567 -0.724180730255217 72 60 39
-0.0176270103501273 0.14569234109809182 -0.7253255663907238 63 51 32
-0.017708305027222565 0.1455563644749551 -0.7275015876219124 98 88 64
-0.017543828475192924 0.14574531293934995 -0.7293748696299014 138 122 90
-0.017133973913382977 0.1462587018029243 -0.7309433348812796 139 120 82
-0.017990335667955396 0.14509770621101897 -0.734098212341302 150 133 93
-0.017656979871746734 0.14550987126110104 -0.7357672898493536 145 130 92
-0.01858405825508476 0.14425516908113417 -0.7390249167019676 107 92 60
-0.021081746881239996 0.1409232104257288 -0.744276247909339 101 88 58
-0.025449412586994194 0.13511784129940432 -0.7519171466230475 83 71 46
-0.02726768016821822 0.1326838263648541 -0.7563529726336985 71 60 39
-0.029301490959295906 0.1299645079424315 -0.7610791957356158 57 48 32
-0.03066873310857257 0.12812661506456013 -0.7649712553528345 50 41 26
-0.03454653587389303 0.12296773175620054 -0.7720920661189794 48 40 30
-0.03407520664720709 0.12356140753613662 -0.7736566602518695 38 29 22
-0.03563672039080053 0.12146596892829406 -0.7778394760098863 36 29 21
-0.03549044977528221 0.12162953853557287 -0.7798305625975838 39 32 24
-0.03486939007698271 0.12242119493043477 -0.7812087186143357 32 25 17
-0.034401856265919614 0.12300975780507156 -0.7827849167281599 37 30 21
-0.03367170399888475 0.1239457768471541 -0.7840188323863084 42 34 24
-0.03208116522281623 0.12602018619230196 -0.7841270118107949 43 32 22
-0.031065767693197563 0.12733372285578112 -0.7849800381084167 55 43 27
-0.03073874299281061 0.1277364765268459 -0.7867327584729322 52 40 23
-0.029748872040544383 0.129016317133807 -0.7876134631471281 59 47 29
-0.031219016699566504 0.12704092901783057 -0.7917380107816274 54 42 25
-0.030200279449394074 0.1283589583527149 -0.7925812892087643 45 33 15
-0.029183542847236663 0.129674398286413 -0.7934229835383579 43 32 13
-0.02816874601963021 0.13098732920676873 -0.7942630253948092 49 36 18
-0.027031598236469848 0.13246224672353338 -0.7949355374809095 59 44 27
-0.0260235025252033 0.13376643088016066 -0.7957756368557224 62 47 27
-0.026114184825595868 0.1336163573159799 -0.7980860203386768 59 44 25
-0.02501576948721801 0.13504015148469456 -0.7988001687752988 56 42 21
-0.02425229279403497 0.13602066259144535 -0.7999613460385557 63 50 27
-0.02336550276427267 0.13716444014440105 -0.8009532602397533 66 53 33
-0.022763257929660538 0.1379315898129534 -0.8023278088063048 79 66 48
-0.023476480415081644 0.1369573083690145 -0.8054902852466029 81 68 51
-0.022607191589343142 0.13807796000319592 -0.8065028993942414 73 60 43
-0.022300639978181658 0.1384536338126116 -0.8082817957935915 66 53 37
-0.021749185572457072 0.13915354078107292 -0.8097257941473002 66 54 39
-0.021197849404781435 0.1398533036371597 -0.8111690490978267 83 72 56
-0.02076031705781356 0.14040239396100362 -0.812768270338144 59 50 33
-0.020324243866686104 0.1409495531534602 -0.8143694371969313 52 40 24
-0.019734623105074595 0.14170003746494983 -0.8157577540360181 53 39 21
-0.019342385782304974 0.14218915739675145 -0.8174191433766849 71 56 36
-0.018728107212450357 0.14297231834366564 -0.8187714451823246 74 62 38
-0.01816384661164061 0.14368925794903467 -0.8201922366809727 77 64 38
-0.01860842502656955 0.1430701242461017 -0.823025014780049 110 96 67
-0.018344959011869263 0.14338865830923916 -0.8248699391812648 113 99 70
-0.018045936416919914 0.14375426964439372 -0.8266660228588304 97 82 52
-0.017951195327568753 0.14384928993673404 -0.8287514684895887 111 95 66
-0.01364250823830794 0.14952600711959693 -0.8248745485848615 121 105 76
-0.012888415413124257 0.1504945764990645 -0.8260134632241304 117 102 73
-0.017141608874422995 0.1448300878325273 -0.834275176131913 101 86 57
-0.01672119305585147 0.1453564321835968 -0.8359039918879858 90 76 41
-0.016339140070061958 0.1458319529254705 -0.8375877486852106 101 87 53
-0.011922981877311278 0.15165202249829154 -0.8334860293075742 109 95 61
-0.01477920996293948 0.14783736254781274 -0.8398119331808362 115 101 67
-0.014046899542227737 0.14877698200509346 -0.8409887657637706 133 114 81
-0.013205718327586283 0.14986088646715026 -0.8420059303243117 143 121 87
-0.01249639510060016 0.15077011541003432 -0.8432110778161144 142 123 84
-0.01202699829015716 0.15136144675941635 -0.8447627310799909 139 121 82
-0.009875806694518069 0.15418141846845668 -0.8438638986836267 139 123 88
-0.013578445140826068 0.14924404218784262 -0.8515025160493491 126 111 75
-0.014086060496802222 0.1485404638276506 -0.854493489971788 121 106 72
-0.015002977850844854 0.14729433557913058 -0.8580925643650712 161 146 113
-0.007738873072240013 0.15689088375615676 -0.8496587214061738 124 113 80
-0.008527513405480136 0.1558149221639259 -0.8530578060421549 109 104 76
-0.007535054225132454 0.15709962180700288 -0.8538306369485423 84 85 68
-0.006868182371179116 0.15795280848858426 -0.8550821660061236 34 36 28
0.004046414357934652 0.1721163189166514 -0.8610326924784819 197 196 194
0.0029878596853249173 0.17068192072264388 -0.864880272146705 199 198 196
0.003397324818535996 0.1711941877679094 -0.8664934276253706 200 199 197
0.007448560949398941 0.17653620558512848 -0.8625208554268211 201 200 198
-0.12792042355771277 0.00507908412769198 -0.28133660554923545 179 179 179
-0.12531598674600478 0.008478199145572546 -0.2819666361874557 172 171 165
-0.12228758516282714 0.01243492026442429 -0.2824073935394934 141 135 122
-0.12030699816863058 0.015014074866819632 -0.2832792359999903 136 128 110
-0.11711933782637138 0.019180546449003535 -0.2836290844269889 110 101 83
-0.11488101651474084 0.022098879315926523 -0.28437212634873416 64 53 37
-0.11306611418696381 0.024460551697485802 -0.2852886632370361 63 49 36
-0.11105373204644022 0.027082016950276594 -0.2861126824013158 60 46 35
-0.11004563911533347 0.02838289426308059 -0.2873665497989931 78 63 48
-0.10913180197730775 0.029559859522496054 -0.28865875485062586 97 82 60
-0.10846352346892052 0.030413918859908948 -0.29005668463184997 103 88 60
-0.1074520089556074 0.031719411718878224 -0.29130115306293036 113 96 66
-0.10688174738368937 0.03244460937917054 -0.2927392974004912 114 97 71
-0.10584736613223064 0.03378024994775218 -0.2939685812599393 100 84 63
-0.10489220714983737 0.03501173695629195 -0.295230437046805 102 87 66
-0.10388200638002872 0.03631566161153016 -0.2964646037212272 102 86 61
-0.10302148608698244 0.03742274792322475 -0.2977639486281271 111 97 66
-0.10220686588106162 0.03846949125448547 -0.2990820363524075 147 135 102
-0.10183031655570707 0.0389400149882054 -0.3005998473072474 141 128 98
-0.10186886940708334 0.03886448567227069 -0.3023100125631334 113 99 72
-0.09984609862645424 0.0415005935763869 -0.30306260536503593 112 98 66
-0.09978015536643611 0.041562543889857154 -0.30472308749981475 140 125 92
-0.10014350157525956 0.041059708466823636 -0.3065872569383783 125 109 78
-0.09944358827966486 0.041955650808382774 -0.30795221629429526 107 91 60
-0.09867091235549559 0.04294734502353134 -0.30928106671744354 128 113 76
-0.0973235376037934 0.044695187812702375 -0.31033327792393245 142 124 93
-0.09647135710053377 0.04579156378470958 -0.3116187302039469 122 105 77
-0.0953880269549439 0.047192109712588776 -0.31279022821905256 124 110 83
-0.09440556022972646 0.04845999078325165 -0.3140072648212668 161 144 117
-0.09279183760646796 0.050558540409943925 -0.31491319914460203 145 128 97
-0.09239713022673342 0.05105311815928751 -0.31641115883841386 169 153 126
-0.09134687968150178 0.052410327549671995 -0.3175858072753664 173 153 128
-0.08994867235201376 0.054225475954636906 -0.3185846564925304 160 136 108
-0.08898572355342921 0.05546790799683288 -0.31979531427148755 213 195 159
-0.08798174413624398 0.0567643790788719 -0.3209825510938133 195 178 139
-0.0883460194690258 0.05626020037710036 -0.322855406318555 158 140 101
-0.08726451021535397 0.0576587472933532 -0.32400072030475785 168 151 117
-0.08661497976724489 0.05848880637232093 -0.3253621774702161 146 131 102
-0.08568792626565681 0.0596841503619909 -0.32658053396848247 97 84 61
-0.08552701414333735 0.0598711375063052 -0.32818961135355235 65 54 34
-0.08543700044547319 0.05996478784564227 -0.3298364728237993 64 53 35
-0.08529913036896664 0.0601214075479051 -0.33146007408868444 81 72 53
-0.0851719704325524 0.060263910022652606 -0.33309057488809524 63 51 33
-0.08506408786361455 0.060381016544473254 -0.3347325469699669 77 62 41
-0.08403781423477812 0.061707061561386764 -0.33589263211504095 161 148 119
-0.0828784558977533 0.06320835033761053 -0.33697909391436043 176 160 127
-0.08394668316863878 0.06177715907618901 -0.33924548572816526 179 158 128
-0.08335665886661758 0.06252894946743272 -0.34063385866165025 162 143 114
-0.08268380836699116 0.06338979854094082 -0.3419767863592948 107 90 66
-0.08230979026901872 0.06385723242273782 -0.34347940990351666 79 62 43
-0.08431190685501196 0.061196208123807216 -0.3462694542224474 91 74 57
-0.08445771430863673 0.06097911836876388 -0.3480614138901489 79 63 45
-0.08174831222235145 0.06452141814034192 -0.3482945529822542 82 66 46
-0.0814433784871823 0.06489785871936213 -0.3498370412980038 79 63 42
-0.08140670380673375 0.06492105748694783 -0.3515281158526003 84 69 42
-0.08161429063091874 0.06462258388272984 -0.3533565565743291 101 86 58
-0.08216484905681455 0.06387242410183655 -0.3553792871979734 108 93 63
-0.08296869268572774 0.06278864518768182 -0.35754877500420085 111 97 65
-0.08272922709745391 0.06307872967416935 -0.3591376226227715 113 100 70
-0.0843000894432977 0.060984674821943585 -0.3617504086587964 87 72 49
-0.08575376228786001 0.0590448072603061 -0.36430695231970045 76 61 42
-0.08626359367556333 0.05834787014214354 -0.3663348432995058 106 91 67
-0.08656303191680378 0.05792796639737567 -0.36824694821026627 122 106 80
-0.08733250911181287 0.0568889146593491 -0.3704332953272161 115 99 69
-0.08751556913547671 0.05662217261647663 -0.37228669484121835 111 96 63
-0.08778860879394693 0.05623686522513173 -0.37419543956918305 128 114 84
-0.08830691117307576 0.055528438746315995 -0.37625085631604965 127 114 83
-0.08874751368994749 0.05492229249644327 -0.3782655855210958 121 108 77
-0.08675471806175666 0.057521609435865026 -0.3788520007628695 119 106 78
-0.08674452503182806 0.05750927958609019 -0.38060260076139146 99 87 62
-0.08720683669301037 0.05687444964265145 -0.3826359854637437 88 76 55
-0.08773047017757483 0.0561587657577626 -0.38471054814710715 91 79 61
-0.08863841589871602 0.05493669348300305 -0.38702038033632635 91 79 58
-0.08854217539858983 0.05503753398906891 -0.388732621965653 87 76 53
-0.08754716027382003 0.05632252069070749 -0.3899030180544199 87 76 51
-0.08838307479938566 0.05519516146130611 -0.3921823078397063 103 92 67
-0.08840910226510261 0.05513482598809631 -0.3939741597201108 103 91 67
-0.08594541408219654 0.05835504514309618 -0.3942428808391264 100 88 63
-0.09008283903840113 0.05287717153777398 -0.3985627063429681 91 79 55
-0.08927974908245276 0.05390922736694434 -0.39985339110284013 83 71 46
-0.0896707709841745 0.05336774527889053 -0.4018831645427448 82 70 45
-0.08881539963830211 0.05446871346411612 -0.40314021574064957 99 88 62
-0.08920110730636978 0.05393415816979995 -0.4051718847160495 102 90 65
-0.08913896992519053 0.053989751602144184 -0.40692622399933975 91 79 55
-0.08924056684918814 0.053829527215888406 -0.40878581667155156 93 81 59
-0.09032810820793574 0.052369816759778115 -0.4112734029365084 97 84 64
-0.08922193143591009 0.05380133076965979 -0.41237197324331776 92 79 59
-0.08900048598039964 0.05406678006420859 -0.41403261691538373 75 62 46
-0.09024175887259411 0.05240422087443153 -0.4166337263959611 65 52 36
-0.09012307572745758 0.05253412833586474 -0.418366639196038 92 80 64
-0.09063503172340757 0.05183272372533654 -0.4205095863395629 138 130 113
-0.08948151749380578 0.05332668307835092 -0.42157432037849907 148 137 120
-0.09002792649689521 0.05257978026313767 -0.42374526459647 99 88 70
-0.085267522562013 0.058722526844435824 -0.4296826381187942 47 40 35
-0.08452099739907089 0.05968018377202944 -0.4309988392066953 41 37 32
-0.08439182135632425 0.05982387514572765 -0.43272819529900314 35 33 29
-0.08417567340312528 0.060082222477942954 -0.434400382936891 23 20 16
-0.08457398657350747 0.059530319991604214 -0.43649007013833685 23 18 15
-0.08392899535899824 0.060354105487502835 -0.4378742521206624 27 22 19
-0.08398596887378056 0.060252235959411315 -0.4397367461236109 29 23 21
-0.08322755530472109 0.061225604649213894 -0.44104246240711564 37 29 27
-0.07910865929391307 0.06663070896129007 -0.44003169582920565 49 41 39
-0.08024417247387189 0.06510653761849167 -0.4426339588134484 51 43 41
-0.0812759345858803 0.06371907333048737 -0.44517273237935073 74 66 61
-0.08090397792022314 0.06418284680199784 -0.44674100870840516 90 83 75
-0.07818518951520674 0.06774193266205895 -0.4466670855539928 87 80 71
-0.07620466723569161 0.07032745261292644 -0.44709904496263203 72 65 57
-0.0755188528752936 0.07120536143460433 -0.44843554098202487 83 75 67
-0.0717523128782944 0.07614694295377805 -0.44758875007060456 96 88 80
-0.06978407364700444 0.07871666620826497 -0.44800176506657097 110 103 95
-0.06791009217023294 0.08116217856179594 -0.44847332361893516 114 106 97
-0.06615359003899839 0.08345283522455073 -0.44902083999744 104 95 83
-0.06408212518634661 0.08615910817989644 -0.44933420104684374 118 110 94
-0.062417231877916896 0.08832914437714186 -0.44993181439032004 120 112 99
-0.06101037607174173 0.0901588551701958 -0.4507094024054966 95 88 75
-0.06486262187495408 0.08505008748127983 -0.4553088432036477 92 81 65
-0.06580278020750373 0.08378313272949182 -0.457804634901422 84 72 55
-0.06553538539361622 0.08410934417193261 -0.4594223465921521 84 72 56
-0.06932882581668275 0.07907740455595597 -0.46403057641536594 82 70 55
-0.06810641183679353 0.0806635816099443 -0.4649554669761426 96 84 69
-0.06657673937133991 0.08265526944552441 -0.46564778401924967 82 71 56
-0.0649168254919574 0.08481891618048112 -0.4662367377571083 75 61 48
-0.06411444935947824 0.08585103184313837 -0.46745963359166787 67 54 42
-0.06166388587887124 0.08905825242191565 -0.46744346547911986 120 106 89
-0.05768380650283697 0.09428417136399855 -0.46626356279094433 143 127 101
-0.05406947848929118 0.09902768548670214 -0.4653398340486873 143 128 98
-0.052480308305588225 0.10109866444958861 -0.4659347542844587 150 133 104
-0.051892093108101084 0.10184864059149017 -0.46728539469384034 164 145 116
-0.050619439175273506 0.1035020124653031 -0.46811158792862584 145 125 95
-0.04958162962408941 0.10484548061713504 -0.4691130162036558 166 147 111
-0.048680973675940445 0.10600796429141537 -0.47021642953961396 156 137 100
-0.048023693313324727 0.10684923221458938 -0.47150513600549937 130 111 81
-0.047373087781400744 0.10768171104579273 -0.47279752033366246 127 110 85
-0.04672829532872696 0.1085065375757928 -0.47409296594866523 125 108 85
-0.046302515593140796 0.10904225850271404 -0.47555821358530337 104 89 64
-0.04488980083941941 0.11088091259038517 -0.47624879020390953 127 111 86
-0.04409520999293051 0.11190359263630902 -0.4774203483748295 107 94 74
-0.044012954461714 0.11198583636561378 -0.4791527113806483 103 93 75
-0.04394932889448957 0.1120434563762325 -0.4809016608636661 96 84 67
-0.043207697038239117 0.11299625271231224 -0.4821126220076407 89 78 60
-0.04266511057340304 0.11368626086158176 -0.4834806498685357 81 70 52
-0.042079335864413175 0.11443330882990752 -0.48481317504235344 80 67 50
-0.04191468592559263 0.11462428796458192 -0.4864836027845556 78 66 49
-0.042003956625871114 0.11447994054329412 -0.48836051906134487 90 78 60
-0.04191041414947823 0.11457696781093983 -0.4900920206765645 99 87 68
-0.04140458324196699 0.11521843916215938 -0.4914897717638008 84 72 52
-0.04114010971070021 0.11554117210266454 -0.49308398917125384 75 60 39
-0.040738386582231584 0.11604515803534113 -0.4945664766490564 75 60 39
-0.04106386405174439 0.1155887067324935 -0.49664708319932066 81 66 45
-0.040727042585714045 0.11600694200219 -0.4981851990256053 84 71 50
-0.04017366411570739 0.11671120485881241 -0.49954425784681566 81 69 46
-0.03966520397198024 0.1173561504270162 -0.5009397304560871 85 69 45
-0.039895848785875876 0.11702481803460109 -0.5029511781755942 101 87 63
-0.03978545774162344 0.11714392237690562 -0.5046807819782649 86 69 47
-0.03955409603085425 0.11742280330059801 -0.5063104290999833 66 47 24
-0.0395249073376199 0.11743459227628761 -0.5081115140602959 67 50 31
-0.039495699092568004 0.11744637524778634 -0.5099147534869662 50 34 19
-0.039313461161198826 0.11766029723837311 -0.511590231688485 55 40 22
-0.03938665756466321 0.11753672951270436 -0.5134846261890536 75 58 34
-0.039231220500727165 0.11771519351175777 -0.5151863233159237 92 77 53
-0.038584692401286244 0.11854249190840649 -0.5164680968654134 73 58 38
-0.0384976500648688 0.11863056548088718 -0.518230093090865 63 48 28
-0.03833815263026673 0.1188143497995673 -0.5199313382842751 74 59 38
-0.03838328520597882 0.11872771846501676 -0.5218114077527138 72 57 36
-0.038250406266156306 0.11887627773859226 -0.523539261935169 87 71 50
-0.03821286169977846 0.11889883208231851 -0.5253519221019529 86 70 49
-0.038175172230472676 0.118921546255555 -0.5271666146441744 81 66 44
-0.03810791688658896 0.11898330179271085 -0.5289574830312351 89 73 52
-0.037999199824908486 0.11909982413639783 -0.530713773233027 82 67 44
-0.03718116405407183 0.12015379066946728 -0.5318440867134101 74 59 33
-0.038008271273239205 0.11903342141089145 -0.5344327183622771 85 70 42
-0.0374333676070502 0.11976603279068679 -0.5357795625345597 91 74 46
-0.03760992854678187 0.11950538819508331 -0.5377971650462584 88 71 43
-0.03731576027186834 0.11986691431101 -0.5393959858818935 96 79 50
-0.03785213024255589 0.11913056774431939 -0.5417429880278116 112 94 61
-0.03704266579207735 0.12017321555249774 -0.5428802358653714 121 101 69
-0.03736179814079478 0.11972394144751984 -0.5450376668987026 113 92 61
-0.03718759464131165 0.11992679486445898 -0.546750936529299 123 103 70
-0.03737658535564928 0.11964946791937818 -0.5487968995999611 122 103 70
-0.03704810823140965 0.1200562287365029 -0.5503728278978521 102 83 51
-0.036764818813129624 0.12040323873135322 -0.5519906943528463 122 103 72
-0.03729769063482985 0.11967112422749535 -0.5543612840702735 121 102 73
-0.037310233497513126 0.11962691901152446 -0.5562565701456915 131 112 81
-0.03700695984819043 0.12000027197067081 -0.5578614677538498 147 131 96
-0.03721838526691684 0.11969302064915023 -0.5599459431922278 142 126 92
-0.03772080061162855 0.11900091996358504 -0.5623058746106204 147 131 98
-0.036514564590615445 0.12056827083175237 -0.5630708086995879 117 102 71
-0.03577888092388973 0.12151341114720915 -0.5642730262681075 119 105 80
-0.09180260237103291 0.04727277549286921 -0.6272862067813482 61 51 39
-0.09142439812141928 0.0477425316774803 -0.6290040645667624 75 66 56
-0.08943034625888148 0.05034967787534628 -0.6291686542818473 74 66 58
-0.09034796998374388 0.049105354275461005 -0.632132236997259 54 47 40
-0.09004403792608305 0.04947685627135326 -0.6339221301460278 54 47 39
-0.08533926977524837 0.055670245940547536 -0.6314402558156795 67 60 52
-0.08313210469225157 0.05855981371360697 -0.631364357289789 55 48 38
-0.08244020407644259 0.05944484986437723 -0.6327579751688287 70 63 53
-0.08083872872805857 0.06153331825389011 -0.633258372013719 58 51 41
-0.08004064108610295 0.06255893850189295 -0.6345414999375288 67 60 50
-0.07717732212721466 0.06631717736888795 -0.6337849140306933 75 68 58
-0.07858133755570536 0.0644291729484309 -0.637236366940752 71 65 53
-0.07163299590535928 0.07359308768027267 -0.632406859409521 76 70 58
-0.06823700199939359 0.07805686796214806 -0.6310743579821635 74 68 56
-0.06740749694176028 0.07912463051546018 -0.632287431231831 72 65 55
-0.06751874530266806 0.07894746644404152 -0.6344408995572023 74 67 57
-0.06703666735380517 0.07955546944560415 -0.6360012032139267 80 73 63
-0.06643874351568207 0.08031679506922046 -0.6374443169351678 76 69 59
-0.06540442134001458 0.08165571340341393 -0.6384447895705534 66 59 49
-0.06376039885583916 0.08380166025909067 -0.6388225500625905 66 60 49
-0.06199945229026113 0.08610248165247392 -0.6390735103629104 57 50 39
-0.06083396577813793 0.08761524794203998 -0.6399241592349383 64 57 47
-0.058848460975985104 0.09021353795664863 -0.6399299068194897 44 37 27
-0.05710865078427159 0.09248673790722717 -0.6401781981568708 53 46 36
-0.056022546624463126 0.09389469232714381 -0.6410920273465459 52 45 35
-0.055720297057941154 0.0942650138664928 -0.642812264423939 50 43 36
-0.05492792096343578 0.09528419438137578 -0.6440248199543309 57 50 42
-0.054897627672992416 0.09529446500107192 -0.6460280392575221 78 71 62
-0.05460788605279486 0.09564820234953844 -0.6477629658387785 78 70 59
-0.05381688531678602 0.09666560667193472 -0.6489739050306236 89 79 65
-0.052770576585433715 0.0980210920453955 -0.6499143240354927 103 91 74
-0.052034052421935664 0.09896644462622767 -0.6511770793174423 79 65 50
-0.05139318362078664 0.09978516329593162 -0.6525388880801712 64 50 38
-0.05053671973448132 0.10088939690099785 -0.6536707511616399 81 67 54
-0.050316810579752735 0.10115070637950943 -0.655476610091964 90 76 63
-0.04649115485224749 0.10618712268366087 -0.6534382758277342 52 40 26
-0.04595452415172614 0.10686801824188388 -0.6548962200040848 40 28 16
-0.04518831479220303 0.10785298017701289 -0.6561070644083533 62 50 35
-0.0443363103152106 0.1089516068777801 -0.6572233100817002 93 82 64
-0.04359156994104507 0.10990820357170475 -0.6584525260664312 83 72 54
-0.04141490335402005 0.11276148817889567 -0.6581291107195255 70 57 40
-0.040863958425571154 0.11346151525309328 -0.6595598512949576 70 57 42
-0.04002763293772012 0.11453958314519083 -0.6606788355856331 45 33 23
-0.04331107856894777 0.1101602573589811 -0.6662965405218886 47 36 27
-0.04284662998716414 0.11074556639311206 -0.667831127239833 59 46 35
-0.04227232794022896 0.11147641248731949 -0.6692446670611425 71 57 43
-0.041682491173040695 0.11222785449523148 -0.6706400618342563 68 52 36
-0.042735695603803484 0.11080246933170085 -0.6738512670124106 66 50 32
-0.042410838577097876 0.11120278358684488 -0.6755437494438316 65 50 30
-0.042228778143463166 0.11141388533681407 -0.6773957222819746 72 57 35
-0.03934595483922315 0.11520356244692034 -0.6762358475434453 90 74 53
-0.039286953678169936 0.11525168567427196 -0.6782197376965515 109 93 75
-0.03872711316713982 0.11596345098296587 -0.6796438742169966 87 73 55
-0.03855584639772669 0.1161603003047735 -0.6815045125879334 50 39 26
-0.04110671577275568 0.11274967519160314 -0.6864403189792702 42 32 24
-0.040644953933590716 0.1133313289630572 -0.687984398805898 34 25 19
-0.0410443686559966 0.11277164726281655 -0.6905063038869392 39 30 22
-0.040276386805083456 0.11375912288736179 -0.6917039123384199 48 36 27
-0.03594313491074223 0.1194721266836894 -0.6888260090357269 57 44 35
-0.03570891893248372 0.11975235354026781 -0.6906186074133999 41 33 26
-0.035779807178004414 0.11962813964925684 -0.6927630713161155 22 17 14
-0.037254359812437285 0.1176432194155938 -0.6965286299134954 21 16 13
-0.03763820616746791 0.11710397530421154 -0.6990461904534363 22 17 14
-0.03820932542776043 0.11631638929656671 -0.7017862903953379 23 18 15
-0.03865870953076998 0.11569009164112065 -0.7043915635351743 25 16 16
-0.0387699368128019 0.11551202559497142 -0.7066084264745428 22 14 13
-0.03836022743622483 0.1160245744973297 -0.7082197006109953 29 21 17
-0.0374926715380821 0.11714416673791544 -0.7092940838311392 46 39 30
-0.03675665046331682 0.11808939870570534 -0.7105201643375035 55 49 40
-0.036146367547394295 0.11886793699683287 -0.7118924409455307 55 50 40
-0.03530486934108491 0.11995308992310966 -0.7129898988518482 71 64 56
-0.03374325157925022 0.12199321310766711 -0.713230098076556 67 59 52
-0.032204904935619436 0.12400259019655235 -0.7134902002041249 72 65 58
-0.03095851996794434 0.12562488871014596 -0.7140910590283897 85 77 65
-0.030159201646406328 0.1266543615960064 -0.7152212802869038 83 75 62
-0.027574999317002913 0.13005111081076723 -0.714206738240065 80 71 59
-0.025333286690525578 0.1329938270509363 -0.7135895434372777 81 73 60
-0.024533232100257152 0.13402455404200572 -0.7146999481836794 86 77 66
-0.021475964818228555 0.13804933498655592 -0.7130753751213385 86 76 63
-0.0210915410760789 0.1385289309602169 -0.7146772603743314 130 116 89
-0.021534067070449095 0.137911556228627 -0.7172860859770671 153 137 107
-0.021284099780878127 0.13821273764963793 -0.7190554104987383 82 68 46
-0.017695277813768798 0.14294330779438535 -0.716738040529711 73 62 38
-0.01703280785482407 0.14379188240513205 -0.7179916105205111 122 111 84
-0.015952330154942643 0.145195064142849 -0.7187287709397837 124 113 87
-0.017271783468883598 0.1434141404150634 -0.722424604240376 102 91 67
