ply
format ascii 1.0
element vertex 664
property float x
property float y
property float z
property uchar diffuse_red
property uchar diffuse_green
property uchar diffuse_blue
end_header
-0.22260076247620797 -0.10941492238734313 -0.8684536386541954 155 154 152
-0.22237749321796682 -0.11081688601967185 -0.8695580449360873 162 160 159
-0.21966091430069457 -0.11959590902030856 -0.8641234400766491 168 166 167
-0.21252721922596346 0.0247097683812664 -0.4512739718478677 186 186 190
-0.21156734718159392 0.020670478643633416 -0.4515405594254727 186 186 187
-0.21083922333387042 0.017437519548857416 -0.45212779800823777 187 183 174
-0.21024260778902534 0.014662637856572791 -0.4528958190498976 172 162 144
-0.2094767489737143 0.011305323360005781 -0.45341503297539376 159 144 110
-0.2086589821772271 0.007772038522556923 -0.4538518601549617 181 162 120
-0.20840420774821758 0.006186037747499151 -0.455093999347926 188 170 126
-0.2076622495212252 0.0029202407064800595 -0.45562722757976043 202 183 142
-0.20765215425412514 0.0021812097349374615 -0.45721782991055265 206 187 145
-0.20757380224557864 0.001207018624068551 -0.4587086837136257 194 175 133
-0.20608232386325165 -0.004633207451795657 -0.4581287124994866 156 136 99
-0.2056304548370293 -0.006889080340671289 -0.45906193349292657 130 112 74
-0.20581505849839332 -0.006953941899691007 -0.46092934292834564 146 127 91
-0.2055831898805719 -0.008451080561932195 -0.4621822831401323 128 109 76
-0.2053678879742588 -0.009890297988199681 -0.46345750703510813 157 140 107
-0.20523629073371794 -0.011041234932224475 -0.46485528554984057 127 111 77
-0.20597817069622867 -0.009195075384020479 -0.46755742492833685 96 81 52
-0.20557715133473317 -0.011270451137792098 -0.4685528556727897 91 79 58
-0.20932028784587042 0.0008545825831386689 -0.4757803268321814 104 100 91
-0.210731219623471 0.004977766441103287 -0.4795240558575296 168 168 168
-0.19723316072286068 -0.05486724037465027 -0.4902097015338176 200 201 203
-0.19700119282014647 -0.056332214329837704 -0.4913883967247276 156 154 152
-0.1967168814527961 -0.057972875921642325 -0.49248000427427274 96 91 80
-0.1963146109391549 -0.06001024642540623 -0.49337714687018863 85 77 62
-0.19564477995253737 -0.0629479278228077 -0.4938342825283662 87 80 64
-0.19484539554700542 -0.06631917864842493 -0.49407297868829225 93 85 67
-0.19448617339863428 -0.06820486236175236 -0.495025336925748 88 80 61
-0.19405154416146309 -0.0703427107912162 -0.4958501045273018 79 70 50
-0.1932877479175057 -0.07358555140399733 -0.49612758512570077 76 66 50
-0.19282818943886118 -0.07580264874824963 -0.49690079024422035 71 60 47
-0.19239719568564564 -0.07792180391391829 -0.49771681011619695 65 54 40
-0.19254291220833192 -0.07810354560483979 -0.49948842253847614 60 47 32
-0.19231271308182352 -0.0795467312668359 -0.5006339266997735 68 54 36
-0.19233559028729902 -0.08014065431640682 -0.5022008858942637 81 67 44
-0.19218707663747647 -0.08130876510095225 -0.5034802387081905 91 76 49
-0.192262452777182 -0.08172677751600604 -0.5051352253915976 91 76 47
-0.19240698839124887 -0.0819137665527567 -0.5069077992701213 88 74 44
-0.19248335933407762 -0.08232926347258612 -0.5085663182688018 89 74 45
-0.1924178679486174 -0.08321903205910045 -0.5099845237831824 93 77 49
-0.19235800251836974 -0.08408973038315096 -0.5114116631383189 97 80 51
-0.19219854732242622 -0.08529244266700842 -0.5126679719775892 103 84 54
-0.1921531664067474 -0.08611410265233407 -0.5141182484276565 110 91 60
-0.19222527903585346 -0.08654406608246906 -0.515770078605331 108 89 56
-0.19190866809091534 -0.08826875017692318 -0.5167523515773024 104 86 50
-0.19217225185689885 -0.08806133487283302 -0.5187347876603741 100 81 47
-0.19206097490469892 -0.08910167575713884 -0.5200697403914861 95 76 43
-0.1922778722676571 -0.08905090037074204 -0.5219743638140055 88 69 36
-0.1921644505392462 -0.0900981073309444 -0.5233049896490247 98 80 48
-0.1910547863970316 -0.09445129002954428 -0.5228918121189349 95 76 45
-0.19138442182517437 -0.0940258103895191 -0.5249924270207149 87 71 39
-0.19148509970691666 -0.0943606681591487 -0.5266935427715348 87 73 43
-0.19162027988019031 -0.0945816814316146 -0.5284565311279118 81 70 43
-0.19175483850158237 -0.09480534332177973 -0.5302197674053097 66 52 28
-0.19185620048452984 -0.0951394081678911 -0.5319254479708552 107 92 69
-0.1917767831833198 -0.09607153855582679 -0.5333105003344709 108 92 69
-0.19178610813193067 -0.09671014976243714 -0.534853089937513 87 73 50
-0.19167563868553744 -0.09774429468459056 -0.5361814406270581 64 50 33
-0.1916109235426199 -0.09862700078536776 -0.5375907776265231 52 39 25
-0.19127665518066386 -0.10039815570808053 -0.5385145056833076 50 35 21
-0.19248896090058074 -0.09707208707633727 -0.5422251048093016 69 53 35
-0.19286186617906906 -0.09651520221457244 -0.5444292307604204 66 49 30
-0.1932419830626388 -0.09593621933401869 -0.546650158807191 62 45 26
-0.19308877452309578 -0.09711263577423915 -0.5479047123475813 89 73 53
-0.19326271678626233 -0.09721332579978265 -0.5497544842453774 79 63 42
-0.19310512539408214 -0.09840350887637084 -0.5509995935241616 73 57 35
-0.19292142394469777 -0.09967868797975249 -0.5521952418700042 74 59 37
-0.19278549731864353 -0.10079638255018505 -0.5534769160316658 87 72 52
-0.19251202709430673 -0.10236426163740481 -0.554503597827482 85 73 52
-0.1923891551715105 -0.1034377077550811 -0.5558060092579127 95 83 62
-0.1929429665749301 -0.10229584185414389 -0.5583617713417992 88 75 54
-0.19359242177941913 -0.10084356819837123 -0.5611008597063163 90 79 56
-0.19432452807194212 -0.09912398281958376 -0.5640004875422339 107 96 72
-0.19511155921648915 -0.09722819385634993 -0.567010072149023 112 100 75
-0.19573614941443324 -0.09586609382179545 -0.5697230994914412 106 95 68
-0.19641208983495284 -0.09433922058661967 -0.5725388422815527 117 107 82
-0.19678552739809985 -0.09380142018678556 -0.5747914298602875 107 97 72
-0.19712778862683047 -0.09336681582791237 -0.5769888522325353 109 97 75
-0.19747847373524552 -0.09290628528740522 -0.579205642474292 97 85 60
-0.1974827655736895 -0.09357420589285276 -0.5807681608502896 91 80 53
-0.1976683048706772 -0.09365289139532973 -0.5826757975943281 80 69 40
-0.19763324515666375 -0.0944490947794685 -0.5841641856091605 73 59 30
-0.19655807097817468 -0.09862210603457994 -0.5836615720384974 85 69 43
-0.19684146086860746 -0.0983825048609516 -0.5857551308261812 88 72 48
-0.1971103039224729 -0.09819130940267465 -0.5878235299189958 103 91 68
-0.1972414162556621 -0.09844755912650727 -0.5896289492513253 93 78 55
-0.19779234246660954 -0.09734503858483298 -0.5922475248510252 69 54 32
-0.19782249592954412 -0.09793003431243921 -0.5938619112778428 93 78 55
-0.19777515818464805 -0.09876573628041682 -0.5953259691765646 78 64 39
-0.19791565822980772 -0.0989942511392497 -0.5971556113989201 77 66 38
-0.19799134918308386 -0.0994326627914256 -0.5988600310592647 92 80 49
-0.19805448243766607 -0.09991192919393213 -0.6005406069519034 124 107 75
-0.19777491930355268 -0.10149661107959956 -0.6015488365568682 112 97 64
-0.19822171727207047 -0.10073926286536503 -0.6039843012007751 119 105 75
-0.1985288569773172 -0.10043363347026074 -0.6061485731627267 127 112 79
-0.19891958077352145 -0.09986035165355073 -0.6084812987509954 136 120 85
-0.19918454052896883 -0.09969324696629764 -0.6105684409611204 145 129 93
-0.19943150307188842 -0.09958514258104165 -0.6126224343371202 139 123 85
-0.19986515423622128 -0.09887852980148451 -0.6150510910315778 142 124 89
-0.20042171056748495 -0.09777934838758182 -0.6177297219948086 154 138 98
-0.20052214545420843 -0.09814553358139158 -0.619499985873622 163 148 105
-0.2013121721082744 -0.0963019199525601 -0.6226564080982472 167 152 111
-0.20182477734922558 -0.09535033092344108 -0.6252620813759208 166 150 113
-0.2024882011984047 -0.09391825044521815 -0.6281773164322607 142 128 95
-0.20321413496579283 -0.09228913060018537 -0.6312256663877223 118 106 79
-0.20367271806189488 -0.0915177434287518 -0.6337389056360383 112 102 77
-0.20473345601756554 -0.08882496159574535 -0.6374812652528208 120 110 82
-0.20546134986001688 -0.08719926330198141 -0.6405556725253277 135 121 93
-0.20662264543168787 -0.08419427685727177 -0.6445230339105062 126 113 85
-0.20767200921196483 -0.08155117012256771 -0.6482726802934136 130 120 97
-0.2087951046302225 -0.07867778790875127 -0.6521842077579219 144 138 120
-0.21039689174953108 -0.07428552327936622 -0.6570923504060993 191 187 183
-0.222431246816784 -0.04186887804580766 -0.6952961055803959 152 149 139
-0.22146380301130153 -0.045665911801272 -0.6949399351776285 125 119 105
-0.220610778416146 -0.04909698907199725 -0.6948153566166552 111 104 89
-0.219721788989781 -0.05263795154830825 -0.6946062568106313 103 94 77
-0.21869739707139 -0.056602487112494604 -0.694101447359031 85 72 52
-0.21807249565251338 -0.0593022239540279 -0.6944346952041729 72 57 36
-0.21643024567563562 -0.06520653450368699 -0.6925963907666157 88 73 52
-0.21669431434153458 -0.06509793753201429 -0.6948086023047757 101 86 63
-0.21716670832127316 -0.06433463785991653 -0.6974689235492464 94 79 55
-0.21660406658010792 -0.06682968011327534 -0.6979155050851358 102 88 60
-0.21566322480761882 -0.07051126796403698 -0.6975439670937451 112 95 68
-0.21640549073113335 -0.06890096184772548 -0.700787335017451 85 70 45
-0.21658964277886444 -0.06904609432208186 -0.7028335171537833 66 49 29
-0.21672688909531576 -0.06933918942913883 -0.704780063546421 60 44 24
-0.21684710143896374 -0.06968628801239019 -0.7066910431611042 60 43 25
-0.21725008601105447 -0.0691480093764679 -0.7092177666403151 59 42 25
-0.2178866369934161 -0.0678802602216699 -0.7122572819551867 56 41 23
-0.21756051288460287 -0.06962706717200079 -0.7132013707659358 73 58 39
-0.2176385756602652 -0.07010881454492904 -0.7150266683854403 101 84 65
-0.2168880280839627 -0.0731796195416724 -0.7150353991962455 104 87 65
-0.21623446251153317 -0.075944363231745 -0.7152498292798728 116 101 72
-0.21557085621624034 -0.07873757070750881 -0.7154356153645143 121 105 76
-0.21478944027660674 -0.08189515655103136 -0.7153546308579402 119 102 73
-0.21456452429754763 -0.08331559468231825 -0.7164974932376427 121 104 74
-0.21358932827482177 -0.08707083776320568 -0.7159738492561107 134 115 84
-0.2122075185889478 -0.09208680161111546 -0.7145365009597251 132 113 81
-0.21124052705620205 -0.09580711060873726 -0.7140096475438582 124 105 74
-0.21095776146104847 -0.09739753006370042 -0.7150011256168125 133 113 81
-0.210321567459751 -0.10008391937237854 -0.7151987587033726 135 112 78
-0.21045797284338597 -0.10037070237788984 -0.7171230833482202 139 116 79
-0.21010389920629702 -0.10217861272312467 -0.7179461130137937 112 93 62
-0.21014549746597375 -0.10275921873409877 -0.7196570995811393 122 105 71
-0.2106967543168549 -0.10176224756477142 -0.7225193572886748 129 107 75
-0.21143843425501965 -0.10017860934052439 -0.7258180569241292 141 120 87
-0.21210224850402937 -0.09883892605458416 -0.7289475500430871 142 123 89
-0.21260750196838704 -0.09799196588047807 -0.7317232465058009 136 119 87
-0.21388075745694948 -0.09477642254674207 -0.7362535287626557 122 108 80
-0.21495569559769886 -0.09217821577740157 -0.7403437470727299 109 97 73
-0.21613119264198813 -0.08927473170896397 -0.7446747701143974 142 133 117
-0.21743298660501278 -0.08598734719460613 -0.7493071204317935 178 174 165
-0.21805906841866463 -0.08478564339464012 -0.7523996688971124 189 188 187
-0.23318657525711683 -0.05189958352160384 -0.8183456371669456 164 156 141
-0.2299249404628092 -0.06256393342536942 -0.812273621132266 156 146 125
-0.2294014278454182 -0.06490533446571795 -0.8127344559988713 148 138 113
-0.2284099969742231 -0.06866329046037284 -0.8120657709370943 140 128 100
-0.22793870561439872 -0.07084084995001028 -0.8126395585320715 143 129 99
-0.22728519527445737 -0.07356808277093979 -0.8127689962009083 146 132 101
-0.2267022778185839 -0.07607886267505543 -0.8130625867711787 146 132 100
-0.22626384175948486 -0.0781502511770466 -0.8137003974372802 144 131 98
-0.22896816707411857 -0.07072445789475318 -0.8219635225092744 142 129 96
-0.22864134087057758 -0.0732119393979635 -0.8245894562543505 142 129 95
-0.22790135133477077 -0.07619283840172103 -0.824491590863571 141 128 93
-0.22711995623959533 -0.07929523476186784 -0.8242849948110691 139 126 92
-0.22659162199334287 -0.08163240376783004 -0.8246912698919937 139 126 92
-0.2261651212149463 -0.08366092623061455 -0.8253425418138829 144 130 95
-0.22574670214832973 -0.08566328785810978 -0.8260094594630263 142 127 93
-0.22370232730559558 -0.09254787190549879 -0.822659977135367 132 118 84
-0.22284850117644506 -0.09584993677431658 -0.8222338456367516 117 103 71
-0.22256893640479491 -0.09742580826704308 -0.823221976492993 101 87 59
-0.22165262848864228 -0.10090892770759993 -0.8226265544217463 98 87 59
-0.22151676851508534 -0.10205055416233616 -0.8239634027276661 114 100 69
-0.2211346345670789 -0.10466223385215007 -0.8263572656029076 128 115 78
-0.2214471745056633 -0.10446179582803358 -0.8288116261186128 137 124 86
-0.22204989275000672 -0.10339616604377516 -0.8319967302444397 129 115 81
-0.2237812444769251 -0.09896520687676894 -0.8380235430950387 122 110 76
-0.22464333723244784 -0.09713388694364283 -0.8418792742401231 125 116 84
-0.22502010069974104 -0.09675249143546166 -0.8445193707103748 122 115 84
-0.22545412305282572 -0.09620225335706095 -0.8473079447362715 98 93 66
-0.2253837913441572 -0.09715454757562425 -0.8488235919807973 96 92 68
-0.22546484367663056 -0.09765644309628152 -0.8507226650537627 108 102 81
-0.2255354515004011 -0.09818972317781094 -0.852595990896776 107 103 83
-0.2248463095338361 -0.10097885076752383 -0.8525346157572115 104 99 80
-0.2250988269835566 -0.10097143135606984 -0.8548698660105334 93 88 69
-0.22514978897310323 -0.1015626106168867 -0.8566921763155555 79 75 55
-0.2255582606661574 -0.10109498739282413 -0.859431072173153 70 68 49
-0.2260885552227656 -0.10026855088432762 -0.8624868069064621 79 76 60
-0.2266629289090408 -0.09931405518382169 -0.8656612183596588 101 98 84
-0.22607987927333706 -0.10178302500993075 -0.8658582706504611 118 115 105
-0.22620417161988451 -0.10216032639300221 -0.8678761028767761 137 133 128
-0.2256016931004211 -0.10468307952591244 -0.8680147782643995 147 145 142
-0.22585862577157054 -0.10466870804180167 -0.870375308246102 156 154 154
-0.22503914096526362 -0.1078275647914333 -0.8699426148950492 163 161 162
-0.2249566543749238 -0.10881258048715842 -0.8714196305682373 168 166 168
-0.2218087932466582 -0.11881719853843736 -0.8649035254521092 172 170 173
-0.20281715839175554 -0.198278923895444 -0.8691340830483965 202 202 202
-0.21549512307178798 0.0286539490098264 -0.45287829015963177 188 188 189
-0.2146825920815765 0.02513797050461533 -0.45336647925640333 188 189 190
-0.21296886368717063 0.01852361821162188 -0.452569583176836 187 187 186
-0.21218676884276344 0.015121372622213247 -0.45308044905060557 187 184 178
-0.21146529903685812 0.011930939524145007 -0.4536700604379316 180 176 159
-0.21087936145246897 0.00920926352172069 -0.45444658041701136 146 135 109
-0.21023829773932892 0.0063008756355070195 -0.4551380744690087 147 133 96
-0.209878893217144 0.004361681637835402 -0.45622931157155105 177 160 119
-0.2095412699305399 0.0024987392865920277 -0.45734849347268275 187 169 125
-0.20922724042966703 0.0007181174903607423 -0.45849857582642806 169 152 108
-0.20906521272608566 -0.0005405950799118042 -0.4598669649554131 170 152 113
-0.20856593020355263 -0.002952821603699446 -0.4607407838336379 150 131 96
-0.2076089844806107 -0.006928182756807844 -0.46093841491178866 133 114 81
-0.20752317579690616 -0.007921792746884149 -0.46240852249139747 157 139 104
-0.2078087164058905 -0.007646548959681282 -0.46442610175275356 157 140 104
-0.20734627688904791 -0.009925919783631748 -0.46533835412095215 149 135 99
-0.20814407581320588 -0.007903957206314566 -0.46811935799262183 107 95 63
-0.20865193314884575 -0.0068739757624304565 -0.47047584196607906 88 78 54
-0.20901866353397713 -0.006327046806805459 -0.47262617933076256 93 91 77
-0.20879629037147002 -0.007787600937209566 -0.4738956836696857 162 162 161
-0.19822913498716163 -0.057366255865144405 -0.4890266722233877 176 174 173
-0.1979921301966704 -0.05884229664568019 -0.4901959438727678 103 99 89
-0.19737545908163426 -0.06159187932115434 -0.4907513886152099 84 77 58
-0.19707323328002044 -0.06328383969532708 -0.49180870382538044 89 77 59
-0.1964620301913065 -0.06601040330434119 -0.49236232701761007 86 77 59
-0.1956982599518118 -0.06924549078393111 -0.4926618941213498 71 61 43
-0.1951536514038546 -0.07174341513844645 -0.4933112020841785 72 62 44
-0.194903863185646 -0.07325243819422156 -0.4944372430587555 72 61 44
-0.19481107923308422 -0.07423534629035267 -0.49581834233315053 69 56 41
-0.19441153635216393 -0.0762429930625955 -0.49669381200180274 70 56 40
-0.19423237459746884 -0.07751289826516522 -0.49792899975686883 74 60 38
-0.19429793870861137 -0.07796525055922718 -0.49956748209274415 87 74 47
-0.19425121824587854 -0.07879239299190019 -0.5010202016034156 89 74 46
-0.19434103315657078 -0.07916423922424606 -0.5026998066088432 86 70 40
-0.1941982472065657 -0.08031126209283793 -0.5039918347141875 96 80 50
-0.19403727307194843 -0.08151820745383856 -0.5052519781611418 102 86 56
-0.19401827205630742 -0.08225216155251244 -0.5067490413001723 97 81 49
-0.1940169590929018 -0.0829272295506771 -0.508275718783943 92 76 44
-0.19405689746898294 -0.08346524356443241 -0.5098720947031035 92 76 45
-0.19405874087378824 -0.08412990943366094 -0.511404298115901 97 80 48
-0.19401870788515643 -0.08493352478892491 -0.5128653339807665 107 89 57
-0.1939751747460518 -0.08574857086865767 -0.5143200041260064 124 105 71
-0.19359231749497066 -0.08768779562138665 -0.5151940651063507 123 104 69
-0.1932957441628104 -0.08933963441447662 -0.5162122815477735 103 86 54
-0.19337543373189905 -0.0897450521927585 -0.5178746214001672 80 64 35
-0.1934832181079142 -0.09005790618350074 -0.5195862055708712 83 66 38
-0.19345815407376105 -0.09081027250987839 -0.5210690773158911 83 65 37
-0.19322376995472398 -0.09225384430570224 -0.5221886105307418 81 63 37
-0.19290110116987796 -0.09398777806305472 -0.5231522389528537 73 55 30
-0.1932041427422256 -0.09365651588621215 -0.5252042365670757 76 60 33
-0.1932354244088917 -0.09422233102960592 -0.526783797645297 94 80 52
-0.19343833758084134 -0.09422293406170684 -0.5286647881495636 114 102 77
-0.1935300904248829 -0.09459033594571112 -0.530352213491251 66 52 30
-0.1936782517683843 -0.09477257483751458 -0.5321400743060583 95 79 56
-0.19364565618771587 -0.0955496843536861 -0.5336095830925962 115 99 76
-0.19359327855170694 -0.09639164052374721 -0.5350436677391842 117 101 77
-0.19340820809505962 -0.09766900907882586 -0.5362411352377565 89 74 54
-0.19329954680891062 -0.09869488038656543 -0.5375730963842936 56 40 27
-0.19312897667215295 -0.09992326018210934 -0.5387932110870499 59 42 26
-0.19319575987657847 -0.1003731971818187 -0.5404374803284454 59 42 22
-0.19388697523312318 -0.09877880160139804 -0.5432058372526238 69 52 32
-0.19411714062705435 -0.09869605994778838 -0.5451492823267591 61 44 26
-0.1940496061430599 -0.0995878037036417 -0.5465564591992694 64 47 29
-0.19409845156303618 -0.10009894187370888 -0.5481740780658042 67 50 31
-0.1942015806072604 -0.10043302006163543 -0.5498909204375251 65 48 29
-0.1944439970321317 -0.10031298406359054 -0.5518628350100522 75 58 39
-0.19442146454268527 -0.10105808362604421 -0.5533525920155112 73 58 39
-0.19429439616181546 -0.1021437810181727 -0.5546504209404589 73 59 38
-0.19464163009589136 -0.10168414235697454 -0.5568191407770111 90 77 54
-0.1953079411798678 -0.10018748881156786 -0.5595796117777324 88 76 51
-0.19634245703303374 -0.09749611138570827 -0.5630274077897514 92 81 56
-0.19650515250639566 -0.09764302556882618 -0.5648693766482196 105 93 68
-0.19751713738798854 -0.09503194314617405 -0.5682914999065456 114 102 76
-0.1980173179616568 -0.09408662017869715 -0.5707698546314024 123 113 87
-0.19858559589402885 -0.09292257343133664 -0.5733804176102142 116 107 84
-0.19917475027661877 -0.09169332454882509 -0.5760357319455826 95 86 63
-0.19957311475356948 -0.09108471211540814 -0.5783384912479823 98 87 65
-0.19979409599057626 -0.09105208792887987 -0.5803111064777842 86 74 51
-0.19896393249428482 -0.09442107760067878 -0.5803008970912912 78 66 41
-0.19969312610494597 -0.09274503125287611 -0.5832349268106266 88 77 49
-0.19857338506768535 -0.09704576343303506 -0.5826662538306854 82 68 41
-0.1987561456008015 -0.09713628658876572 -0.5845655432206729 89 73 47
-0.19825555941622014 -0.09943241102841774 -0.5851626275645309 88 73 47
-0.19901788059874181 -0.09765435620560117 -0.5881709914014512 102 90 64
-0.19912251254069804 -0.0979987791326831 -0.5899253365182009 90 75 50
-0.1993578387982799 -0.09792282757510518 -0.5919320657117115 70 55 31
-0.1995589759713961 -0.09795791275359023 -0.5938752080508357 95 80 56
-0.19957997888398024 -0.09857311252306536 -0.5954721293280381 69 55 29
-0.19959938797942622 -0.099193524783276 -0.5970661688760965 83 74 44
-0.1998230891924683 -0.0991579889023606 -0.5990573423586635 110 97 64
-0.1998876883204641 -0.09963399583387114 -0.6007408074301457 143 124 92
-0.19993759920847687 -0.10015738703896646 -0.602396227086359 127 112 79
-0.2001326430222502 -0.10021588531145306 -0.6043362966186108 115 101 71
-0.20028590345652975 -0.10040904502006359 -0.6061962854548153 128 112 80
-0.2009468170074443 -0.098978197877099 -0.6090567661327952 134 118 84
-0.2012443046558633 -0.09871253064373736 -0.6112068427240159 136 119 84
-0.20162364087418191 -0.09818656926409533 -0.613521746135222 141 123 86
-0.2017646202166455 -0.0984235304165538 -0.6153678201612752 145 127 91
-0.20210104826645026 -0.09803729998703536 -0.6176037799066111 157 141 101
-0.20243435140956598 -0.09766250044365951 -0.6198368502416579 164 149 108
-0.20322758754927842 -0.09582320637193761 -0.6229919871961263 170 155 115
-0.20374615215711564 -0.09486222806576647 -0.62560494919415 161 145 109
-0.20433887776340198 -0.09366745615501545 -0.6283719357121095 140 126 92
-0.20521840195701443 -0.09156302343491238 -0.6317219799070308 135 124 92
-0.2058770075367174 -0.09016462975191195 -0.6346350602207363 124 112 85
-0.20687491511755596 -0.08769133784454172 -0.6382408812838265 127 114 87
-0.20761624561230047 -0.08603682716684313 -0.6413364280913202 131 117 92
-0.20877688328156285 -0.08305547397154209 -0.6452915005673187 134 121 99
-0.210057529185969 -0.07969876034362239 -0.6495025813250461 144 137 121
-0.21107344117244672 -0.07718622181041934 -0.6531857159903585 188 186 178
-0.22539210310992452 -0.03774046585098148 -0.6959037846297096 204 205 205
-0.22471169624411574 -0.0406214189492525 -0.6961682985168314 198 199 198
-0.22437618633231032 -0.04241438294112762 -0.6971475389655841 186 185 179
-0.22375556368040642 -0.04510221380020307 -0.6975256147222927 172 169 160
-0.22276629117429633 -0.04894548912732649 -0.6971227038666582 147 144 134
-0.221603068807041 -0.05333055778530496 -0.6963435044197203 111 104 90
-0.22065301600299933 -0.05704179846278423 -0.6960029143684647 82 72 54
-0.21911954818379598 -0.06257794394743463 -0.6944179918603539 84 72 52
-0.21905839751381914 -0.06349481466485232 -0.6959415807163065 96 84 62
-0.21955740992989267 -0.06265771205745677 -0.6986558064818325 89 77 54
-0.21890550017986904 -0.06542347620643052 -0.6989217165369557 121 106 78
-0.21826109041925854 -0.06816295416117846 -0.699197179903016 112 96 68
-0.2185041478821809 -0.06812702146782126 -0.7013667487537412 96 82 55
-0.21803237447019308 -0.07032384856045651 -0.7020043786722376 75 59 35
-0.21771114247972037 -0.07204895858479557 -0.702961202352174 66 49 26
-0.2181703402538115 -0.0713395650469833 -0.7055977359917681 63 45 24
-0.21848909094005778 -0.07106972870510325 -0.7079352717479641 63 45 26
-0.21906851672369143 -0.06998972125926167 -0.7108406693319316 63 47 26
-0.21981111092788339 -0.0684045995963678 -0.7141060966115074 81 66 44
-0.21992562918402997 -0.06877536078481664 -0.7160120591063417 100 83 60
-0.21904360650675722 -0.07224263716338272 -0.7157455179374874 105 87 63
-0.2181740840278259 -0.07566726528280951 -0.7154975499185822 119 103 74
-0.21800989382150385 -0.0768998773130797 -0.7167864104147279 117 102 71
-0.21694685595156887 -0.08091841188728566 -0.7160997088737424 118 102 71
-0.21641435655819055 -0.08328867964084047 -0.7165701883819483 131 113 80
-0.21553098682734767 -0.08674288131850735 -0.716261365039045 144 125 91
-0.21443235024730325 -0.09085920872873243 -0.7154678291598912 139 120 86
-0.2126781946309345 -0.09699730781167418 -0.7132108146864421 132 113 80
-0.2126905464287271 -0.09767040930599116 -0.7148595882415809 124 105 75
-0.2121617007658432 -0.10001433468327184 -0.7153038645048728 134 111 79
-0.21228099805338396 -0.10035643803232741 -0.7171887694156367 136 114 78
-0.2119007257333803 -0.10223914364159578 -0.717957937766379 124 104 74
-0.21244183690092353 -0.10128173872458865 -0.7207878976673154 130 112 79
-0.2129326633446186 -0.10048148871678805 -0.7235103022243032 133 111 81
-0.2138262091724829 -0.09844449291524843 -0.7271439556405095 143 125 93
-0.2147246936108836 -0.09639620452230582 -0.7307976143316706 139 121 89
-0.2156462430977174 -0.09428097249765369 -0.734512327902174 128 113 83
-0.21667220787015357 -0.09184922167414833 -0.7384727413042596 112 101 75
-0.21785978011900708 -0.08892619200228094 -0.7428102633138329 138 130 110
-0.21899984951787949 -0.08615394713947816 -0.7470514780518807 177 171 162
-0.22009704138201358 -0.08351800848337651 -0.7512062260743543 189 188 183
-0.23358362730130244 -0.05734048845292172 -0.816462026195215 172 170 156
-0.2327224098746873 -0.06069597527459708 -0.8161333792930584 166 160 146
-0.23232942116138494 -0.06263584098665065 -0.8169150520708005 154 145 130
-0.23103263211829242 -0.06729729866576162 -0.8155286418419649 147 136 117
-0.231469248580179 -0.06673383941597022 -0.8182886633196459 147 134 109
-0.2302653415668115 -0.07110831357812558 -0.817108445246836 146 132 103
-0.23060551178271493 -0.07083506279601287 -0.8196366100669946 146 133 102
-0.23031203052638816 -0.07246707455880996 -0.8206382725152 146 133 101
-0.22989938182725436 -0.07445558293344445 -0.8213487143714094 144 131 99
-0.23002662639651486 -0.07482255532105953 -0.8233639259630824 144 131 97
-0.23015393357435504 -0.07518989331980147 -0.8253805509302106 143 130 97
-0.22960608421713566 -0.0775803895607653 -0.8257549528672734 137 124 93
-0.2300657974242254 -0.07695228113459318 -0.8285815531225972 135 122 91
-0.22937999712710722 -0.0797528663961467 -0.8286129057048321 137 122 91
-0.2281214547322889 -0.08426252178606303 -0.8272347417502903 135 120 89
-0.2269631395675563 -0.08846731420193632 -0.8260900528612618 136 121 90
-0.22644972858976628 -0.09074210611229988 -0.826519710975251 135 120 88
-0.22485224484046926 -0.09624812337755273 -0.8242731208105907 123 108 75
-0.22482041006350523 -0.09708073683657781 -0.8258762000986996 118 105 71
-0.22520952208149406 -0.09665948669109398 -0.8285203509396118 124 109 74
-0.2245132168627907 -0.09947031341422649 -0.8284777405678944 129 114 77
-0.22475578357847614 -0.0994859117168283 -0.8307602301487379 134 121 84
-0.2250636381117964 -0.09930854205516881 -0.8332076140004749 135 123 85
-0.22616910230728138 -0.09676389997954479 -0.8376471034512378 132 120 87
-0.22731813418360255 -0.09409478407624661 -0.8422064248433322 126 116 84
-0.22826224049108418 -0.0920383320967686 -0.8462640767503299 123 115 86
-0.22887409584925392 -0.09097048484619935 -0.849497594027741 99 92 67
-0.22907156667348133 -0.09113226479201558 -0.8516955792958056 76 73 53
-0.22871432592590182 -0.09293615952463796 -0.8524984406580243 71 70 54
-0.22835811624290386 -0.09473545013601326 -0.853300357684257 74 70 59
-0.2283744125804245 -0.09543265693295638 -0.8550406189454068 71 71 59
-0.22823800597270352 -0.0965807476210031 -0.8563941740074983 68 68 55
-0.2280445309544022 -0.09789659853596172 -0.8576015105635815 65 63 47
-0.2281811832156683 -0.09823843347464462 -0.85964656541088 70 67 49
-0.22883254456619764 -0.09706468611497204 -0.8630046299868066 89 87 71
-0.2293192645101802 -0.09637839876126175 -0.8659487770179126 107 104 94
-0.22984105096829674 -0.09559108687021872 -0.8689874618048908 124 122 115
-0.2289184068730314 -0.09905146765695222 -0.8683289194750335 138 137 132
-0.22898580255632983 -0.09960009460260905 -0.8702038291742291 151 149 145
-0.22908332644136414 -0.1000605936675183 -0.8721569306352901 161 157 157
-0.22542059332373993 -0.11228793790070857 -0.8661011039108544 169 167 168
-0.22466505698549286 -0.1152393147768106 -0.8658302152709735 173 170 172
-0.2264445203746301 -0.11151089997776037 -0.8738146139691388 177 177 176
-0.20295058875773678 -0.20228666593710287 -0.8631130563038542 201 201 201
-0.2032590038822435 -0.2020970591472374 -0.8655377380623295 202 202 202
-0.20313883647673694 -0.2031302248071251 -0.8667797439734907 203 203 203
-0.21740009966963147 0.028191644421427214 -0.4546127123042763 187 188 190
-0.21637797157790778 0.02397515277043158 -0.454808532583021 188 188 191
-0.2146343875320859 0.01658334246402965 -0.4555965689999396 187 189 186
-0.21317098473095056 0.010871873213033623 -0.4551352283772076 185 181 174
-0.21254419201783054 0.008023194193648914 -0.45585489405781926 168 160 142
-0.21208168609445593 0.005737801601036846 -0.4568039355086633 151 141 111
-0.211588609594053 0.00335016720410089 -0.4577044251169319 154 141 102
-0.21141521610893046 0.0020540913308100817 -0.45906158297491856 172 156 113
-0.2112508081837475 0.0007893686369005171 -0.4604300449725698 195 178 139
-0.21082892517105764 -0.0013509556800924416 -0.46142261567774046 181 166 127
-0.21071063931644485 -0.002456819611920763 -0.4628538292303656 146 132 93
-0.21059119087957567 -0.0035661225441426525 -0.46428217241430764 152 137 96
-0.20927145832211763 -0.008752267167955768 -0.4639468233281001 194 180 140
-0.20974736012827838 -0.007836822610113953 -0.46624403938706277 140 126 91
-0.20969973409196224 -0.008699592869694739 -0.4677720293501403 87 73 43
-0.2105940067734497 -0.006368649124326664 -0.47069659044084994 87 77 53
-0.21084265872828858 -0.006229156320823298 -0.472669194194592 102 100 87
-0.21040208010030043 -0.008424591026059802 -0.47361516722729174 178 176 177
-0.198866005964801 -0.0596849106652913 -0.4841948424283823 200 201 203
-0.19923963951977258 -0.05911271355244929 -0.48633240974264097 196 195 194
-0.1991265946724828 -0.060169033890396545 -0.48769896677066915 130 125 119
-0.19899369298375447 -0.061291199890413706 -0.4890327004142941 83 76 60
-0.19866238069869585 -0.0630751903883704 -0.49004733125364297 94 84 62
-0.19839711074661132 -0.06463740403267224 -0.49116479478762887 95 83 64
-0.19815974060579244 -0.0661054447504727 -0.49232460040037257 87 77 58
-0.19791200201733197 -0.0676070050849315 -0.49346530118799753 82 70 51
-0.19675273601228438 -0.07214276297243677 -0.493125586976377 76 64 45
-0.19607779272365064 -0.0750618155631542 -0.4935621087620298 75 63 44
-0.19598840474517504 -0.07603065547461671 -0.4949471776911276 83 69 48
-0.19574025643736062 -0.07752672831981433 -0.49607159517716687 95 79 54
-0.19571911036811554 -0.07826780334557096 -0.49756610933980777 110 93 64
-0.19573915463695338 -0.07887207357480347 -0.49912821685229614 107 91 58
-0.19570286456898195 -0.07966328442610587 -0.5005975111322859 104 87 52
-0.19569579419799107 -0.0803574825598517 -0.5021148328633064 101 84 51
-0.1957247614981078 -0.08093227288106708 -0.5036919387023955 101 84 54
-0.19567159933119793 -0.08177906839809321 -0.5051325146906639 103 85 55
-0.19592232264129913 -0.08162031268526823 -0.5070802891658679 106 87 56
-0.19580845878833103 -0.08266798786200821 -0.5084195944970069 109 90 57
-0.19579548164983596 -0.0833818507020821 -0.5099273295761009 104 87 52
-0.19568007811638646 -0.08443384069895718 -0.5112622871753141 107 90 55
-0.19562490499856686 -0.08528659649859618 -0.5126979249866386 108 90 56
-0.19556841223148078 -0.0861434642460969 -0.5141307795391555 112 92 59
-0.19494382932955656 -0.08887207475805517 -0.5145971007694446 108 89 60
-0.19462646273434325 -0.09058629671008503 -0.5155811590445344 98 82 57
-0.19481067198464813 -0.09064850778968936 -0.5174199087055352 79 63 39
-0.19491799857091474 -0.09096436272604588 -0.5191286066508898 72 56 35
-0.19513504117633285 -0.09092009252398817 -0.5210270888135463 75 58 37
-0.19464423995654426 -0.09320160721849058 -0.5217066339677683 76 59 38
-0.19490699763506492 -0.09300763525337305 -0.5236849921889074 59 43 22
-0.19512316075827432 -0.09296763417993789 -0.525585104214896 60 44 22
-0.1950949763510774 -0.093729517641547 -0.5270622148707969 75 60 34
-0.1951204874842306 -0.09431538567043882 -0.5286327345798842 124 112 88
-0.19527811679680335 -0.09446886434684248 -0.5304346780240656 81 68 47
-0.1952645423982731 -0.09518310324208878 -0.5319377683733256 88 72 50
-0.19529284995010446 -0.09576036030954285 -0.5335144196591951 121 106 80
-0.19509886570469667 -0.09706398527229596 -0.5346991037619325 90 77 51
-0.1951355621792198 -0.097613615980845 -0.5362900584061286 106 92 70
-0.19499470785846543 -0.09874270947780839 -0.5375663238718337 72 56 40
-0.1947088530021746 -0.10034397950816987 -0.53858318981336 65 47 31
-0.19480644013979317 -0.10069459499804562 -0.5402814060447308 64 45 27
-0.19528357372814856 -0.0998097314554271 -0.5426596800086193 66 47 29
-0.19548528511425908 -0.09982318284845695 -0.5445485096941893 65 47 30
-0.19556722580695973 -0.10022699277695155 -0.546223849743159 65 48 30
-0.19552581384562948 -0.1010320238024835 -0.5476774647788423 65 48 28
-0.19558927998242856 -0.101496273143861 -0.549320391293298 67 49 30
-0.19602352727504735 -0.1007574517075536 -0.5516365055726055 81 63 43
-0.19600693683419163 -0.10148269726173759 -0.5531369022644254 76 59 38
-0.19611127999742936 -0.10181591230804299 -0.5548576900020953 71 55 33
-0.19634048434851736 -0.10174516115987078 -0.5568078418110551 73 59 36
-0.19707714547724775 -0.10003288029744051 -0.55969075243659 71 59 34
-0.19799597762202323 -0.09773453726542303 -0.5629158701770749 89 77 53
-0.19848832166054514 -0.09681877024576463 -0.5653638171274132 105 94 68
-0.19976543227821386 -0.09337012181056736 -0.5692672287374584 124 115 89
-0.19997842606328348 -0.09336209040157314 -0.5712110210024954 102 94 71
-0.2010519080184348 -0.09057909237435591 -0.5747559822708513 91 83 62
-0.20173566222736397 -0.08905713908175672 -0.5775853737435774 84 76 54
-0.20216077080716938 -0.0883714028896431 -0.5799383121997345 84 75 53
-0.20232927572086007 -0.08851362980821459 -0.581814792897292 78 67 44
-0.2011409240857737 -0.09302198084636107 -0.5811446665897615 79 66 40
-0.20097226454878903 -0.09424675257958295 -0.5823828928041435 88 74 47
-0.20071845761259602 -0.09574436822720367 -0.5834586998503788 87 72 45
-0.2007601838603672 -0.09629198921876694 -0.5850914075651105 84 69 41
-0.20011454180923613 -0.09904529757197297 -0.5854200315439472 98 83 55
-0.2006278145897704 -0.09807979548229737 -0.5879474010107661 117 104 75
-0.20103353813300065 -0.09746113489593092 -0.5902746660608276 85 72 46
-0.20105047441702914 -0.09808917792263105 -0.591862333894359 69 57 30
-0.20139046838075106 -0.09768352053633997 -0.5940696474220502 100 88 61
-0.20143583968903564 -0.09822147907678555 -0.5957139074926994 71 59 33
-0.20143612368457378 -0.09890371611093962 -0.5972717118654542 89 79 48
-0.2016131124562211 -0.09902165250740547 -0.5991709746468633 114 99 65
-0.20180568558138848 -0.09909062032929147 -0.601102174660284 138 118 87
-0.2019455678678075 -0.09932845990288178 -0.6029329366152137 119 101 72
-0.20183896188823802 -0.10035245640295457 -0.6042851249796682 105 91 60
-0.20237655636517884 -0.09932433519264616 -0.6068938031431431 109 95 62
-0.20220073258460283 -0.10056909772237047 -0.6081116021636592 126 110 77
-0.20342114368798075 -0.09737240256952873 -0.6120670356353812 132 115 81
-0.2033600655021363 -0.09825396673653555 -0.6135139458128595 138 121 85
-0.20346378448113614 -0.09861184554007058 -0.6152852056398889 149 134 95
-0.20393841524880724 -0.09779290489132592 -0.6177906976301805 160 145 104
-0.20424202791240328 -0.09751845733665077 -0.6199619647391208 160 145 105
-0.20499126936295303 -0.09583283498459505 -0.6230215345781911 163 148 110
-0.20568829150939286 -0.09431586044414011 -0.6259844996581309 160 146 108
-0.20656855526215434 -0.09222188457049155 -0.6293201886981321 143 130 94
-0.20739179252259782 -0.0903121036256668 -0.6325504294403624 141 128 93
-0.2077945685714766 -0.08973496196853475 -0.6349451863093585 131 117 87
-0.20876959686352395 -0.08735191719653007 -0.6384949021396801 136 120 95
-0.21013109172999278 -0.08375314898958736 -0.6428334576501773 137 122 98
-0.21126636372325167 -0.08087389530468875 -0.6467282103243761 144 133 116
-0.21287161711252334 -0.07651801894360241 -0.6515864109189036 182 180 171
-0.21416773020764454 -0.07314293684049553 -0.6558325710495975 203 205 202
-0.226804516888335 -0.041453527707241866 -0.7000053864198088 202 201 199
-0.22595096789929106 -0.044858225356119524 -0.6999036397455161 195 194 192
-0.2252675899462488 -0.047727948667458 -0.7001500131642179 180 177 172
-0.22423268227084706 -0.051691435001315844 -0.6996513714987327 137 131 119
-0.22217388336661023 -0.05884261763016391 -0.6969871255097155 102 96 78
-0.22203576962029262 -0.060000937429628504 -0.6983552597597734 92 84 64
-0.22244502768842916 -0.059454491704246715 -0.7008797017104449 109 100 82
-0.22214516250155597 -0.06111604000714588 -0.70190491126533 124 115 93
-0.22131869349994393 -0.06441351766917255 -0.7018082131205888 108 98 75
-0.2208825893124387 -0.06649460436036653 -0.7025347435902797 105 93 70
-0.22129209893702004 -0.06594842283703264 -0.7050621051403919 95 80 57
-0.22012176484421875 -0.0703055382166434 -0.7042132084687225 80 65 42
-0.22056630813929862 -0.06965086409336729 -0.7068159869556632 68 52 28
-0.2209919995973555 -0.06905652117120553 -0.7093826297185164 70 53 30
-0.2217079210483735 -0.06756545654806528 -0.712578758074723 73 56 32
-0.2218672001651807 -0.06779967443559332 -0.7145799479768695 98 81 56
-0.22169433476292544 -0.06906147674913404 -0.7158638425073096 112 96 70
-0.22100048798910515 -0.0719321266132974 -0.7160158891939408 115 97 72
-0.22046735593816857 -0.07430358372677412 -0.71651050999473 130 113 83
-0.2202181067717951 -0.07579689137939785 -0.7176184829906647 121 103 74
-0.21938622869437674 -0.07908539466653008 -0.7174514989351464 126 108 78
-0.21860625649020163 -0.08221037919420449 -0.7173899242029897 147 129 96
-0.2175833722535324 -0.08607984458883472 -0.7167877178255458 158 138 104
-0.21682655556875088 -0.08912630822882306 -0.7167604602081945 141 120 84
-0.2156603610610889 -0.09342808236782127 -0.7158235447220685 136 116 79
-0.215460753711129 -0.09475523074407846 -0.7170100513643081 120 104 71
-0.21494690989605958 -0.09704623982389754 -0.7174989708268263 129 109 77
-0.2149720529422985 -0.09768146697437982 -0.71917861592418 126 106 73
-0.21495770042297252 -0.09843788525873864 -0.7207706879226324 131 112 80
-0.21541057111815182 -0.09776287096907485 -0.7234038122056856 134 115 82
-0.21560123778001636 -0.09789252910714649 -0.7254557960114009 130 112 80
-0.21650455412546005 -0.09584284758508299 -0.7291048165423121 133 117 88
-0.2173942032519254 -0.09383885848765833 -0.7327320923751994 132 114 86
-0.2183980983112779 -0.09148971018440283 -0.736624997498592 124 110 84
-0.21961251212753816 -0.08850224853656541 -0.7410021405536402 139 130 111
-0.22071208461971836 -0.08587037702911637 -0.7451319473273986 176 170 160
-0.2217432867384903 -0.08345168713667911 -0.7491178822717578 191 187 184
-0.2353552419883387 -0.06011364883786369 -0.8213112605547745 167 161 148
-0.23482933330016942 -0.062444897928932985 -0.8217807671332742 158 150 133
-0.23476813994028756 -0.06338338339266458 -0.8233563708325528 149 140 120
-0.23555880006744312 -0.06177459617727382 -0.8269726387502988 143 132 110
-0.23560632350273597 -0.062389571295060564 -0.8288122867784165 138 127 100
-0.23519334107555592 -0.06437965136496926 -0.8295443616157826 141 128 97
-0.23435903420963847 -0.06762494913261957 -0.8292565147331381 149 136 102
-0.2335038317032529 -0.07092893004466116 -0.8289099477800433 152 138 105
-0.23314039887909518 -0.07276415942170034 -0.8297454851881904 144 129 98
-0.23099344515816309 -0.07990730213760427 -0.8262508291041158 134 120 88
-0.23064427618604885 -0.08169308976611328 -0.8271050606556068 134 119 88
-0.22985492934511698 -0.08478585521177928 -0.8268836819441289 139 124 91
-0.2295112583212669 -0.086551333501999 -0.827742264636068 143 128 94
-0.22879345619397026 -0.08942586025695082 -0.8276824719796572 143 127 92
-0.2284671603320985 -0.09113601408018779 -0.8285750003175214 135 119 83
-0.2283025886483341 -0.09236540724883033 -0.8298614186213743 130 115 79
-0.22861866570788392 -0.09217049446140446 -0.8323288107002075 137 123 87
-0.22799151203475604 -0.0947685828341242 -0.8324739192261781 142 129 94
-0.2284159921751083 -0.09425376341567387 -0.8352106805156465 140 128 94
-0.22997059745067328 -0.09040089922093358 -0.8407489478707291 139 129 97
-0.22949910404415869 -0.0925381504212397 -0.8412775019897677 139 130 100
-0.23107878510981036 -0.08862036253503991 -0.8468987713908639 136 128 99
-0.23161113614005907 -0.08779780768052542 -0.8499277440989252 115 107 79
-0.23200347469258506 -0.08739012649854966 -0.8526126430080171 84 78 55
-0.23176798613785363 -0.0888327779503249 -0.8537319058978053 61 60 46
-0.23161746041015616 -0.09002442040607361 -0.8550616612964872 46 46 39
-0.23105383943264834 -0.09242997928340946 -0.8553531543121143 43 43 37
-0.23076593955122 -0.09402302822026043 -0.8563324411373936 44 44 37
-0.230677187459044 -0.09503016464675562 -0.8578106663828384 44 44 35
-0.23064533924155944 -0.09586997890877441 -0.8594316725523319 65 64 52
-0.23158368638929802 -0.09386552030276746 -0.8635064846248899 93 91 78
-0.2320863149893561 -0.09314149254151066 -0.8664862507836852 113 110 100
-0.23254407434520422 -0.09255098065716683 -0.8693570362527786 129 128 121
-0.231656215396831 -0.0958984001683067 -0.8688086580589424 143 143 138
-0.23175790823601317 -0.09634966603234396 -0.8707741328303802 151 152 149
-0.2277817409957064 -0.11093183319483274 -0.8673863204998827 174 172 173
-0.22976249569164325 -0.10590393765606815 -0.8741717455269568 177 174 175
-0.22978990776887315 -0.10656856766280998 -0.8759393180089887 179 177 178
-0.22841912880397824 -0.1112988265396645 -0.8740945182075581 180 180 178
-0.20401888431394766 -0.20428419216348792 -0.8612833771746001 196 196 196
-0.20404364697383473 -0.20490260411813868 -0.8629211871994638 200 200 200
-0.20337672012297003 -0.2074814325288365 -0.8626560010417893 203 203 203
-0.21708230832050224 0.018017345838698823 -0.4581090980528968 189 188 188
-0.21595577882447725 0.01347889328117452 -0.4581341434943563 190 187 182
-0.21441530603502834 0.007540618174826125 -0.4575578550618274 189 185 173
-0.2138218302440639 0.004820480188118426 -0.45832147877823987 183 175 158
-0.2136092570913796 0.0033938138263543416 -0.45962617000748274 166 152 128
-0.21344245280672822 0.002123080081870621 -0.46099471186461916 168 154 119
-0.21300147626245708 -7.494905967400656e-05 -0.46196526868409354 176 163 120
-0.2128755763297133 -0.0012052897960766196 -0.46338851871415543 164 149 106
-0.21273884206635402 -0.0023717128859068737 -0.46479476265443254 151 136 96
-0.21266638660433418 -0.0033203917581803855 -0.46629353146121366 180 165 125
-0.21255861715250704 -0.004387984047257709 -0.4677398438218635 143 127 92
-0.21146717417791888 -0.008774043280164207 -0.46773894259755955 84 70 46
-0.2120143865161465 -0.007630078070376439 -0.47014444809463074 88 80 64
-0.21224418415267948 -0.007558064905169526 -0.4720855593788721 130 128 120
-0.21201856418902318 -0.009020685467240497 -0.47335268295994437 192 190 191
-0.19985657732045456 -0.062147528829424675 -0.4830371944142089 201 202 202
-0.2003400154727404 -0.06121544896946607 -0.48534144243823085 157 154 147
-0.20001662716138052 -0.06296773140227838 -0.48637316989551277 102 93 77
-0.1998136167126506 -0.06431868549852882 -0.48759287889359226 84 75 51
-0.19960435186954253 -0.06568953030241159 -0.4888006307543302 80 70 44
-0.19930834884105242 -0.0673472723563038 -0.4898677361701142 81 70 48
-0.19894857131194138 -0.06921520670097489 -0.4908297218142369 85 74 52
-0.19858446606663455 -0.07109593163766686 -0.49178121631759086 77 65 43
-0.19760033773467373 -0.07502833168981038 -0.4917293283290427 86 72 51
-0.19734438586402023 -0.07654666006375799 -0.4928455578912118 90 76 53
-0.1974449574467959 -0.07688477210188543 -0.4945376786927461 98 83 58
-0.19728067112545497 -0.07809869853331777 -0.4957997934199042 109 93 65
-0.19726080103386873 -0.07883491780396484 -0.4972960054022408 116 98 67
-0.19726468445803064 -0.07949264553139693 -0.49883090740811536 125 107 72
-0.19711906587625488 -0.08064354253148018 -0.5001203659918512 134 113 79
-0.19718618675806374 -0.08109251933973605 -0.5017587533828067 122 102 69
-0.19736499996615345 -0.0811738332002083 -0.5035822926015003 108 89 58
-0.19747624830962068 -0.08147835226091207 -0.5052956505924744 117 97 66
-0.19748600704764135 -0.0821172531980204 -0.506841462080403 115 95 63
-0.1974043207940877 -0.08305685490485648 -0.5082349720070403 121 100 68
-0.19713099474016035 -0.08462577831415713 -0.5093073636555353 118 99 68
-0.19695382003930684 -0.08587780486548169 -0.5105382539238843 102 84 55
-0.19685596079893747 -0.08686880124284727 -0.5119007533928226 91 74 46
-0.1965551532727323 -0.08852489490820026 -0.5129200852763429 78 61 34
-0.19631372959643753 -0.0899850854371523 -0.514036885272664 71 54 31
-0.1960643457285668 -0.0914703047702197 -0.5151378131909146 64 47 28
-0.1960424534500386 -0.09220991610748724 -0.5166232314927914 68 53 32
-0.1960919169101943 -0.09271605359594551 -0.5182301528359722 105 88 67
-0.19622947748106484 -0.09293445929132607 -0.5199882679041814 82 66 43
-0.19634249479447488 -0.09323362343604336 -0.5217056253356547 78 62 38
-0.19663287521390585 -0.09295432868281645 -0.5237292508731193 104 88 65
-0.1964145096725852 -0.09433582703390173 -0.5248779128716006 68 50 28
-0.19670833337774052 -0.09404671237090473 -0.5269106987487475 74 55 31
-0.1968515170263424 -0.09424960578336897 -0.5286849680530457 88 72 49
-0.1968853451806957 -0.09480912939533898 -0.53027034447171 75 62 40
-0.19691914177459338 -0.0953689008566509 -0.5318559967376842 88 75 52
-0.19697157498143894 -0.09586822490438429 -0.5334745935398258 124 111 83
-0.19677598359984624 -0.09717363217820196 -0.5346584452718744 92 80 54
-0.1967440151002363 -0.09794692092273954 -0.5361283206325874 79 67 46
-0.19662682357598016 -0.09899660291310908 -0.5374474861271621 67 52 35
-0.1964782339983132 -0.10014759231128512 -0.5387099368430506 57 40 23
-0.19646771325145332 -0.10085053043023745 -0.5402159358435806 63 44 27
-0.19630276116101517 -0.1020535234179171 -0.5414470278402038 61 43 26
-0.19716920471874733 -0.09991802001690461 -0.5445168769435011 65 46 29
-0.19731595857214546 -0.10011374590783403 -0.546307515600619 66 47 29
-0.19726753308601003 -0.10094089880231713 -0.547749407973621 67 49 29
-0.19737625567338918 -0.10126029791447366 -0.5494735463395218 69 51 29
-0.19742038176105553 -0.101788654432837 -0.5510822192845922 81 63 40
-0.1976157492435176 -0.10182938416612852 -0.5529649052833246 93 75 52
-0.197698159631091 -0.10223504512535617 -0.5546446252966488 77 61 37
-0.19792685231019608 -0.10216986942944475 -0.5565911999843789 67 54 28
-0.19976455553567096 -0.09692634645613243 -0.5614742600024039 100 88 64
-0.20012891812118758 -0.09643018179647 -0.5636812998898485 107 94 70
-0.20113053022352578 -0.09388705350886367 -0.5670602806375481 121 110 84
-0.2021969925959023 -0.09113990770986335 -0.5705683124444216 118 110 85
-0.20377081704119177 -0.08676854996232342 -0.5750220180719051 86 78 55
-0.20416718013854743 -0.08618148608930237 -0.577315018120977 81 73 52
-0.20351795911934614 -0.08894830604984441 -0.5776743512470237 79 71 50
-0.20354901054425653 -0.08953281828043005 -0.5792912517741786 85 76 55
-0.20369993740855127 -0.08973365541515607 -0.5811317724153409 94 83 60
-0.2033781854943392 -0.09144751197732767 -0.5820908978078361 89 76 50
-0.2030021023929182 -0.09333370171179509 -0.5829451156197973 85 69 43
-0.2026110463911008 -0.09526611344078728 -0.5837675260681554 86 71 44
-0.20251170317925052 -0.09626536881189682 -0.5851352570781995 95 82 51
