ply
format ascii 1.0
element vertex 674
property float x
property float y
property float z
property uchar diffuse_red
property uchar diffuse_green
property uchar diffuse_blue
end_header
0.02725247623652796 0.11025397765319436 -0.5243451393017613 65 55 38
0.027385631301606372 0.10999882537450556 -0.5262947348583673 63 54 39
0.02745237584431063 0.11028732017593258 -0.5279542447832286 50 42 29
0.02738107996828311 0.11170235693415578 -0.52900508472307 42 35 23
0.027673812291038283 0.11014933280149751 -0.5316655747890305 35 28 17
0.027786682210852953 0.11006460935481745 -0.533533726132407 31 24 14
0.028821379723896437 0.11004354310316511 -0.5518974653054358 65 52 36
0.02870704979651694 0.11180459873077253 -0.5527500647348114 74 62 47
0.02863535382803775 0.11322010006841278 -0.5537945517394883 116 103 89
0.028577084190766523 0.1145261634655321 -0.5548984594730595 92 79 63
0.028554051484243233 0.1155475457443618 -0.5561624682697468 86 73 55
0.028670297626628427 0.11544841034906243 -0.5580670388734302 79 66 49
0.0288005272751003 0.11523819501834356 -0.5600382470451091 79 66 50
0.02886649921418697 0.11554522408309785 -0.5617143879280697 89 76 59
0.02907630089883742 0.11469928960781002 -0.5640588480811978 88 75 56
0.029134039521692117 0.11507442285652647 -0.5657001803627749 77 65 43
0.0291605327921959 0.11570018659256663 -0.5671965941970565 74 61 42
0.029174330374279224 0.11642755059319244 -0.5686337368487027 64 51 32
0.029172159802034223 0.11728241305075648 -0.5699958544781656 73 61 38
0.029203579223707574 0.11786866726423739 -0.5715151243095385 77 62 37
0.02912675872316175 0.11931871803891003 -0.5725251006264489 85 69 44
0.029249020042788502 0.11918019700290229 -0.5744720944993076 94 78 53
0.029288439759849 0.1197029169930252 -0.5760295175138745 91 75 50
0.029270522081211958 0.12068220295775864 -0.5773155022576802 92 76 50
0.02922310363722719 0.1218955240144485 -0.5784603975976718 105 89 63
0.02913498898671009 0.12343123507242758 -0.5794099058416737 110 96 69
0.029216453275726993 0.1236191836277072 -0.5811664043451136 103 89 61
0.02932521788951971 0.12359136764160643 -0.583054802327386 95 81 56
0.02940392587966856 0.12380290839584496 -0.5848009466801974 80 67 45
0.029106576576282114 0.12699299610334142 -0.5847407297539154 89 77 55
0.029132594305880444 0.12762035301905358 -0.5862312983215123 77 63 45
0.029119915517653222 0.12855363653630905 -0.5875350611521014 69 55 36
0.029106912213367572 0.12948899230963695 -0.5888364491111265 87 75 52
0.029207572501320132 0.12952688075064775 -0.5906884000468645 130 116 90
0.029784212950445345 0.1258128389682051 -0.5948562622205499 127 112 82
0.029864643612886058 0.12601538443592636 -0.5966182989106538 105 89 58
0.029938983427767754 0.12626663644098401 -0.5983518393345428 109 91 65
0.030078365922153034 0.12600704243611438 -0.6004048887410236 131 115 89
0.029762309212841866 0.12932773482214976 -0.6002260289856448 152 137 106
0.029820888122398116 0.12970257817675385 -0.6018818276502634 151 136 106
0.029841960322637726 0.13037210386315357 -0.6033535528951585 141 126 100
0.029905108670502244 0.13071181926732817 -0.6050330440558814 108 95 73
0.030020560998012202 0.13064248116004107 -0.6069723231976556 74 60 43
0.03007266211250513 0.1310700427203465 -0.6085993183876766 62 47 30
0.030147822158218852 0.13131772454689394 -0.6103415937485439 75 60 44
0.030135150699852866 0.1322521190882724 -0.611647307353929 79 69 52
0.03012751263444961 0.13314674342511013 -0.6129773567199998 76 65 49
0.03023201557906791 0.133166556277121 -0.6148680177509972 70 62 44
0.030368117136798087 0.13294128304085906 -0.6169189632958801 80 72 54
0.030529928319243525 0.13251739786660283 -0.6191016285835695 85 76 60
0.030597481357838643 0.1328284190554832 -0.620812424649485 83 74 59
0.030773705372146958 0.13229560925568756 -0.6230728929997408 75 65 50
0.030987801761932325 0.13147081192660914 -0.6255283522861634 83 72 58
0.031160095811471417 0.13097282380440356 -0.6277759969692905 86 77 61
0.0313201922272137 0.13057135818688395 -0.6299649064888445 83 73 61
0.03136284298954381 0.13108116863887548 -0.6315586290606116 86 78 66
0.03135768684222952 0.1319611072316964 -0.632908747178972 89 83 65
0.03150282840227025 0.1316788201919706 -0.635027017106264 84 76 49
0.03148381539405473 0.13266600855000732 -0.6363064737431516 125 112 80
0.03161059958118891 0.1325275253634618 -0.6383339520529593 130 115 85
0.03172842012435448 0.13245952706865838 -0.6403175364403283 94 79 53
0.03166860483791695 0.13376119969935035 -0.6413867661585306 87 74 47
0.031787504279725945 0.13368621685949522 -0.6433780904065736 107 95 68
0.03190171460662654 0.13364856051769225 -0.645347196528617 122 109 80
0.031983735149253914 0.1338594369875244 -0.6471511538919712 128 112 86
0.03211471580046849 0.13369522907642237 -0.6492111001522325 114 98 75
0.03233322503233279 0.1328610895439007 -0.6517297180336776 121 106 83
0.03251013398799246 0.13234834417576216 -0.6540352415906193 119 106 79
0.03269133585837192 0.13180476417558742 -0.6563665754054867 121 107 79
0.03270041506436996 0.13258004248220182 -0.6577983280138923 106 92 68
0.032911814130474795 0.13180868607205518 -0.6602933896678947 107 93 71
0.03310436746358375 0.13118374313928727 -0.6626932519655064 124 109 80
0.033302396392088596 0.1305192595081672 -0.6651256890051399 122 107 75
0.033484371315999066 0.1299794752653845 -0.6674769881512116 127 112 78
0.03365704018209631 0.1295126705114184 -0.6697823922736911 147 130 94
0.033983265537325495 0.12787923064754125 -0.6729066685122352 144 126 89
0.034078104836226156 0.128009174084809 -0.6748059491324315 161 146 107
0.03433160665189537 0.12693469504308721 -0.6775529780923638 156 143 105
0.034501867955407 0.12649508151832828 -0.6798601261450135 150 139 107
0.03485266001719302 0.12468830702745243 -0.6831372170639324 120 110 80
0.035698939355784554 0.11913150647134726 -0.6890802009149501 160 146 104
0.035894099552988536 0.11851487361808105 -0.6915400328896015 168 150 105
0.03608976873803137 0.11789664971635072 -0.6940063083526031 157 142 102
0.03576855794929095 0.12118686450187419 -0.6936858641156479 135 122 91
0.035899982974061696 0.12105482784967653 -0.6958064253116295 98 88 63
0.035782008665636925 0.12280566740194837 -0.6965774836528424 134 123 91
0.03599254187606806 0.12207853836235033 -0.6991296169124512 154 138 98
0.03591868247564056 0.12349555744144902 -0.7001381221626175 136 119 81
0.036142879296829716 0.12266865614370939 -0.7027697327464428 142 124 91
0.03613209576247725 0.12361086409268898 -0.7041218185374948 136 121 87
0.036118380925740934 0.12457461964854727 -0.7054570882751068 148 133 98
0.03678424074446371 0.12043811777340546 -0.7105191746775601 142 128 89
0.03700425789037408 0.11965288529127763 -0.7131447406236143 149 132 96
0.0371640872451952 0.1193211026708228 -0.7154430787634277 141 123 85
0.037382342340339166 0.11855381070145429 -0.7180667091457554 162 144 105
0.03735557682102517 0.11962131769222295 -0.7193399201921963 121 106 75
0.037573591495198344 0.11885930459741342 -0.7219679251455337 140 126 94
0.03782088322941136 0.11788128913128834 -0.7247625887908656 138 122 87
0.038013706137687946 0.11731243991614129 -0.7272591554214907 142 124 90
0.03790141503378597 0.11901938602954906 -0.7280593479902581 156 141 104
0.03824592868932519 0.11732360663915914 -0.7314066689533019 151 134 96
0.03850645168701004 0.11625678957914826 -0.7342910979340397 163 147 105
0.03894883973054968 0.11384147283172535 -0.7381997721007771 164 147 110
0.039290990668032655 0.11217593072614379 -0.7415546254247528 132 118 92
0.03952700947351921 0.11130191795478972 -0.7443192528315147 126 118 95
0.04513426459828881 0.08521115167242346 -0.8012731198639644 193 189 182
0.04498523746894032 0.08720831283327765 -0.8018956230110525 192 186 180
0.04490176519580159 0.08872500647159906 -0.8028965182036379 186 181 172
0.044807940375525254 0.09031571691672502 -0.8038346101133539 180 174 162
0.0447257532328587 0.09182012474286275 -0.8048382259777644 175 168 153
0.04465165345446617 0.09326428614511675 -0.8058869303629788 168 162 146
0.04423679109629123 0.09718390164777829 -0.804932528978852 162 156 140
0.04432513763428326 0.09744358363113304 -0.806928939738268 162 155 139
0.04431907736969031 0.09838902283934156 -0.8083703058574723 161 154 138
0.04422711317567131 0.0999567408700093 -0.8093038084648896 162 154 140
0.04419461377986551 0.10109226400549137 -0.8105865099188181 159 152 137
0.0442816476021201 0.10136211236573678 -0.8125762367578416 156 150 132
0.04430253757607409 0.10211092435317373 -0.8141746343424975 149 142 126
0.0443256949085296 0.10284329256555116 -0.8157864049559651 144 138 122
0.04469325652432316 0.10109030924237108 -0.8194498183350961 149 143 127
0.044644583704698954 0.10234271713066972 -0.8206364539946961 152 144 129
0.04474283715610378 0.10253580201999299 -0.8226999014766339 151 142 126
0.044860236495072474 0.10259203366720096 -0.8248795501315265 143 133 117
0.04496379060309893 0.10274900060210285 -0.8269780699686562 144 134 117
0.04452773950953828 0.10678340650450602 -0.8258349924306667 145 136 115
0.04460098398952703 0.10715642677129555 -0.8277485766847368 145 136 115
0.04478175115259676 0.10675902583374092 -0.8303116988394039 141 130 108
0.044488519510540524 0.10975954786129524 -0.8300140912058152 135 123 97
0.044327431765284364 0.11181005914572739 -0.8305095565337682 146 135 109
0.04420223468443321 0.11360147830938622 -0.8312186753557662 152 138 113
0.04405569111847944 0.1155434623401976 -0.8317949303769061 154 139 113
0.043993490482648945 0.11688113094535746 -0.8328807257966022 157 142 115
0.043974579714656854 0.1179089138496972 -0.8342285155611258 156 142 114
0.0437577712832323 0.12034625923689005 -0.8343670324090806 153 141 109
0.043643668421547904 0.12204929304145642 -0.8351285991724986 153 141 106
0.043622124151721495 0.12309217828429755 -0.836454307430497 154 141 107
0.04369608977032896 0.12345573503110685 -0.8383652082489067 141 128 94
0.04377867995223511 0.1237586798995981 -0.8403301508737739 134 120 89
0.04385641788131634 0.12409677512598141 -0.8422664089107245 138 126 93
0.043906690304925014 0.12463018442608578 -0.8440343217476859 137 125 90
0.04401070674379953 0.12478337570710721 -0.8461348759218594 128 115 80
0.044086038143871964 0.1251404920250751 -0.8480595092954649 134 120 85
0.04410287515873435 0.12591165881834146 -0.8496224689386326 132 116 79
0.0440767338336346 0.12698618531879277 -0.8509182806031442 129 112 72
0.04423997925463721 0.12672397288813925 -0.8533913532775804 126 108 68
0.044404204354723906 0.126456621983494 -0.8558734263938396 120 101 63
0.044362823048168465 0.12763889977396664 -0.8570748046696759 84 67 35
0.04429431488298914 0.12901116142249944 -0.8581051256336922 54 41 18
0.04420321560367246 0.13054100289203716 -0.8589919458615638 46 38 22
0.04437583864826297 0.1302173293735563 -0.8615310592752868 96 90 78
0.04487825934666263 0.1275816245122001 -0.8661460801433335 130 126 116
0.04504604896498751 0.12729771446954394 -0.8686644024370747 136 134 128
0.044844868599371424 0.12959964380207822 -0.8688589239155577 148 147 144
0.04474246341197178 0.131207537148362 -0.8696726004344699 162 161 161
0.04420610792943803 0.13584732070449781 -0.867737907653037 173 173 175
0.043453440710082954 0.14199064355491514 -0.8644204992939439 181 181 182
0.021843395300360224 -0.03353394013891382 -0.16427810269788562 178 177 178
0.021040708584056197 -0.02481408308228141 -0.16449431134921116 178 177 173
0.0207682421569831 -0.0212935683917599 -0.16548997562718598 176 174 169
0.02061496284867227 -0.018942547824466874 -0.1666596269492796 166 162 154
0.020386470601627533 -0.015859457183593814 -0.16770971483041675 131 123 108
0.020243959989905132 -0.013619329966879909 -0.16888648522770877 113 99 79
0.020025055972278476 -0.010636571052835726 -0.1699402886290579 95 79 57
0.020051103939979168 -0.01004465342304596 -0.17137254361687787 123 104 73
0.020083898316188703 -0.009518387571577053 -0.17281554458802173 129 106 71
0.020060128201657305 -0.008441543720431433 -0.17416865794460962 142 122 82
0.020011609890799767 -0.007124747009973009 -0.1754809020509453 142 123 86
0.019963162513368538 -0.005809694499212217 -0.17679152534223813 121 104 71
0.01996978479374622 -0.005030358078911168 -0.17819017364839954 105 90 59
0.019939669490439908 -0.0038948525461440647 -0.17952810386060547 89 73 45
0.019855134277050622 -0.002232577926198978 -0.18077472715742826 100 84 57
0.019980183866620344 -0.0026020708031560813 -0.18236798406265098 102 87 58
0.020349780837789017 -0.005337104280292396 -0.18437419283574316 87 71 44
0.0203451419431152 -0.004447436477215072 -0.18575612902656358 74 59 32
0.02025798237649129 -0.0027606479095088204 -0.18699688657404412 92 77 48
0.02055253556358394 -0.004761754048070124 -0.18888956472718726 86 71 43
0.020598797258438883 -0.004362887085267886 -0.19036003240159224 85 69 41
0.020295440762612475 -0.0005924963228488705 -0.1912230435460618 80 63 37
0.020353684600005906 -0.00031096353598709936 -0.19271139345072427 75 57 33
0.020371250836995185 0.0003627239866229731 -0.19412887337030704 69 52 29
0.02039012345467973 0.0010237662768754485 -0.19554854542271277 93 79 52
0.02046514552226511 0.001144984032683774 -0.19706849007799881 103 89 62
0.02056717865398152 0.0010075094039950772 -0.19863830639118957 68 54 32
0.02062302029501301 0.0013145599268024472 -0.20012635225455994 70 55 34
0.02086365434406497 -0.00015024734353619174 -0.20195221543414793 86 72 51
0.02079140028206653 0.001386753071564592 -0.20320892196584187 89 75 56
0.020818322016528168 0.0019726186175703236 -0.20464660063245488 83 70 48
0.020840378530014796 0.002605098655605806 -0.2060753275857234 83 68 43
0.02074851577033085 0.004326822278717377 -0.2072907716149675 85 69 43
0.020717641718524832 0.005464158563015173 -0.20861835818714894 72 56 34
0.020810924511009785 0.005415383450361952 -0.21018007131565264 87 73 54
0.02068372989151931 0.007470920895638791 -0.2113227640276427 131 119 97
0.020633847735031983 0.008787292263981478 -0.21261030215242474 136 122 101
0.020276798058191613 0.013028378669845853 -0.21330255195076225 137 120 99
0.019849142586872065 0.01793591355858999 -0.21384837887159128 176 159 126
0.01948587754223455 0.02222448322293883 -0.2145093410334635 200 185 144
0.01909425607288249 0.026776885363938255 -0.215105206604508 206 191 150
0.018598125295579134 0.032315633344998734 -0.21548414563818524 210 195 156
0.018223350375340876 0.03669532317700334 -0.2160924137818178 178 157 120
0.018165091528236626 0.03806826737752914 -0.21732557414316944 193 174 135
0.018203563252679255 0.038523621302534 -0.21875185017076254 215 194 153
0.018087533479804605 0.040441813789416796 -0.219865119494757 207 191 147
0.018039111862541004 0.04171846321730175 -0.22111301943250128 204 189 147
0.017994405316474716 0.042958967255378115 -0.22236684896498185 162 141 107
0.017843679840474518 0.04519981524605211 -0.22340020801627203 153 133 103
0.018329968003624943 0.041426364085112286 -0.225752104224325 152 136 102
0.018215582712632388 0.04332411833410601 -0.22686069665214556 167 150 116
0.018090055351821233 0.045324873683739365 -0.22794261441891514 136 116 83
0.018139855796244 0.045672660266080314 -0.2293913385928424 145 121 87
0.01818570652105833 0.04605800789164607 -0.2308323318045205 160 142 110
0.01817227063787075 0.0470010562564512 -0.23214724060377925 128 106 80
0.018281410759967358 0.04679213076085508 -0.23372460975968545 132 119 80
0.018304340089826888 0.04739368876636362 -0.23511783019503063 125 110 76
0.01832679302639426 0.04799972465059809 -0.23651003175393165 107 90 62
0.018360713147426603 0.04849829250563705 -0.23792728207522773 97 82 54
0.018401100386150306 0.048936466369789836 -0.23935901190347977 81 65 44
0.01840100514901027 0.049753718658642365 -0.24070179451136037 70 54 36
0.01849594375816246 0.04968205428858595 -0.24225499809339746 58 45 29
0.01851173296247697 0.05035093809349593 -0.24363329631017208 60 43 29
0.018579021941832023 0.05053893703264103 -0.24512698554039863 69 54 36
0.018745170955985154 0.049805367360326855 -0.24684472825525525 71 56 37
0.01895254724994603 0.04868958769459929 -0.2486593764101313 69 52 33
0.019067838137310316 0.04843417581744767 -0.2502685360351128 76 60 37
0.019250620415122127 0.047551976230864164 -0.2520345449623596 88 73 46
0.01945180699235695 0.04650094273523876 -0.25384675614514296 93 80 54
0.01963162656751699 0.045651043325571655 -0.2556137528349296 102 89 63
0.019770133705768744 0.04518701019132799 -0.25728836009638406 107 94 65
0.01988068726282418 0.044984004431700655 -0.2589003469081069 110 97 66
0.02004303308887769 0.044302117560347055 -0.2606361695469714 103 89 61
0.020024838478004594 0.045294687550368334 -0.2619487836303416 92 80 55
0.019632943133817193 0.04974575812448077 -0.26237312827221565 83 71 49
0.019569161255594596 0.05115610083441397 -0.26357059704066077 75 64 44
0.019659216970335267 0.05114345057007111 -0.2651349363858738 88 77 56
0.01966802260505023 0.05188209365864518 -0.2665050713803674 92 82 62
0.019770522411303445 0.0517559784368107 -0.268101789366244 75 63 45
0.019762542357171002 0.0526496721288031 -0.2694315378317265 72 62 43
0.019834186624325335 0.05280934123084773 -0.2709552830142862 71 63 46
0.019802617747320853 0.05391988839839954 -0.2722265686690137 55 47 34
0.0200638693837105 0.052336085496520336 -0.2742195809222802 28 20 11
0.020187156048452302 0.0520238239650815 -0.27587595812090404 19 15 7
0.020214414757365823 0.05259496463478824 -0.2772953443288374 14 10 7
0.02017317361732886 0.05379480810799768 -0.2785432809795746 15 11 8
0.02053559321987344 0.05129217051069981 -0.28080546821367175 16 12 9
0.020862096794214604 0.0491235022666959 -0.2829848775298375 17 12 8
0.02085884424249122 0.04997832377646566 -0.28433389044996277 22 16 12
0.02071631168892939 0.052106974137264124 -0.28532688443299814 30 22 14
0.020710360028898714 0.05298472894926123 -0.2866661154590655 42 32 19
0.02094007328787681 0.05170947641598726 -0.2886115880109404 65 53 33
0.021000228126851424 0.05198474773065968 -0.2901232744173173 94 83 56
0.02084034431054362 0.05426727153586082 -0.2910639901648441 110 97 71
0.02068478589702459 0.056507767604346934 -0.29201170146414335 100 88 68
0.0205180613910572 0.058847388466739856 -0.2929259383598239 108 97 79
0.02024020397321294 0.06219543179479747 -0.29354297899131343 114 105 87
0.02017637371229137 0.06359341193804721 -0.2947192585166927 91 82 65
0.02021612567831517 0.06404920929031091 -0.2961687986888739 56 47 28
0.01999550321721099 0.06686865809246952 -0.296923693337667 56 44 28
0.020126869296391445 0.06649216853632817 -0.2986166221477112 88 73 52
0.020375164805990414 0.06505754067998358 -0.3006269895190938 134 121 91
0.020500628072563122 0.06473844696929708 -0.3023104394159996 158 148 114
0.020565133919284006 0.06497238953046737 -0.30383072196454913 135 124 94
0.020608462971385952 0.06539839630369759 -0.30529421721098743 105 93 67
0.020516752063303452 0.06704467245627538 -0.3063882157373341 96 82 57
0.020495630321798623 0.06805211072854901 -0.3076737665671904 103 88 64
0.020490376789302073 0.06891579820716336 -0.30900214383088387 97 85 63
0.02050429505295346 0.06960629939585017 -0.3103830726515085 83 69 49
0.02050345897800118 0.07042955196876413 -0.31172268616499504 71 56 39
0.020534479105195028 0.07096581246587688 -0.3131508991681844 64 48 31
0.020549072369477697 0.07164989632053176 -0.31453315213728733 74 58 41
0.02057442796971475 0.07223717548606753 -0.3159455894314988 86 71 51
0.02058029154740125 0.07299948086808068 -0.3173028654376689 75 60 38
0.02061191202630402 0.07353050672832442 -0.31873303427873845 71 56 34
0.020610129734989074 0.0743610541208791 -0.3200679932844717 70 55 34
0.020665773103561647 0.07467695435311963 -0.3215671078058942 71 59 36
0.02069556208232385 0.07522469330991126 -0.3229925334520786 88 76 54
0.02025736506237202 0.07995717531534008 -0.3230648303528044 116 105 80
0.02042773108680277 0.0792457897533104 -0.3248932953981358 135 125 97
0.020523415620823385 0.07920322960518394 -0.32650750791975885 123 113 87
0.020768433483810023 0.07782957035730577 -0.32856048178583797 95 84 63
0.02098883994395683 0.07667843484817563 -0.33054632163778846 91 79 62
0.021200886024520766 0.07560456070478944 -0.3325121054674399 97 88 73
0.021409269445314023 0.07456596234662582 -0.33447145165866426 94 85 70
0.02154570978894707 0.07416972833421163 -0.3362212155455549 83 75 60
0.021577513085539488 0.07470482473969173 -0.33766129876253087 74 67 51
0.02177889313642426 0.0737345249932929 -0.33960973026235775 76 69 53
0.021860394950506123 0.07383019907033593 -0.3412017088453107 94 86 76
0.02478636223535128 0.09521298695253456 -0.4278809974535903 199 200 204
0.024674562498714043 0.0969807312599761 -0.4288212215967748 200 201 205
0.024850915633586632 0.09630902635341619 -0.4308203495774702 200 201 205
0.025020829236757115 0.09569386775909193 -0.4327991538135325 200 201 205
0.025112671019446083 0.09574009654015346 -0.4344917930370911 200 201 205
0.025240869041449353 0.09548047577432126 -0.4363212185214036 200 201 205
0.02534505485303569 0.09542477031283436 -0.4380634442350102 201 202 206
0.025501340544008558 0.09493124638223539 -0.4400024723118733 202 202 205
0.026219811293126373 0.0905356266152118 -0.44541769202676773 202 202 204
0.026188874459499134 0.09162386139665116 -0.44666339680524725 199 197 200
0.026136534532312575 0.09289108160069885 -0.44782681512185163 188 186 187
0.02610672495914525 0.09396822243026061 -0.44907411118577595 170 168 167
0.026041282873013147 0.09534336517872859 -0.45018444983014677 131 129 125
0.025697045070613638 0.09905269760176642 -0.4502274260886102 101 98 93
0.02568288185211528 0.09999429359135575 -0.45152714311850994 102 97 91
0.025693964540178464 0.10072424595952385 -0.45292306146751105 91 86 75
0.025703971623641415 0.10146302182649035 -0.4543145626568826 83 77 64
0.025752652983412134 0.10187871467100626 -0.4558553011934433 82 73 60
0.02569615292536402 0.10317223106521815 -0.4569887531418518 78 69 54
0.02573534420281322 0.10366701107312083 -0.45849255437294983 76 66 50
0.025869662181399713 0.10336972444454756 -0.460367738640949 75 65 49
0.0258500133215386 0.1043552605268127 -0.46164318374447344 78 68 51
0.02580341313788565 0.10556431389752059 -0.462811942301728 78 66 51
0.025837231703438865 0.1061042765342311 -0.4642955034697997 63 51 36
0.025819076560931964 0.10707584040171342 -0.46557425517002804 58 46 29
0.02581246130924311 0.10795112251530391 -0.46689773790490885 75 63 46
0.02583527250966956 0.10858212100047467 -0.4683373114726336 89 76 59
0.025958853572698837 0.10837865241273262 -0.47017784553746755 71 58 41
0.02592877376162336 0.10944795601231531 -0.47140749190467246 69 56 37
0.02600504458346091 0.10963730867982556 -0.4730615054990755 80 70 52
0.026012982916995313 0.1103918419116598 -0.47444251517935815 77 68 52
0.02606244234065566 0.11080347084562814 -0.4759902635808941 66 56 39
0.026221683516636448 0.11031011497045906 -0.47798159022969766 61 49 32
0.02618594960793739 0.11142520105632236 -0.4791870304384045 64 55 36
0.026241063645028553 0.11179152165905468 -0.4807597741084687 77 65 45
0.0263499741702704 0.11171573092620585 -0.48255212147256554 81 68 46
0.026377325578569217 0.1123114857322362 -0.48401363199628883 80 66 44
0.02649475926523696 0.11216747811526043 -0.4858437796957656 80 68 47
0.02653838069048047 0.11263045098014651 -0.48737323405201544 83 70 52
0.026615992707084937 0.11281500990809114 -0.4890429690365849 83 70 53
0.026685795883012398 0.11306428207262427 -0.4906817132381461 80 67 50
0.026702224667127933 0.1137510856777751 -0.49210074906687407 87 75 58
0.02685196257491993 0.11334749878806846 -0.4940724789432766 83 74 55
0.027040440086074105 0.11262905326069325 -0.4962081259535418 86 76 58
0.0271624292356722 0.1124557392983728 -0.49807024661441424 83 71 57
0.02725096639773746 0.11255667944138098 -0.4997947237642786 69 57 44
0.027373777475058217 0.11237911877365551 -0.5016643256610325 68 57 41
0.0276702534829521 0.110788440922586 -0.5042660432629535 65 56 40
0.027548588012777833 0.11260431424960998 -0.5051117887944376 75 67 48
0.027804691466314552 0.11134648760792125 -0.507550445766898 68 60 41
0.02789115776826283 0.11147002862261797 -0.5092756524941779 65 56 40
0.027898549635260488 0.11223632830461129 -0.5106664002809644 55 44 32
0.02796727482918043 0.11250494077325959 -0.5123179866367086 51 39 26
0.028091234692674976 0.11232653533588127 -0.5142064196068491 57 44 32
0.028137739807143642 0.1127766745417034 -0.5157655197176979 62 49 35
0.028244185301891156 0.11274216906969411 -0.5175823961429665 74 61 45
0.02831244724923162 0.11301745860244725 -0.5192368129015665 75 62 46
0.02840413587132843 0.11310413348449802 -0.5209932939533188 76 63 47
0.028450661537732052 0.1135562139548214 -0.5225559493845734 74 62 44
0.028507370056796506 0.11392649553754054 -0.5241632751362129 77 66 48
0.028544637231169113 0.11445386366420571 -0.5256868191313352 71 61 44
0.028615410888458374 0.11471168586022679 -0.5273567112610565 70 60 46
0.028698504347723832 0.11487105311653915 -0.5290814872306361 54 44 32
0.028617761446959575 0.11634792654391388 -0.5300898595033364 51 41 29
0.028545717038915123 0.11775354815087036 -0.5311341255091572 44 34 22
0.030142354649123772 0.10827893929546303 -0.5436513088442432 49 41 29
0.030161993659162965 0.10895768261632237 -0.5451135907512908 41 32 20
0.029981029822692268 0.11374034404290406 -0.5497962263255601 79 66 50
0.029100738905392907 0.12158298385126999 -0.5472033477146778 78 65 51
0.029210153809206413 0.12153936498676193 -0.5490574989231212 90 77 63
0.02927231234484603 0.12187255522542868 -0.5506997363908226 88 76 59
0.029792962186600696 0.11856463862007852 -0.5544223121967885 86 72 55
0.0299110447699968 0.11845812825825719 -0.5563255683081899 87 72 55
0.03005938391656506 0.11811297251461106 -0.558368802231334 85 72 54
0.03006002177738942 0.11893965575251941 -0.5597400035668247 83 72 54
0.03036042442962688 0.11739314020609848 -0.5624834887645092 80 68 49
0.030404877423601488 0.11787467318658279 -0.5640581134802221 80 68 48
0.030426662147021867 0.11853561948087467 -0.565528886157605 82 68 49
0.030423098926121217 0.11939668248484515 -0.5668826985757658 75 62 43
0.030337611724486083 0.12090368818273142 -0.5678571327102134 71 57 37
0.030465177438858387 0.1207298628225348 -0.5698165701189274 73 59 35
0.03046283511790624 0.12158054781855922 -0.5711747998508843 81 67 41
0.030588061026355903 0.12142704226270236 -0.5731264803079795 92 78 52
0.030644238095051724 0.12181778155291006 -0.5747581064368479 99 84 59
0.030740448197167813 0.1218944656615797 -0.5765777382684809 96 80 54
0.030653901289726407 0.12340658820800052 -0.5775419372942843 115 100 73
0.03053869306727441 0.1251420149177238 -0.5783690000951556 106 92 65
0.03064783538947457 0.12511763921813954 -0.5802500102188086 96 81 55
0.03064003953685212 0.1260099203420743 -0.581580677167011 90 76 49
0.030608390440254915 0.12708837279535506 -0.5827977519004701 75 61 36
0.030597041752786706 0.1280074259333032 -0.5841099248107477 70 54 36
0.03059166860267912 0.12887934985508265 -0.5854497463237567 73 56 36
0.030583676153460037 0.12977132495429827 -0.5867764493612285 86 70 45
0.030581190847314005 0.13061994693055115 -0.5881287684175666 105 90 63
0.030668395099079277 0.13076961401335316 -0.5899099443577733 152 138 109
0.0311944352513078 0.12750486936179511 -0.5937984218182413 130 116 86
0.03127438583559803 0.12771554217268918 -0.5955522798601695 103 87 62
0.03138838964032121 0.12766239281805106 -0.5974715257936022 97 79 57
0.0314680086832821 0.12787735711711912 -0.5992266079960817 103 85 64
0.03116525491885626 0.13105874410323193 -0.5991312602395533 104 87 64
0.03125720947523707 0.1311770625877553 -0.600944479018557 96 80 56
0.03130357826025632 0.13164924432331182 -0.602537441564941 90 74 53
0.03137889830747746 0.1318977557553111 -0.6042720416170214 78 62 46
0.031465270738210524 0.13206152109997954 -0.606061768942489 77 63 47
0.03153816215269447 0.13233022784650483 -0.6077868437258881 66 54 38
0.031650450749752826 0.13229558600462704 -0.6097063454191223 77 66 50
0.031614953551030944 0.13340149145461436 -0.610900849136552 78 69 51
0.031652621464849 0.1339430197844133 -0.6124547418029592 85 76 58
0.031767006148417334 0.13389428698035077 -0.6143879575740068 90 80 61
0.03186763146681257 0.13395255855900914 -0.6162550151402936 111 99 81
0.03199649631109644 0.13379487470088997 -0.6182638740132941 107 98 82
0.032158325871553185 0.13338552062474424 -0.6204389521795008 88 79 66
0.03228550009648601 0.13324379499041877 -0.6224443057863425 104 96 82
0.03241364761671526 0.13309597383152255 -0.6244567634974314 105 96 80
0.032506218966173187 0.1332219285100704 -0.6262934012735029 122 113 93
0.03266393935363945 0.13285038334143068 -0.6284583495581985 88 77 63
0.0328707691417615 0.13210522689345833 -0.6308730891757163 89 81 67
0.03299661190114774 0.13198098259637758 -0.6328837649687926 95 88 69
0.03290023528048652 0.1335537193257077 -0.6337746587080717 119 108 79
0.03300985614268319 0.13355436909562013 -0.6357052613520331 128 113 77
0.0331671162632037 0.1331932629245829 -0.6378792812307551 130 114 80
0.033283321119036056 0.13314637082748937 -0.6398475636037831 107 93 63
0.03347012150560507 0.132563871194249 -0.642177334189604 99 85 55
0.033571550728716634 0.13263212643498665 -0.6440749660820564 105 91 62
0.0335565722422844 0.1335850520461757 -0.6453789711822481 152 137 105
0.0337235211602018 0.13315764457045337 -0.647614460098822 107 90 62
0.033850923073576046 0.13303179610214166 -0.6496499409230293 100 83 64
0.03404372671956017 0.13241212551312756 -0.6520242303722799 97 84 62
0.034288521822223576 0.13140136465981486 -0.6546702861516811 90 81 57
0.03442998642092257 0.13117449169757286 -0.6567871016815106 107 94 67
0.0345273100534421 0.13128249393741742 -0.6586778550973158 135 121 89
0.03475725457847953 0.13039081548406606 -0.661258414781935 142 128 93
0.03491963346121976 0.13001117958996722 -0.6634920513355173 151 132 93
0.03508481171395208 0.1296122675601466 -0.665743250969892 152 138 103
0.03529003362338907 0.12891385264991273 -0.6682065832379418 120 106 77
0.03542777451736333 0.12872518976378547 -0.6703207138151064 144 129 92
0.03570500314127748 0.12749012448562155 -0.6731686582295524 146 128 92
0.035891460889187175 0.12693967792079433 -0.6755451281232452 163 147 110
0.03622309603839368 0.1253026183374801 -0.6786894104251054 138 126 95
0.03649104199497215 0.12414678150171851 -0.6815043008462548 131 121 93
0.03683233940567747 0.1224449965877683 -0.6847121777337131 135 122 92
0.036857642570044334 0.12311089722271845 -0.6862530319697638 171 155 115
0.037253154639614657 0.12101016162566733 -0.6897588765863049 165 147 106
0.037596651992736 0.1193026417753126 -0.6929960420807887 143 128 98
0.03778389705254689 0.11876494642861121 -0.6954073471328779 120 108 87
0.038016611590116496 0.11789045642423038 -0.6980649409159477 111 102 82
0.0380998986634995 0.11813148141266755 -0.6999274597161889 124 111 87
0.037666627832149656 0.12221677619757365 -0.699021781322219 142 126 93
0.03812876611531909 0.11963954267906046 -0.7029164877174917 140 124 92
0.038278614211057396 0.11938756773393192 -0.7051395734037579 144 128 96
0.038244160611396655 0.12050493938516688 -0.7063713094395698 141 126 93
0.03853140095870271 0.11923631213283781 -0.709340266359094 152 139 104
0.03865770558952036 0.11916332257529991 -0.7114433909572766 156 141 106
0.038667970106299174 0.1199505327226903 -0.7129191025280377 141 123 89
0.03886250366800052 0.1193748661431466 -0.715396232599545 137 119 85
0.03910407991450955 0.11845382317915257 -0.718133225040625 125 108 76
0.03931737468282416 0.11774436988754469 -0.7207204956312159 124 107 81
0.03952860372260813 0.11705259673779511 -0.7233004910489016 117 101 78
0.0397923092533883 0.11597653311386266 -0.7261719766261558 107 92 68
0.03990773415721611 0.1159953033208477 -0.728234551207535 121 106 82
0.04011973498196744 0.11530481574370441 -0.730830246385877 128 114 90
0.040406602663216065 0.11406650170118657 -0.7338425118390236 132 117 94
0.04072773979750978 0.11257992992938506 -0.737049576286188 130 117 92
0.04111185750885877 0.11063511791620831 -0.7406113680876417 150 141 120
0.04162512774871123 0.10774822776913626 -0.7448966781909663 169 162 149
0.04712501096026897 0.10463237705930767 -0.8365791095560992 169 162 149
0.04680007106655518 0.10782691029060731 -0.8361148709667959 163 154 139
0.04667200520904329 0.10962816687964966 -0.8368239116763205 158 149 132
0.04637998072556436 0.11258302605315948 -0.8365447593452257 158 149 131
0.04633048049507468 0.11382609002591976 -0.8377184223399876 149 140 121
0.045923762282183145 0.11758128794290296 -0.8367370788234894 145 137 116
0.045931891122068406 0.11841509369795797 -0.8382518527328278 147 138 116
0.04596758733935092 0.11905508173136023 -0.8399330155489099 149 139 116
0.045838952279043894 0.12084816098474649 -0.8406185847097363 146 135 113
0.04600809416051488 0.12055193015646615 -0.8431084721731684 146 135 114
0.04598381525136796 0.12161212410806665 -0.8444252390927941 140 130 109
0.0460401814131382 0.12210740141931781 -0.8462321687589324 140 130 110
0.04613984324002225 0.12230039684268332 -0.8483039007980653 146 135 115
0.04627195468297607 0.1222676869129441 -0.8505755001090758 154 143 122
0.04642375568010989 0.12209892854564544 -0.8529698598485104 160 149 129
0.046539020614923654 0.12218648358982281 -0.8551427763755801 165 154 134
0.04650379864028803 0.12332336609391908 -0.8563930848018376 171 161 141
0.04653273490315962 0.12401299359825926 -0.8580369214087784 140 131 111
0.0465954409359961 0.12446786702729357 -0.8598889764613141 115 107 89
0.04641299002117614 0.1266261566292272 -0.8602280914914098 74 66 52
0.046138054315125965 0.1294236574317507 -0.8599908641188246 67 61 50
0.04680760340185306 0.12566855615703976 -0.8655986851964205 134 131 121
0.046879858295518925 0.12605928915268225 -0.867513300981583 154 152 146
0.046859738513001355 0.12708993898075788 -0.8688546734289 158 157 155
0.04683239401055454 0.12816996276643414 -0.8701501021232071 165 164 165
0.046488425495008215 0.13143669385960918 -0.8694696963951416 174 174 176
0.0463675851204924 0.13315869250177637 -0.870175532239967 181 181 182
0.04623775671602998 0.13494081844227218 -0.8708220770375124 186 186 186
0.023186313198438235 -0.02944706248484348 -0.1667041810040104 177 177 175
0.022824446593573505 -0.025101581719582378 -0.16757500717669083 177 177 173
0.022478896742531146 -0.02091894573733346 -0.16846122534473448 169 167 162
0.021947542568075348 -0.014952583158025418 -0.1690555028945357 152 148 138
0.02169599805803845 -0.011686527805693035 -0.17006609379993248 127 118 103
0.02179571810170091 -0.011801657793221829 -0.17161367747563017 115 99 77
0.021708402851293152 -0.010118802659863368 -0.1728714180881008 109 91 64
0.021640047834263997 -0.008619565485395886 -0.174156308377867 125 103 72
0.021502114126405358 -0.0064542174986003675 -0.17532882519761467 118 98 67
0.021493138522757294 -0.005527306525552361 -0.17670324482697253 124 106 78
0.021560877915762108 -0.005335634826589691 -0.1782002271687371 121 106 78
0.021339372388167275 -0.002375018208992871 -0.1792298347913206 82 65 39
0.021348106897124068 -0.0016198481821929622 -0.18062923478574258 90 73 47
0.02220858722294254 -0.009004366199570749 -0.18342818415174697 90 74 46
0.022236760498020352 -0.008429044473308708 -0.18486929848768285 83 68 41
0.02210218493438743 -0.006300740901236154 -0.18603915419109324 77 61 36
0.022133067970759333 -0.005752282574907161 -0.18748312299963507 95 81 53
0.022291589076331258 -0.006419746345742772 -0.1891431758816608 85 70 43
0.022244292027763797 -0.005125857917768248 -0.1904558818345801 90 76 48
0.022281846735502226 -0.00464015993643889 -0.19191246033572992 87 71 45
0.02185817309564005 0.00022996337625309782 -0.19257270196907836 82 66 42
0.022072760697894454 -0.0009687594210062433 -0.1943323771857007 74 57 35
0.022140489685824983 -0.0007708661879470974 -0.19583945330918362 83 68 47
0.02217676682596318 -0.0002740404578997352 -0.1972921467707095 68 55 38
0.02225382482605328 -0.00016348450964050187 -0.1988175497539238 54 39 29
0.022750986552458538 -0.004030263887473365 -0.20109497507873547 57 43 30
0.022642161431144035 -0.0021562551143888276 -0.20229358139857545 70 58 39
0.022459043656030325 0.00041828337004869154 -0.20335451267680554 88 76 59
0.02241198842453067 0.001704367888662947 -0.20465854408901374 101 89 70
0.022395590185423375 0.0027000258317466663 -0.20601715483681382 91 78 53
0.022396318157983035 0.003533560699620339 -0.2074064551508841 107 92 67
0.02236210213722186 0.00469616162198673 -0.2087302852632062 75 61 40
0.02242681797244462 0.004926111893444177 -0.21023779749594515 95 82 66
0.022258653887214076 0.007348458137825892 -0.2113079610470402 142 130 111
0.022244101656026968 0.008323413089937018 -0.2126645486190088 141 127 108
0.02189976329743801 0.012396927914093567 -0.21339166054427625 133 116 98
0.021460530051340226 0.01735623428517101 -0.21392804911597843 175 159 128
0.021068671489050256 0.021864385390096594 -0.21454489057957854 192 176 137
0.02067079669968152 0.02642298517011972 -0.21514021095487545 206 191 150
0.02009928925777407 0.03260222947450963 -0.2153863584425162 203 185 148
0.019711546291913833 0.03705265676081653 -0.21597958535592987 156 134 102
0.019684457320764712 0.03812357169423293 -0.2172761887947388 168 147 116
0.019665286961925484 0.039119762464626714 -0.21858737246414542 156 132 101
0.019515035066639326 0.04133963884869853 -0.21963528781365008 184 165 122
0.019470029848315362 0.04257480877622001 -0.22089095544302048 197 180 140
0.019501328625459564 0.043097441563607584 -0.2222995171030408 155 131 100
0.01949860807185698 0.04393720779318857 -0.22363901460172367 186 166 131
0.019149362951125598 0.04800316828472099 -0.2242681448362376 187 169 133
0.019714290355156077 0.04355833164833348 -0.22677177379820604 167 149 112
0.019734922330160456 0.04418150294786538 -0.22816049855046763 165 144 105
0.019616294910423077 0.04609833035525952 -0.22925900625645884 154 132 91
0.01968260298528348 0.046296467921740345 -0.23074172502114668 163 143 103
0.019676406650310133 0.04716774379830963 -0.2320726928067537 148 123 86
0.019757158289722642 0.04723275592535172 -0.23358724392973243 168 152 104
0.019755290896709746 0.04806374915497931 -0.23492711969289048 140 123 82
0.019772394154375473 0.0487188437530141 -0.23630707542916105 129 110 74
0.019824347738836703 0.04905160900303712 -0.2377619950585603 122 105 74
0.019825798323808565 0.04985143159378436 -0.2391082105318617 84 68 49
0.019913610640601435 0.049853615014054505 -0.2406420372788452 59 43 29
0.019953038909214883 0.05030309821658487 -0.24207145443356556 58 44 31
0.019949882899036597 0.05114538223992035 -0.2434075218819819 71 53 38
0.02001041861821364 0.05140062586460785 -0.24488396419271188 95 79 57
0.0203340364606844 0.04923498123748672 -0.2469466961947265 80 64 42
0.02041545834784008 0.04930109696952406 -0.24847474972591882 73 56 35
0.020552224328743166 0.04885944861711909 -0.25012863976401184 87 70 43
0.020772465746901586 0.0476528930952163 -0.251973902546268 96 80 51
0.0208923038026287 0.04737041647384561 -0.2535956841084513 98 83 58
0.020936897161623384 0.04777920861945813 -0.2550479054899884 96 81 55
0.021016101774976637 0.047871226830123535 -0.2565800996559855 99 85 56
0.020977847909211138 0.04903930602964016 -0.257842613712667 98 84 53
0.020974046252432984 0.04989138108193417 -0.2591836003569671 96 81 53
0.021020211137652272 0.05028638244258011 -0.26064043120623637 89 76 52
0.020925111911932415 0.051971893626518585 -0.26176691454014384 83 71 49
0.020852292374416298 0.053452414897927625 -0.2629430958994993 79 68 47
0.020856735086061347 0.054227041413991824 -0.26429984000641954 105 94 74
0.020736801674129918 0.05613470387565037 -0.2653604531856101 115 104 86
0.02095672773765469 0.05494602657045624 -0.2672297471431394 68 55 41
0.020990710805864864 0.05545178839050375 -0.26865722231428574 44 33 21
0.021102006758886935 0.05525489648195864 -0.2702714952910952 42 33 25
0.02115187704689626 0.05561722162417747 -0.27173893060771487 35 25 21
0.021602604612793574 0.05234158494521993 -0.27418348722132285 21 13 11
0.02164535499309303 0.05277209214435529 -0.2756394560259954 16 11 9
0.021932908979883602 0.050984403742002936 -0.2776979470440962 15 11 8
0.021897469939765865 0.052125234876832405 -0.2789645111402562 15 11 8
0.022454425576736475 0.047905158412594184 -0.2817004237884596 15 11 8
0.02229889540669539 0.050134290322643445 -0.2826716455772496 15 11 8
0.022453854576800502 0.04955592856895799 -0.2844167834183595 18 13 10
0.022423391853666833 0.05065323879125608 -0.28569818855448065 21 13 8
0.02241456982141225 0.05155460227834409 -0.28703309167693897 32 23 12
0.022685941032601777 0.0499301633065585 -0.2890791937000906 56 45 26
0.022647057113305794 0.05110334767945897 -0.2903391598088066 98 86 63
0.02246854273254603 0.053532177448993024 -0.2912396665087104 139 127 103
0.022246747774368653 0.056347346435376075 -0.2920240181907202 124 112 91
0.022091339374767545 0.058562609208218847 -0.2929744565465348 101 90 71
0.021862745252538437 0.06143241130671142 -0.2937305544083923 113 103 84
0.02160736640229607 0.06453896124030602 -0.2944108986719434 100 89 72
0.02156912380552069 0.06569526627848529 -0.29565416362579455 67 55 38
0.021322159059574707 0.06872017225137696 -0.29634629427210674 62 49 32
0.02144073906412426 0.06846980225979293 -0.29799917831109207 77 62 42
0.021592052248645167 0.06792806216097737 -0.29974126313014016 109 94 67
0.021701902730799975 0.06775862524410059 -0.30137569024333855 149 136 103
0.021858399995358737 0.06717392437663716 -0.303137161688156 165 153 119
0.021951559200416474 0.06715617885877818 -0.30473125011006724 151 141 106
0.021899938238185108 0.06843007824673994 -0.3059355947181238 137 123 95
0.021834979398530182 0.06982174788845899 -0.307102015038492 124 108 82
0.02178309314170026 0.07109584001482484 -0.30830205492769425 109 93 68
0.021792781128881764 0.07182127669023705 -0.30966896450537357 92 76 53
0.02174285261093986 0.07307632188809854 -0.31087166329715626 86 71 50
0.0217540862264767 0.07378726079920725 -0.3122415634419721 97 82 61
0.02178103994808527 0.07435856535399585 -0.3136547912811877 102 87 66
0.02179716352207438 0.07502594929428383 -0.31503797133036726 80 65 43
0.02178943188108893 0.07590456977409632 -0.31635431470796915 66 50 27
0.021838234222092485 0.07628235099148602 -0.3178286662376308 70 54 32
0.021851909448786823 0.07697118813100928 -0.3192046120715466 68 52 31
0.02187465987443521 0.07757969973132951 -0.3206060419720772 69 52 35
0.02189269020986307 0.07822989791249402 -0.3219940663811262 73 56 38
0.021916610628315868 0.07882806258118408 -0.3233987962680422 82 66 46
0.0216353261587835 0.08292398382673768 -0.32526169270250793 99 87 65
0.021665131517781225 0.08346811586268132 -0.32667973683083684 94 82 60
0.021940666901570732 0.08185094088370157 -0.3288104006440742 81 69 48
0.022085847694317057 0.08138296531207152 -0.33056744710375874 88 79 56
0.022226259075089832 0.08095858268909653 -0.33231337702840735 90 82 59
0.022371713965496903 0.0804915840601248 -0.3340768133823423 83 75 52
0.022393182122859262 0.08111341850761358 -0.33547790161776336 81 71 47
0.022594532126121104 0.08015927413552475 -0.3374108285357164 86 74 52
0.022656247699125102 0.080429997656146 -0.33893339666249506 88 77 59
0.02287903106609674 0.07929236946320202 -0.3409367916542765 85 74 61
0.023142816853973763 0.07779914809001781 -0.34306742067516366 91 84 71
0.02344011009877995 0.07601664134461175 -0.3453041860749988 131 127 118
0.024571254106981952 0.07353762959577426 -0.3609213617468583 181 184 188
0.024760523411225453 0.07271838155308868 -0.3628665563827921 183 184 188
0.024831333379426217 0.07292696156953504 -0.3644449714151972 183 184 189
0.02631215423667818 0.09641516594461934 -0.4290414772255732 200 201 203
0.026432374235799562 0.09622954717010425 -0.4308298789773268 200 201 204
0.026566281951670517 0.09593106147393891 -0.43267039937011686 200 201 205
0.02661979889485419 0.09630418103426167 -0.43421920883071924 201 201 205
0.026836467485916598 0.09531886521435229 -0.4363675972021862 200 202 204
0.027312851137437595 0.09217483395415214 -0.4394765891020531 187 188 188
0.02732727965717998 0.09287819415341464 -0.44088964723631036 157 155 154
0.027155255212371904 0.09513056631349419 -0.4416118213304019 144 140 136
0.02716986355191812 0.0958309357354476 -0.443023073628509 153 149 143
0.026930609019190067 0.09863695260361491 -0.4434880590333252 124 119 113
0.026930120120075896 0.09946050261435065 -0.44483966372317857 102 96 88
0.026892988332439974 0.10058718707941727 -0.44605336617236696 98 92 85
0.026866479788968795 0.10162515511341054 -0.4473056711043428 96 91 84
0.026846994564974157 0.10260438614353462 -0.4485833582635398 95 89 77
0.026814621533580635 0.10368951019312987 -0.44981134836669245 92 85 69
0.026879325685544877 0.10397258021560588 -0.45140638630205326 90 80 62
0.02686034155607646 0.10494643844311984 -0.45268393216486474 85 74 56
0.02690313452399092 0.10541063612855535 -0.4541962842264664 81 70 52
0.026876479843162313 0.10644693821732432 -0.45544329119123883 79 68 50
0.026977938870293375 0.10642853682760524 -0.4571809294283049 75 62 46
0.027078995960203866 0.10641449763648896 -0.45891876782962937 65 52 36
0.02699244300262635 0.10794251175929931 -0.4599340663490299 67 54 38
0.027022811786430595 0.10850945953360994 -0.4613996098017116 70 58 42
0.027047057241665114 0.10912672035222502 -0.4628415418120385 64 52 36
0.02705924498036099 0.10984279483696395 -0.4642365501388095 76 64 47
0.02724809303889628 0.10911241911404704 -0.46632118015805185 85 73 55
0.02725384902435006 0.10988200414288925 -0.4676924832154069 86 73 56
0.027232533974699845 0.11087262155015234 -0.4689570887999789 83 70 53
0.027210284954727975 0.11187027063733375 -0.4702170320701625 85 72 53
0.02723125189239235 0.11251466778783342 -0.4716466491970928 84 75 57
0.027261406344097773 0.11308412888135741 -0.473112608533108 84 77 59
0.0273216900034065 0.11340823512145369 -0.4746983876757794 72 63 45
0.02738407264715613 0.11371575620665313 -0.47629335278440266 65 55 36
0.027407086330820694 0.11434400089538783 -0.47773196017746244 72 60 40
0.02751483792576684 0.11428362395445696 -0.4795099287143062 78 67 46
0.027471704463295752 0.11544953724623983 -0.48068383365545636 82 70 49
0.02757102777104728 0.1154587999843128 -0.4824299431285852 77 65 45
0.027759484015842276 0.11474653866170106 -0.48453766201004483 84 72 53
0.027861494237657797 0.11473667861571404 -0.4862990117415338 96 83 64
0.027965136144315943 0.114714670039551 -0.4880687315135466 95 82 64
0.027986075543252897 0.11536249757563939 -0.4895035341622559 94 81 64
0.028051855993282953 0.1156479974980931 -0.49112134078083736 96 84 67
0.028220529851726937 0.11510341596935202 -0.49316126062865745 96 87 68
0.02836778851125236 0.11473352045237684 -0.49511649902560606 90 82 63
0.02848461743307848 0.11461053406363822 -0.49694924751125685 85 77 59
0.028608855879523314 0.11442913053323173 -0.49881463651413543 90 81 64
0.028728820246298636 0.11428346642615943 -0.5006645702646856 82 73 56
0.0288204969327778 0.11436651402472327 -0.5023992879393283 68 57 41
0.028899928583080065 0.11454883790937544 -0.5040845817258539 65 54 37
0.028974580038339415 0.11477027822012444 -0.5057511779233693 54 42 27
0.029208358991966665 0.11371627288389964 -0.5080842887614117 52 38 28
0.029262431987609274 0.11410503666292603 -0.5096686250372149 61 45 33
0.029277491255056236 0.11480656342867138 -0.5110896466193608 69 55 39
0.029429234293217994 0.11441456901862708 -0.5130865328025372 85 73 53
0.02942266663032341 0.1152896486365002 -0.5144173118376709 83 71 52
0.02948006490101424 0.11565348187263705 -0.5160184207391325 83 70 52
0.02956533466632314 0.11579536474225752 -0.5177386598587016 86 73 54
0.029690757058412873 0.11561793570290717 -0.5196312443666729 83 70 51
0.029708878906911054 0.116296654394346 -0.5210679661968203 76 63 44
0.02966842961889342 0.11744151137711924 -0.5222538703655486 70 59 40
0.029661688691161276 0.11831743729338165 -0.523583027775166 65 57 38
0.029794730058889694 0.11808219733560558 -0.5255129039025545 65 56 38
0.02986332915208971 0.11836007014564556 -0.527167231836193 63 54 36
0.02995543544585597 0.11845205737858841 -0.5289242000108849 66 57 39
