ply
format ascii 1.0
element vertex 855
property float x
property float y
property float z
property float nx
property float ny
property float nz
property uchar diffuse_red
property uchar diffuse_green
property uchar diffuse_blue
property uchar class
property uchar detection
end_header
0.0597 0.0572 -0.3044 0.730 0.365 0.578 96 85 57 0 0
0.0545 0.0534 -0.3301 0.987 0.044 -0.152 115 101 70 0 0
0.0533 0.0526 -0.3353 0.968 -0.212 -0.132 109 98 71 0 0
-0.0082 0.0186 -0.3763 0.423 0.906 0.032 49 39 26 0 0
-0.0169 0.0136 -0.3886 0.608 0.593 -0.527 30 21 17 0 0
-0.0181 0.0128 -0.3909 0.608 0.593 -0.527 25 18 11 0 0
-0.0486 -0.0080 -0.5078 0.929 0.224 0.296 90 79 60 0 0
-0.0478 -0.0076 -0.5094 0.891 0.425 0.160 95 84 64 0 0
-0.0413 -0.0085 -0.6151 0.870 0.371 0.324 81 69 51 0 0
-0.0407 -0.0083 -0.6169 0.693 0.340 0.636 111 99 76 0 0
-0.0199 0.0011 -0.6517 0.956 0.058 0.287 36 27 18 0 0
-0.0190 0.0006 -0.6766 0.962 -0.223 0.157 77 64 43 0 0
-0.0187 0.0007 -0.6785 0.962 -0.223 0.157 81 70 47 0 0
-0.0139 0.0018 -0.7119 0.797 -0.045 0.602 82 74 57 0 0
-0.0128 0.0023 -0.7133 0.876 0.376 0.304 81 72 56 0 0
0.0172 0.0176 -0.7251 0.921 -0.164 0.354 138 123 91 0 0
0.0313 0.0230 -0.7728 0.894 0.189 0.405 152 134 98 0 0
0.0317 0.0232 -0.7747 0.938 0.137 0.318 150 132 96 0 0
0.0300 0.0185 -0.8655 0.265 -0.220 0.939 155 151 148 0 0
0.0313 0.0191 -0.8666 0.322 -0.276 0.906 161 158 155 0 0
0.0286 0.0174 -0.8739 0.478 -0.351 0.805 169 166 163 0 0
0.0325 0.0440 -0.2373 0.545 0.794 0.270 159 141 103 0 0
0.0332 0.0443 -0.2386 0.417 0.801 0.430 151 135 99 0 0
0.0338 0.0446 -0.2400 0.325 0.850 0.415 144 129 95 0 0
0.0338 0.0445 -0.2415 0.427 0.890 0.161 131 116 83 0 0
0.0344 0.0447 -0.2444 0.449 0.891 0.065 151 135 99 0 0
0.0345 0.0446 -0.2475 0.469 0.232 0.852 171 153 112 0 0
0.0527 0.0520 -0.2992 0.052 0.477 0.877 98 84 58 0 0
0.0526 0.0508 -0.3278 0.912 -0.003 0.410 120 105 73 0 0
-0.0080 0.0169 -0.3765 0.781 0.625 0.022 63 54 40 0 0
-0.0091 0.0161 -0.3804 0.570 0.725 -0.387 54 45 29 0 0
-0.0476 -0.0095 -0.5096 0.931 0.067 0.358 76 67 47 0 0
-0.0203 -0.0010 -0.6503 0.865 0.074 0.496 52 45 28 0 0
-0.0198 -0.0008 -0.6521 0.975 -0.010 0.224 41 33 20 0 0
-0.0208 -0.0022 -0.6719 0.968 0.023 0.250 121 108 81 0 0
-0.0187 -0.0018 -0.6898 0.957 -0.222 -0.188 60 49 33 0 0
-0.0205 -0.0030 -0.6934 0.881 0.102 -0.462 64 54 41 0 0
-0.0216 -0.0037 -0.6963 0.917 0.061 -0.393 61 53 40 0 0
-0.0214 -0.0037 -0.6984 0.988 0.139 -0.064 27 23 14 0 0
-0.0206 -0.0033 -0.7000 0.863 -0.118 0.492 29 25 20 0 0
0.0163 0.0150 -0.7264 0.882 -0.253 0.396 128 113 85 0 0
0.0175 0.0156 -0.7276 0.973 -0.043 0.225 123 106 80 0 0
0.0465 0.0489 -0.2564 0.824 0.365 0.433 216 208 171 0 0
0.0472 0.0492 -0.2577 0.723 0.449 0.525 175 162 132 0 0
0.0372 0.0428 -0.2841 0.334 0.883 0.331 40 31 20 0 0
0.0567 0.0527 -0.2933 0.986 0.151 0.074 92 83 62 0 0
0.0578 0.0531 -0.2960 0.992 0.130 0.008 94 82 55 0 0
-0.0062 0.0162 -0.3708 0.949 0.260 0.181 63 51 36 0 0
-0.0057 0.0164 -0.3723 0.944 0.328 0.027 72 60 42 0 0
-0.0061 0.0161 -0.3742 0.980 0.183 0.080 75 63 46 0 0
-0.0059 0.0161 -0.3759 0.980 0.183 0.080 69 59 43 0 0
-0.0058 0.0161 -0.3776 0.980 0.183 0.080 61 52 35 0 0
-0.0223 -0.0042 -0.6501 0.800 0.140 0.583 53 46 28 0 0
-0.0194 -0.0028 -0.6545 0.940 -0.013 0.341 77 68 50 0 0
-0.0192 -0.0040 -0.6843 0.979 -0.121 0.166 136 121 92 0 0
-0.0201 -0.0047 -0.6914 0.972 -0.161 -0.171 66 56 39 0 0
-0.0210 -0.0054 -0.6943 0.935 0.035 -0.354 78 69 55 0 0
-0.0221 -0.0061 -0.6973 0.935 0.035 -0.354 76 68 55 0 0
0.0180 0.0137 -0.7300 0.818 -0.226 0.529 116 100 76 0 0
0.0186 0.0140 -0.7317 0.869 -0.141 0.475 100 84 60 0 0
0.0233 0.0106 -0.8686 0.877 -0.114 0.467 150 146 141 0 0
0.0216 0.0096 -0.8726 0.901 -0.231 0.367 156 152 149 0 0
0.0253 0.0376 -0.2196 0.548 0.731 0.407 174 154 117 0 0
0.0296 0.0395 -0.2262 0.663 0.605 0.441 176 158 118 0 0
0.0303 0.0398 -0.2275 0.579 0.451 0.679 167 149 110 0 0
0.0317 0.0405 -0.2287 0.865 0.396 0.309 170 153 112 0 0
0.0428 0.0458 -0.2423 0.524 0.671 0.524 138 121 88 0 0
0.0428 0.0458 -0.2439 0.451 0.731 0.512 173 157 118 0 0
0.0448 0.0467 -0.2464 0.764 0.587 0.266 184 168 128 0 0
0.0486 0.0483 -0.2574 0.644 0.252 0.722 104 91 66 0 0
0.0575 0.0513 -0.2963 0.869 -0.134 0.475 93 82 55 0 0
-0.0060 0.0145 -0.3692 0.923 0.322 0.212 43 33 21 0 0
-0.0057 0.0146 -0.3708 0.949 0.260 0.181 67 55 38 0 0
-0.0055 0.0146 -0.3725 0.973 0.229 0.021 83 70 50 0 0
-0.0055 0.0146 -0.3742 0.973 0.229 0.021 92 80 59 0 0
-0.0054 0.0145 -0.3759 0.973 0.229 0.021 61 50 31 0 0
-0.0055 0.0144 -0.3777 0.980 0.183 0.080 55 45 28 0 0
-0.0056 0.0143 -0.3795 0.959 0.256 -0.125 51 42 27 0 0
-0.0061 0.0140 -0.3815 0.848 0.426 -0.316 40 30 18 0 0
-0.0105 0.0115 -0.3850 0.800 0.526 -0.289 41 32 19 0 0
-0.0179 0.0071 -0.3970 0.589 0.335 -0.736 45 36 22 0 0
-0.0302 0.0001 -0.4075 0.689 0.226 -0.689 79 69 58 0 0
-0.0493 -0.0132 -0.4800 0.853 0.458 0.249 75 64 46 0 0
-0.0488 -0.0130 -0.4817 0.954 0.220 0.206 62 53 35 0 0
-0.0199 -0.0061 -0.6767 0.934 -0.086 0.348 72 60 42 0 0
-0.0215 -0.0077 -0.6952 0.993 -0.106 -0.050 109 101 85 0 0
0.0164 0.0046 -0.8736 0.307 -0.012 0.952 144 144 136 0 0
0.0283 0.0374 -0.2220 0.877 0.477 0.064 171 153 111 0 0
0.0308 0.0386 -0.2244 0.575 0.694 0.433 189 172 128 0 0
0.0321 0.0391 -0.2271 0.596 0.671 0.442 174 155 115 0 0
0.0455 0.0452 -0.2524 0.598 0.743 0.300 95 78 56 0 0
0.0461 0.0453 -0.2553 0.716 0.198 0.669 77 61 39 0 0
0.0517 0.0479 -0.2658 0.682 0.644 0.348 95 81 54 0 0
-0.0066 0.0123 -0.3714 0.757 0.624 0.191 63 53 36 0 0
-0.0054 0.0129 -0.3727 0.995 0.071 0.067 88 75 53 0 0
-0.0053 0.0128 -0.3744 0.995 0.071 0.067 108 97 70 0 0
-0.0052 0.0128 -0.3761 0.987 0.131 0.095 90 78 55 0 0
-0.0050 0.0128 -0.3778 0.987 0.131 0.095 70 58 38 0 0
-0.0052 0.0127 -0.3796 0.959 0.256 -0.125 54 43 26 0 0
-0.0169 0.0057 -0.3968 0.589 0.335 -0.736 48 37 21 0 0
-0.0536 -0.0228 -0.6016 0.766 0.273 0.582 129 115 81 0 0
-0.0199 -0.0082 -0.6772 0.934 -0.086 0.348 79 68 51 0 0
0.0200 0.0315 -0.2166 0.284 0.541 0.791 174 156 121 0 0
0.0449 0.0433 -0.2481 0.707 0.679 0.197 149 134 105 0 0
0.0491 0.0444 -0.2745 0.869 0.072 -0.490 35 26 17 0 0
0.0472 0.0427 -0.2892 0.672 0.726 0.146 29 20 14 0 0
0.0530 0.0455 -0.2951 0.858 0.301 0.417 96 85 62 0 0
0.0450 0.0397 -0.3315 0.749 -0.546 -0.374 58 49 33 0 0
-0.0054 0.0110 -0.3729 0.889 0.457 -0.011 68 54 35 0 0
-0.0048 0.0112 -0.3762 0.998 -0.021 0.053 102 89 63 0 0
-0.0050 0.0110 -0.3780 0.994 0.104 -0.045 114 101 76 0 0
-0.0052 0.0108 -0.3799 0.974 0.135 -0.179 102 90 66 0 0
-0.0049 0.0109 -0.3815 0.948 0.298 -0.111 93 81 58 0 0
-0.0050 0.0108 -0.3833 0.781 0.592 -0.200 85 72 49 0 0
-0.0680 -0.0304 -0.5543 0.686 0.297 0.665 69 60 48 0 0
-0.0658 -0.0294 -0.5572 0.536 0.236 0.810 65 57 46 0 0
-0.0208 -0.0105 -0.6720 0.901 -0.064 0.428 141 125 98 0 0
0.0144 0.0059 -0.7238 0.768 0.166 0.618 131 116 86 0 0
0.0237 0.0101 -0.7404 0.670 0.605 0.430 144 126 91 0 0
0.0244 0.0105 -0.7420 0.670 0.605 0.430 158 140 104 0 0
0.0250 0.0107 -0.7437 0.671 0.664 0.329 159 139 103 0 0
0.0246 0.0323 -0.2156 0.694 -0.231 0.682 174 156 121 0 0
0.0280 0.0340 -0.2163 0.640 0.414 0.647 169 151 113 0 0
0.0526 0.0448 -0.2690 0.994 0.102 -0.043 89 77 53 0 0
0.0449 0.0403 -0.2791 0.786 0.618 0.022 35 26 16 0 0
0.0458 0.0386 -0.3265 0.833 -0.540 0.123 112 100 74 0 0
0.0409 0.0357 -0.3332 0.748 -0.562 -0.352 38 30 22 0 0
-0.0044 0.0096 -0.3745 0.865 0.473 -0.167 66 53 31 0 0
-0.0041 0.0097 -0.3761 0.980 0.182 0.084 76 62 38 0 0
-0.0041 0.0096 -0.3779 0.982 0.188 -0.005 91 77 52 0 0
-0.0149 0.0029 -0.3983 0.520 0.509 -0.687 51 37 26 0 0
-0.0212 -0.0007 -0.4045 0.225 0.678 -0.700 65 57 45 0 0
-0.0621 -0.0251 -0.4601 0.944 0.084 0.319 66 58 48 0 0
-0.0212 -0.0126 -0.6684 0.988 0.010 0.156 135 120 90 0 0
0.0272 0.0066 -0.8143 0.946 0.261 0.191 135 120 83 0 0
0.0276 0.0067 -0.8185 0.948 0.038 0.315 153 138 98 0 0
0.0286 0.0327 -0.2163 0.325 0.701 0.635 173 158 121 0 0
0.0465 0.0395 -0.2772 0.821 0.526 -0.223 45 32 20 0 0
0.0458 0.0389 -0.2806 0.729 0.653 0.208 39 28 18 0 0
-0.0046 0.0080 -0.3661 0.775 0.432 0.461 36 26 16 0 0
-0.0039 0.0083 -0.3676 0.775 0.432 0.461 44 33 21 0 0
-0.0036 0.0082 -0.3744 0.865 0.473 -0.167 45 33 17 0 0
-0.0038 0.0080 -0.3763 0.980 0.182 0.084 45 30 14 0 0
-0.0038 0.0079 -0.3780 0.978 0.184 -0.103 56 41 24 0 0
-0.0397 -0.0131 -0.4164 0.614 -0.033 -0.789 91 86 74 0 0
-0.0039 0.0136 -0.2150 0.223 0.550 0.805 172 174 172 0 0
0.0009 0.0161 -0.2154 -0.175 0.450 0.876 170 169 163 0 0
0.0316 0.0326 -0.2157 0.719 0.692 -0.068 181 163 129 0 0
0.0385 0.0355 -0.2335 0.613 0.284 0.737 124 109 75 0 0
0.0396 0.0360 -0.2348 0.943 0.122 0.309 119 104 76 0 0
0.0517 0.0414 -0.2603 0.457 0.522 0.720 90 80 52 0 0
0.0473 0.0382 -0.2771 0.821 0.526 -0.223 87 77 57 0 0
-0.0619 -0.0351 -0.5916 0.917 -0.101 0.386 68 55 38 0 0
-0.0629 -0.0358 -0.5942 0.939 0.342 -0.031 72 59 42 0 0
0.0180 0.0012 -0.7337 0.594 0.235 0.769 84 73 49 0 0
0.0198 0.0021 -0.7345 0.922 0.257 0.289 93 79 53 0 0
0.0268 0.0024 -0.8115 0.973 -0.004 0.230 137 123 85 0 0
-0.0144 0.0071 -0.1942 0.030 0.934 0.357 179 179 181 0 0
-0.0138 0.0074 -0.1956 0.051 0.966 0.254 179 179 181 0 0
-0.0033 0.0121 -0.2149 0.161 0.563 0.811 154 146 132 0 0
0.0322 0.0312 -0.2156 0.931 0.361 0.050 187 164 130 0 0
0.0487 0.0376 -0.2706 0.717 0.006 0.697 100 88 61 0 0
0.0479 0.0364 -0.2849 0.918 0.397 -0.019 50 37 22 0 0
0.0382 0.0291 -0.3300 0.723 -0.211 -0.658 43 35 24 0 0
-0.0025 0.0046 -0.3832 0.974 0.176 0.139 80 65 40 0 0
-0.0630 -0.0380 -0.5948 0.970 0.216 0.108 76 63 44 0 0
0.0316 0.0292 -0.2159 0.816 0.454 0.358 198 173 135 0 0
0.0329 0.0298 -0.2171 0.838 0.482 0.257 224 202 156 0 0
0.0485 0.0350 -0.2849 0.918 0.397 -0.019 64 49 32 0 0
0.0047 -0.0095 -0.7212 0.259 0.229 0.938 153 135 103 0 0
0.0066 -0.0085 -0.7219 0.259 0.229 0.938 174 155 122 0 0
-0.0099 0.0066 -0.1827 0.537 0.841 -0.065 179 178 182 0 0
0.0323 0.0279 -0.2158 0.793 0.382 0.474 211 190 148 0 0
0.0339 0.0286 -0.2184 0.822 0.323 0.469 203 182 135 0 0
0.0365 0.0295 -0.2299 0.715 0.515 0.473 63 46 26 0 0
0.0475 0.0332 -0.2760 0.985 0.045 0.167 110 99 72 0 0
0.0478 0.0333 -0.2775 0.985 0.045 0.167 108 97 70 0 0
0.0484 0.0335 -0.2789 0.880 0.365 0.303 103 91 65 0 0
0.0489 0.0338 -0.2803 0.844 0.386 0.373 99 87 62 0 0
0.0492 0.0339 -0.2817 0.837 0.479 0.265 97 87 60 0 0
0.0489 0.0336 -0.2849 0.928 0.370 -0.035 91 81 58 0 0
-0.0721 -0.0452 -0.5549 0.832 -0.529 -0.168 32 29 25 0 0
-0.0813 -0.0510 -0.5725 0.792 -0.542 -0.280 39 34 27 0 0
-0.0056 0.0072 -0.1819 0.893 0.176 -0.413 179 179 180 0 0
-0.0023 0.0075 -0.2119 0.057 0.860 0.506 151 138 111 0 0
0.0476 0.0333 -0.2392 0.917 0.175 0.358 80 69 43 0 0
0.0480 0.0329 -0.2528 0.891 0.084 0.447 88 77 49 0 0
0.0499 0.0336 -0.2599 0.982 -0.108 0.154 103 90 61 0 0
0.0489 0.0328 -0.2648 0.974 0.182 -0.135 113 104 73 0 0
0.0482 0.0323 -0.2666 0.900 0.408 -0.154 91 81 53 0 0
0.0491 0.0318 -0.2866 0.978 -0.069 0.195 96 85 63 0 0
-0.0018 -0.0009 -0.3890 0.807 0.563 0.179 56 41 20 0 0
0.0126 -0.0095 -0.7228 0.476 0.679 0.559 137 121 88 0 0
0.0146 -0.0156 -0.8702 0.059 0.020 0.998 155 154 152 0 0
-0.0068 0.0048 -0.1807 0.915 0.343 -0.213 179 179 181 0 0
-0.0067 0.0048 -0.1822 0.928 0.332 -0.171 179 180 179 0 0
-0.0075 0.0043 -0.1839 0.898 0.440 0.007 179 178 173 0 0
-0.0064 0.0042 -0.1975 0.856 0.515 -0.027 138 123 93 0 0
-0.0064 0.0041 -0.1990 0.884 0.468 -0.011 139 124 93 0 0
0.0484 0.0322 -0.2361 0.713 0.696 0.084 86 74 48 0 0
0.0485 0.0322 -0.2376 0.713 0.696 0.084 86 74 48 0 0
0.0469 0.0306 -0.2517 0.887 0.378 0.265 87 73 48 0 0
0.0450 0.0283 -0.2771 0.947 0.212 0.242 111 99 71 0 0
0.0456 0.0286 -0.2785 0.891 0.253 0.376 114 100 72 0 0
0.0459 0.0287 -0.2800 0.920 0.214 0.328 114 100 73 0 0
-0.0066 0.0031 -0.1823 0.939 0.320 -0.124 176 171 165 0 0
-0.0069 0.0029 -0.1839 0.898 0.440 0.007 164 156 141 0 0
-0.0068 0.0028 -0.1854 0.898 0.440 0.007 147 136 114 0 0
-0.0053 0.0035 -0.1896 0.006 0.972 0.234 180 169 128 0 0
0.0063 0.0088 -0.2102 0.252 0.814 0.523 165 150 116 0 0
0.0082 0.0098 -0.2113 0.164 0.634 0.755 165 148 113 0 0
0.0155 0.0137 -0.2126 0.531 -0.253 0.809 168 153 123 0 0
0.0480 0.0296 -0.2516 0.815 0.218 0.537 91 77 52 0 0
0.0455 0.0280 -0.2554 0.923 0.084 0.376 88 74 48 0 0
0.0442 0.0255 -0.2917 0.723 0.396 0.566 114 103 74 0 0
0.0447 0.0257 -0.2932 0.829 0.338 0.445 112 100 72 0 0
0.0455 0.0259 -0.2961 0.950 0.216 0.223 104 93 65 0 0
0.0342 0.0182 -0.3259 0.663 -0.365 -0.653 22 19 12 0 0
-0.0062 -0.0062 -0.3719 0.694 0.420 0.585 82 68 41 0 0
-0.0851 -0.0541 -0.4634 0.774 -0.149 0.615 10 10 10 0 0
-0.0285 -0.0338 -0.6778 0.922 0.377 0.090 94 84 59 0 0
-0.0284 -0.0339 -0.6800 0.897 0.038 0.440 68 59 37 0 0
0.0126 -0.0138 -0.7263 0.965 0.224 0.134 135 119 85 0 0
0.0245 -0.0140 -0.8601 0.616 -0.269 0.741 157 156 154 0 0
0.0076 0.0079 -0.2069 0.510 0.775 0.374 166 151 116 0 0
0.0079 0.0080 -0.2083 0.479 0.836 0.269 176 162 125 0 0
0.0084 0.0082 -0.2098 0.479 0.836 0.269 165 149 116 0 0
0.0088 0.0084 -0.2112 0.479 0.836 0.269 152 137 104 0 0
0.0216 0.0153 -0.2128 0.265 0.042 0.963 161 146 120 0 0
0.0249 0.0171 -0.2135 0.227 -0.087 0.970 164 148 122 0 0
0.0462 0.0267 -0.2553 0.912 -0.085 0.401 95 81 55 0 0
0.0451 0.0242 -0.2916 0.774 0.572 0.270 109 98 70 0 0
0.0371 0.0182 -0.3234 0.794 -0.331 -0.511 23 17 9 0 0
-0.0076 -0.0082 -0.3588 0.732 -0.057 0.679 33 23 14 0 0
-0.0081 -0.0086 -0.3607 0.497 0.615 0.612 36 25 17 0 0
-0.0080 -0.0086 -0.3624 0.616 0.762 0.198 36 26 17 0 0
-0.0044 -0.0072 -0.3732 0.584 0.575 0.572 105 91 62 0 0
-0.0852 -0.0562 -0.4638 0.886 -0.222 0.406 9 9 9 0 0
-0.0844 -0.0559 -0.4654 0.846 -0.319 0.427 8 7 7 0 0
-0.0785 -0.0560 -0.5310 0.776 -0.608 -0.166 7 7 4 0 0
-0.1224 -0.0830 -0.5887 0.643 -0.125 0.756 17 15 12 0 0
-0.0284 -0.0361 -0.6806 0.950 0.239 0.203 63 56 37 0 0
0.0179 -0.0156 -0.7784 0.941 -0.009 0.338 148 129 92 0 0
-0.0008 -0.0307 -0.8724 0.946 -0.241 0.217 119 114 112 0 0
0.0249 -0.0162 -0.8653 0.881 -0.271 0.388 167 166 164 0 0
0.0388 0.0175 -0.3198 0.926 -0.338 -0.170 82 74 57 0 0
-0.0072 -0.0100 -0.3623 0.680 0.326 0.657 33 23 14 0 0
-0.0816 -0.0557 -0.4526 0.797 -0.040 0.603 21 20 18 0 0
-0.0809 -0.0554 -0.4543 0.868 -0.047 0.494 13 13 12 0 0
-0.0802 -0.0551 -0.4559 0.980 -0.069 0.185 7 7 7 0 0
-0.0805 -0.0590 -0.5263 0.711 -0.663 -0.236 9 6 6 0 0
-0.1340 -0.0911 -0.5780 0.812 0.398 0.427 14 11 9 0 0
-0.1288 -0.0887 -0.5862 0.484 0.483 0.729 12 11 9 0 0
-0.0542 -0.0490 -0.6138 0.887 0.103 0.451 79 68 50 0 0
-0.0276 -0.0376 -0.6762 0.968 0.179 0.177 68 60 42 0 0
-0.0316 -0.0416 -0.7122 0.752 0.129 0.647 80 67 58 0 0
0.0007 -0.0243 -0.7212 0.828 0.094 0.552 149 130 99 0 0
0.0016 -0.0239 -0.7228 0.782 0.075 0.619 149 129 95 0 0
0.0265 -0.0175 -0.8645 0.632 -0.023 0.775 169 167 165 0 0
0.0277 -0.0168 -0.8657 0.504 0.106 0.857 174 169 168 0 0
0.0439 0.0224 -0.2470 0.691 0.479 0.542 106 98 69 0 0
-0.0031 -0.0099 -0.3679 0.979 -0.147 0.145 74 58 34 0 0
-0.0026 -0.0098 -0.3712 0.783 0.323 0.532 75 59 32 0 0
-0.0833 -0.0588 -0.4537 0.989 0.062 -0.133 18 17 16 0 0
-0.0846 -0.0601 -0.4642 0.977 -0.025 0.214 4 4 4 0 0
-0.0828 -0.0591 -0.4653 0.997 0.051 -0.049 7 6 6 0 0
-0.1331 -0.0929 -0.5780 0.812 0.398 0.427 14 11 10 0 0
-0.1291 -0.0910 -0.5846 0.609 0.442 0.658 17 13 9 0 0
-0.1270 -0.0899 -0.5856 0.707 0.197 0.679 16 14 12 0 0
0.0158 0.0072 -0.2084 0.265 0.952 0.151 142 126 98 0 0
0.0355 0.0170 -0.2295 0.821 0.201 0.534 87 71 45 0 0
-0.0040 -0.0122 -0.3668 0.875 -0.050 0.482 72 58 32 0 0
-0.0055 -0.0139 -0.3815 0.986 0.142 -0.091 116 101 69 0 0
-0.0057 -0.0141 -0.3833 0.986 0.142 -0.091 120 106 76 0 0
-0.0058 -0.0142 -0.3851 0.975 0.223 0.015 103 90 63 0 0
-0.0053 -0.0141 -0.3867 0.959 0.272 0.083 91 79 54 0 0
-0.0040 -0.0392 -0.8729 0.423 -0.116 0.899 121 118 116 0 0
-0.0040 -0.0393 -0.8753 0.302 -0.080 0.950 135 131 128 0 0
0.0275 -0.0213 -0.8651 0.709 -0.231 0.666 173 171 167 0 0
0.0151 0.0050 -0.2086 0.915 0.083 0.395 117 105 84 0 0
0.0187 0.0070 -0.2093 0.700 0.712 0.055 120 106 86 0 0
0.0417 0.0162 -0.2744 0.944 -0.244 0.221 104 92 66 0 0
0.0266 0.0053 -0.3215 0.656 -0.520 -0.547 60 51 37 0 0
-0.0037 -0.0153 -0.3916 0.807 0.162 0.568 83 70 49 0 0
-0.0870 -0.0650 -0.4540 0.881 0.466 -0.080 5 5 5 0 0
-0.0844 -0.0638 -0.4588 0.847 0.467 0.254 4 4 4 0 0
-0.1091 -0.0847 -0.5917 0.423 -0.035 0.906 33 29 26 0 0
0.0115 -0.0259 -0.7457 0.764 0.353 0.540 145 129 95 0 0
0.0108 -0.0266 -0.7508 0.982 -0.032 0.185 140 124 91 0 0
0.0112 -0.0264 -0.7526 0.950 -0.148 0.276 144 126 91 0 0
-0.0070 -0.0431 -0.8739 0.818 -0.272 0.506 121 117 114 0 0
-0.0039 -0.0414 -0.8735 0.343 -0.047 0.938 133 131 127 0 0
-0.0116 -0.0091 -0.1608 0.873 -0.003 -0.488 179 179 181 0 0
-0.0162 -0.0118 -0.1647 0.500 0.806 -0.316 179 179 181 0 0
0.0303 0.0115 -0.2128 0.526 -0.114 0.843 134 120 97 0 0
0.0353 0.0137 -0.2237 0.849 0.509 0.146 101 87 61 0 0
0.0386 0.0149 -0.2351 0.958 -0.005 0.286 87 73 46 0 0
0.0384 0.0147 -0.2367 0.855 0.118 0.505 89 75 48 0 0
0.0391 0.0150 -0.2380 0.855 0.118 0.505 97 82 56 0 0
0.0398 0.0153 -0.2394 0.926 0.257 0.275 102 89 62 0 0
0.0401 0.0154 -0.2408 0.863 -0.013 0.505 105 93 65 0 0
-0.0874 -0.0673 -0.4526 0.987 -0.157 0.046 13 12 11 0 0
-0.0875 -0.0674 -0.4546 0.977 -0.213 -0.002 5 6 7 0 0
-0.0846 -0.0658 -0.4552 0.918 -0.390 -0.077 3 3 3 0 0
-0.0979 -0.0809 -0.5945 0.370 0.428 0.825 50 45 42 0 0
-0.0384 -0.0537 -0.7060 0.835 0.538 0.113 29 27 23 0 0
-0.0164 -0.0135 -0.1602 0.453 0.841 0.297 179 178 180 0 0
-0.0113 -0.0107 -0.1609 0.921 -0.042 -0.388 178 179 180 0 0
0.0189 0.0037 -0.2064 0.727 0.386 0.568 121 109 86 0 0
0.0326 0.0111 -0.2123 0.489 0.246 0.837 143 131 108 0 0
0.0350 0.0123 -0.2133 0.655 0.416 0.631 139 125 95 0 0
0.0383 0.0133 -0.2307 0.980 0.036 0.196 95 84 56 0 0
0.0384 0.0132 -0.2322 0.986 0.156 -0.060 96 83 56 0 0
0.0384 0.0131 -0.2337 0.977 0.212 -0.011 99 86 60 0 0
0.0378 0.0127 -0.2354 0.741 0.264 0.617 94 81 55 0 0
0.0416 0.0143 -0.2451 0.940 0.108 0.323 101 90 61 0 0
-0.0851 -0.0678 -0.4479 0.994 -0.106 -0.020 48 43 35 0 0
-0.0848 -0.0677 -0.4497 0.883 0.233 0.408 21 18 15 0 0
-0.0950 -0.0815 -0.5954 0.270 0.389 0.881 53 48 45 0 0
-0.0929 -0.0804 -0.5964 0.497 0.307 0.812 53 48 45 0 0
-0.0387 -0.0560 -0.7045 0.805 0.183 0.564 22 19 17 0 0
-0.0245 -0.0486 -0.7143 0.577 0.381 0.722 71 63 53 0 0
-0.0178 -0.0158 -0.1560 0.330 0.533 0.779 179 179 181 0 0
-0.0157 -0.0148 -0.1587 0.436 0.736 0.518 179 179 181 0 0
-0.0147 -0.0143 -0.1600 0.500 0.824 0.268 178 178 180 0 0
0.0205 0.0031 -0.2016 0.612 0.767 0.191 147 133 102 0 0
0.0330 0.0049 -0.2969 0.704 0.705 0.091 107 93 66 0 0
0.0329 0.0047 -0.2986 0.715 0.448 0.537 108 94 67 0 0
0.0337 0.0051 -0.2999 0.637 0.577 0.511 109 95 68 0 0
0.0358 0.0058 -0.3073 0.977 -0.153 0.146 114 100 71 0 0
-0.0079 -0.0222 -0.3710 0.933 0.030 0.360 102 88 61 0 0
-0.0099 -0.0249 -0.3986 0.952 -0.187 -0.244 96 85 68 0 0
-0.0938 -0.0830 -0.5952 0.604 0.231 0.763 55 50 47 0 0
-0.0382 -0.0543 -0.6409 0.909 -0.047 0.413 84 72 50 0 0
-0.0128 -0.0148 -0.1552 0.821 0.309 0.480 179 179 181 0 0
-0.0117 -0.0145 -0.1611 0.986 -0.057 -0.159 172 167 160 0 0
0.0214 0.0019 -0.2015 0.949 0.223 0.222 121 109 84 0 0
0.0213 0.0018 -0.2030 0.842 0.374 0.390 110 98 70 0 0
0.0340 0.0038 -0.2935 0.998 0.041 0.047 108 96 69 0 0
-0.0950 -0.0813 -0.5137 0.888 0.266 -0.375 69 71 67 0 0
-0.0955 -0.0863 -0.5966 0.597 -0.229 0.769 58 54 51 0 0
-0.0398 -0.0612 -0.7087 0.438 -0.064 0.897 30 26 24 0 0
-0.0317 -0.0568 -0.7118 0.313 0.016 0.950 59 52 46 0 0
-0.0159 -0.0182 -0.1543 0.319 0.198 0.927 179 179 181 0 0
-0.0136 -0.0170 -0.1554 0.486 0.374 0.790 179 179 180 0 0
-0.0116 -0.0159 -0.1566 0.888 0.255 0.382 178 178 177 0 0
-0.0110 -0.0157 -0.1580 0.966 0.253 0.054 170 168 160 0 0
0.0123 -0.0033 -0.1718 0.122 0.705 0.699 164 147 108 0 0
0.0223 0.0013 -0.1908 0.830 0.557 -0.025 168 155 111 0 0
0.0348 0.0025 -0.2935 0.995 0.092 0.035 109 97 70 0 0
0.0360 0.0025 -0.3044 0.752 0.096 0.652 107 93 65 0 0
-0.0087 -0.0257 -0.3578 0.859 0.420 -0.293 111 97 70 0 0
-0.0097 -0.0270 -0.3687 0.999 0.027 0.021 73 61 42 0 0
-0.1451 -0.1155 -0.5786 0.859 -0.242 0.452 204 206 206 0 0
-0.0032 -0.0437 -0.7246 0.467 0.387 0.795 123 106 78 0 0
0.0221 -0.0006 -0.1924 0.608 0.791 -0.068 148 133 100 0 0
-0.0081 -0.0273 -0.3578 0.920 0.325 -0.220 106 89 63 0 0
-0.0130 -0.0199 -0.1509 0.389 -0.486 0.782 179 179 180 0 0
-0.0093 -0.0299 -0.3567 0.940 0.182 0.288 126 111 80 0 0
-0.0081 -0.0293 -0.3580 0.928 0.321 -0.192 118 101 71 0 0
-0.0094 -0.0303 -0.3638 0.994 0.004 -0.112 83 72 52 0 0
0.0034 -0.0131 -0.1631 0.137 0.575 0.807 161 146 110 0 0
0.0053 -0.0121 -0.1643 0.181 0.443 0.878 122 107 80 0 0
0.0203 -0.0046 -0.1824 0.765 0.608 0.213 118 104 77 0 0
0.0222 -0.0039 -0.1896 0.907 0.331 0.259 109 97 73 0 0
0.0234 -0.0034 -0.1923 0.640 0.757 -0.131 99 87 61 0 0
0.0324 -0.0006 -0.2314 0.747 0.521 0.412 94 80 53 0 0
0.0321 -0.0008 -0.2331 0.789 0.422 0.447 95 81 54 0 0
0.0344 -0.0029 -0.2893 0.922 0.368 -0.123 106 96 65 0 0
0.0343 -0.0030 -0.2909 0.922 0.368 -0.123 107 97 66 0 0
-0.0050 -0.0285 -0.3431 0.866 0.488 -0.107 77 64 44 0 0
-0.0896 -0.0825 -0.4399 0.949 -0.206 0.238 65 56 41 0 0
-0.1274 -0.1134 -0.5969 0.443 -0.683 0.581 195 196 196 0 0
-0.0542 -0.0776 -0.6987 0.716 -0.692 -0.094 31 29 25 0 0
-0.0598 -0.0812 -0.7049 0.695 -0.715 -0.073 29 27 24 0 0
-0.0542 -0.0780 -0.7055 0.791 -0.305 -0.530 29 25 24 0 0
-0.0175 -0.0578 -0.7171 0.599 -0.034 0.800 104 91 72 0 0
-0.0160 -0.0570 -0.7182 0.599 -0.034 0.800 122 107 85 0 0
0.0015 -0.0158 -0.1621 0.643 0.657 0.393 189 174 132 0 0
0.0350 -0.0012 -0.2371 0.882 0.427 -0.198 93 80 53 0 0
0.0349 -0.0013 -0.2387 0.854 0.515 -0.077 97 83 56 0 0
0.0348 -0.0015 -0.2402 0.854 0.515 -0.077 92 78 51 0 0
0.0349 -0.0015 -0.2418 0.863 0.504 -0.011 90 76 49 0 0
0.0349 -0.0016 -0.2433 0.826 0.564 0.008 94 80 53 0 0
0.0338 -0.0024 -0.2452 0.930 0.300 0.212 95 80 54 0 0
0.0361 -0.0022 -0.2634 0.769 0.253 0.587 97 86 58 0 0
0.0355 -0.0039 -0.2875 0.964 0.266 -0.013 106 95 65 0 0
0.0353 -0.0041 -0.2892 0.841 0.514 -0.168 107 97 67 0 0
-0.0559 -0.0816 -0.7119 0.458 0.552 0.696 30 26 25 0 0
-0.0453 -0.0757 -0.7134 0.354 -0.447 0.822 53 46 41 0 0
-0.0422 -0.0739 -0.7134 0.323 -0.391 0.862 50 44 39 0 0
0.0134 -0.0110 -0.1660 0.472 0.239 0.848 164 148 121 0 0
0.0228 -0.0074 -0.1957 0.977 0.010 0.211 60 46 31 0 0
0.0245 -0.0065 -0.1968 0.934 0.252 0.254 48 35 22 0 0
0.0262 -0.0057 -0.1995 0.648 0.372 0.664 42 28 19 0 0
0.0342 -0.0038 -0.2437 0.987 0.065 -0.144 89 75 48 0 0
0.0343 -0.0038 -0.2452 0.962 -0.006 0.272 85 71 44 0 0
-0.0038 -0.0313 -0.3379 0.944 0.260 -0.204 155 141 105 0 0
-0.1199 -0.1142 -0.6068 0.613 -0.720 0.325 197 199 197 0 0
-0.1183 -0.1134 -0.6082 0.646 -0.707 0.290 182 183 181 0 0
-0.0467 -0.0766 -0.6789 0.937 -0.350 0.014 23 16 8 0 0
-0.0479 -0.0777 -0.6864 0.963 -0.178 -0.203 78 76 73 0 0
-0.0494 -0.0788 -0.6897 0.933 -0.181 -0.311 61 59 56 0 0
-0.0496 -0.0790 -0.6921 0.953 -0.198 -0.228 45 42 39 0 0
-0.0556 -0.0833 -0.7054 0.961 0.263 0.088 32 28 27 0 0
-0.0554 -0.0833 -0.7075 0.939 0.341 0.054 31 27 26 0 0
-0.0518 -0.0812 -0.7072 0.929 -0.298 -0.218 31 27 26 0 0
0.0140 -0.0124 -0.1659 0.472 0.239 0.848 153 140 116 0 0
0.0316 -0.0087 -0.2714 0.869 0.286 0.404 95 84 56 0 0
-0.0036 -0.0330 -0.3363 0.786 0.459 -0.413 122 108 77 0 0
-0.0036 -0.0331 -0.3380 0.846 0.396 -0.357 128 115 89 0 0
-0.0036 -0.0332 -0.3398 0.886 0.252 -0.390 109 96 78 0 0
-0.0062 -0.0349 -0.3442 0.943 -0.111 -0.315 99 88 68 0 0
-0.0118 -0.0402 -0.3764 0.888 0.092 0.450 70 60 46 0 0
-0.0529 -0.0836 -0.6995 0.756 0.552 0.352 35 31 30 0 0
0.0078 -0.0173 -0.1581 0.395 0.918 -0.026 157 142 106 0 0
0.0193 -0.0120 -0.1800 0.654 0.587 0.476 69 53 32 0 0
0.0213 -0.0115 -0.1916 0.691 0.709 -0.137 58 47 30 0 0
0.0212 -0.0117 -0.1932 0.691 0.709 -0.137 59 46 31 0 0
0.0214 -0.0118 -0.1962 0.854 0.359 0.377 47 32 20 0 0
-0.0036 -0.0349 -0.3366 0.958 -0.173 -0.229 119 107 84 0 0
-0.0039 -0.0355 -0.3436 0.860 -0.214 0.464 116 106 88 0 0
-0.0031 -0.0351 -0.3450 0.528 0.828 -0.189 115 104 80 0 0
-0.1053 -0.1011 -0.4579 0.773 -0.621 -0.127 186 186 189 0 0
-0.0921 -0.1038 -0.6247 0.398 -0.809 0.432 79 78 75 0 0
-0.0760 -0.0945 -0.6237 0.564 -0.746 0.354 55 51 48 0 0
-0.0509 -0.0843 -0.6941 0.992 0.122 -0.029 46 42 44 0 0
-0.0509 -0.0845 -0.6964 0.959 0.263 0.110 42 38 39 0 0
0.0098 -0.0179 -0.1578 0.214 0.950 0.229 152 136 99 0 0
0.0233 -0.0120 -0.1898 0.677 0.736 0.021 74 65 40 0 0
0.0233 -0.0122 -0.1913 0.834 0.436 -0.339 69 59 36 0 0
0.0227 -0.0128 -0.1960 0.857 0.395 0.332 55 42 26 0 0
0.0308 -0.0087 -0.2063 0.724 0.464 0.510 58 42 24 0 0
0.0245 -0.0127 -0.2109 0.915 0.026 0.403 89 75 48 0 0
0.0290 -0.0106 -0.2190 0.939 -0.012 0.343 99 85 58 0 0
-0.0063 -0.0385 -0.3378 0.887 -0.211 0.411 93 82 61 0 0
-0.0301 -0.0538 -0.3625 0.679 -0.495 0.542 91 80 59 0 0
-0.0288 -0.0531 -0.3638 0.717 -0.544 0.436 76 63 41 0 0
-0.0287 -0.0532 -0.3655 0.773 -0.585 0.245 73 58 34 0 0
-0.1097 -0.1057 -0.4562 0.726 -0.675 -0.131 186 187 189 0 0
-0.0863 -0.1026 -0.6217 -0.199 0.976 -0.092 191 192 193 0 0
-0.0865 -0.1028 -0.6240 -0.201 0.979 -0.030 170 172 171 0 0
-0.0857 -0.1025 -0.6257 -0.211 0.974 -0.076 138 139 137 0 0
-0.0495 -0.0859 -0.6960 0.790 0.466 0.398 26 24 23 0 0
-0.0187 -0.0356 -0.1492 0.965 0.219 -0.142 177 177 177 0 0
0.0184 -0.0151 -0.1653 0.757 0.582 0.298 141 124 102 0 0
0.0244 -0.0147 -0.2141 0.330 0.792 0.514 92 78 51 0 0
-0.0067 -0.0406 -0.3381 0.887 -0.211 0.411 68 56 34 0 0
-0.0088 -0.0420 -0.3406 0.736 -0.244 0.632 78 65 42 0 0
-0.0315 -0.0566 -0.3632 0.590 -0.361 0.722 78 70 54 0 0
-0.0312 -0.0565 -0.3649 0.700 -0.294 0.651 87 78 61 0 0
-0.0309 -0.0565 -0.3666 0.773 -0.585 0.245 86 75 58 0 0
-0.0303 -0.0562 -0.3682 0.729 -0.662 0.174 80 68 51 0 0
-0.0302 -0.0565 -0.3736 0.763 -0.647 0.018 85 72 55 0 0
-0.0803 -0.1012 -0.6207 -0.199 0.976 -0.092 207 208 210 0 0
-0.0810 -0.1018 -0.6233 -0.166 0.982 -0.085 209 211 211 0 0
-0.0481 -0.0867 -0.6865 0.438 0.899 -0.022 19 15 12 0 0
-0.0183 -0.0372 -0.1492 0.965 0.219 -0.142 179 179 178 0 0
0.0115 -0.0204 -0.1577 0.716 0.301 0.630 186 167 128 0 0
0.0251 -0.0154 -0.2033 0.894 0.393 0.214 79 64 39 0 0
0.0255 -0.0152 -0.2047 0.819 0.546 0.174 84 70 44 0 0
-0.1031 -0.1052 -0.4398 0.897 -0.406 -0.175 182 186 187 0 0
-0.0779 -0.1017 -0.6153 -0.061 0.998 -0.014 206 207 209 0 0
-0.0767 -0.1011 -0.6167 -0.136 0.990 -0.031 207 208 210 0 0
-0.0763 -0.1010 -0.6187 -0.205 0.933 0.294 208 209 212 0 0
-0.0758 -0.1009 -0.6206 -0.222 0.960 0.172 210 211 213 0 0
-0.0515 -0.0899 -0.6714 0.996 0.079 -0.031 17 14 11 0 0
-0.0515 -0.0901 -0.6737 0.996 0.079 -0.031 13 9 6 0 0
-0.0099 -0.0782 -0.8661 -0.041 0.108 0.993 153 152 150 0 0
-0.0078 -0.0770 -0.8667 -0.086 0.037 0.996 160 159 157 0 0
0.0259 -0.0165 -0.2002 0.846 0.467 0.257 81 67 43 0 0
0.0262 -0.0164 -0.2016 0.846 0.467 0.257 90 76 49 0 0
0.0243 -0.0178 -0.2051 0.863 0.467 0.193 90 76 49 0 0
0.0281 -0.0160 -0.2134 0.583 0.754 0.304 87 73 46 0 0
0.0268 -0.0218 -0.2899 0.965 0.235 -0.113 103 91 65 0 0
-0.0122 -0.0477 -0.3388 0.738 -0.095 -0.668 103 97 83 0 0
-0.0735 -0.1013 -0.6131 -0.176 0.968 0.177 206 206 208 0 0
-0.0725 -0.1008 -0.6147 -0.173 0.974 0.146 207 207 209 0 0
-0.0716 -0.1004 -0.6163 -0.173 0.974 0.146 208 209 212 0 0
-0.0708 -0.1000 -0.6180 -0.185 0.972 0.148 210 211 213 0 0
-0.0514 -0.0923 -0.6741 0.990 0.126 0.059 14 11 7 0 0
0.0275 -0.0221 -0.2736 0.803 0.330 0.497 96 85 57 0 0
-0.0711 -0.1020 -0.6121 -0.281 0.947 0.155 207 207 210 0 0
-0.0700 -0.1015 -0.6136 -0.264 0.955 0.136 208 208 209 0 0
-0.0440 -0.0890 -0.6563 0.060 0.982 0.179 20 17 13 0 0
-0.0436 -0.0894 -0.6649 0.937 0.188 0.295 17 16 12 0 0
-0.0431 -0.0892 -0.6668 0.898 0.430 0.095 14 13 9 0 0
-0.0433 -0.0899 -0.6758 0.904 0.365 0.223 34 31 26 0 0
-0.0420 -0.0892 -0.6772 0.725 0.418 0.547 35 31 27 0 0
-0.0358 -0.0859 -0.6818 0.812 0.020 0.583 26 22 19 0 0
-0.0339 -0.0850 -0.6849 0.584 0.589 0.558 28 24 20 0 0
-0.0087 -0.0821 -0.8666 0.422 -0.255 0.870 166 162 159 0 0
-0.0101 -0.0377 -0.1480 0.849 0.497 -0.177 176 177 177 0 0
-0.0099 -0.0378 -0.1510 0.503 0.382 0.775 150 139 120 0 0
0.0226 -0.0214 -0.1919 0.870 0.235 0.434 95 81 52 0 0
0.0281 -0.0236 -0.2736 0.803 0.330 0.497 97 86 58 0 0
-0.0044 -0.0466 -0.3329 0.658 0.522 -0.543 171 168 163 0 0
-0.0555 -0.0947 -0.6074 -0.102 0.906 0.410 209 209 210 0 0
-0.0142 -0.0418 -0.1457 0.483 0.460 0.745 178 178 180 0 0
-0.0093 -0.0390 -0.1479 0.849 0.497 -0.177 177 178 178 0 0
-0.0102 -0.0397 -0.1496 0.558 0.315 0.767 167 164 154 0 0
0.0096 -0.0285 -0.1568 0.749 -0.181 0.637 178 157 111 0 0
0.0113 -0.0276 -0.1580 0.745 -0.172 0.644 202 181 129 0 0
0.0227 -0.0230 -0.1905 0.548 0.833 0.082 99 85 56 0 0
0.0278 -0.0251 -0.2674 0.993 0.109 0.046 94 80 54 0 0
0.0280 -0.0251 -0.2690 0.963 0.260 -0.070 101 87 60 0 0
0.0272 -0.0257 -0.2708 0.983 0.174 0.060 97 86 56 0 0
-0.0035 -0.0480 -0.3328 0.647 0.635 -0.422 180 182 182 0 0
-0.0562 -0.0967 -0.5975 0.909 -0.371 0.192 206 207 209 0 0
-0.0549 -0.0962 -0.6010 0.924 -0.215 0.317 196 196 197 0 0
-0.0545 -0.0968 -0.6137 0.973 -0.011 0.229 52 49 44 0 0
-0.0541 -0.0967 -0.6156 0.895 0.407 0.185 40 37 31 0 0
-0.0537 -0.0966 -0.6176 0.895 0.407 0.185 33 30 23 0 0
-0.0465 -0.0932 -0.6304 0.363 0.913 0.187 36 27 19 0 0
-0.0451 -0.0926 -0.6339 0.262 0.900 0.349 36 28 19 0 0
-0.0276 -0.0858 -0.6860 0.821 0.537 0.194 52 40 27 0 0
-0.0270 -0.0855 -0.6878 0.835 0.435 0.336 58 44 27 0 0
-0.0264 -0.0853 -0.6896 0.835 0.435 0.336 79 66 44 0 0
0.0008 -0.0353 -0.1538 0.209 0.666 0.716 117 106 84 0 0
0.0235 -0.0240 -0.1858 0.797 0.567 0.209 100 85 52 0 0
0.0240 -0.0238 -0.1872 0.912 0.329 0.246 95 80 47 0 0
0.0253 -0.0253 -0.2208 0.617 0.284 0.734 96 82 55 0 0
0.0258 -0.0251 -0.2222 0.714 0.585 0.385 99 85 58 0 0
0.0242 -0.0296 -0.2751 0.506 0.664 0.550 99 88 60 0 0
0.0241 -0.0298 -0.2768 0.915 0.403 0.013 101 90 62 0 0
-0.0617 -0.1017 -0.5905 0.063 0.969 0.237 202 203 206 0 0
-0.0561 -0.0989 -0.5979 0.695 0.559 0.452 119 117 114 0 0
-0.0553 -0.0985 -0.5996 0.668 0.607 0.430 86 83 78 0 0
-0.0540 -0.0986 -0.6118 0.885 0.424 0.194 47 39 30 0 0
-0.0537 -0.0985 -0.6137 0.885 0.424 0.194 45 36 29 0 0
-0.0533 -0.0984 -0.6156 0.885 0.424 0.194 38 30 22 0 0
-0.0433 -0.0941 -0.6398 0.650 0.716 0.254 38 29 21 0 0
-0.0428 -0.0940 -0.6417 0.650 0.716 0.254 40 31 23 0 0
-0.0257 -0.0870 -0.6875 0.860 0.479 0.178 73 58 37 0 0
-0.0251 -0.0867 -0.6893 0.828 0.467 0.310 88 74 49 0 0
-0.0030 -0.0854 -0.8636 0.951 -0.308 0.002 173 171 168 0 0
0.0141 -0.0296 -0.1606 0.838 0.468 0.279 154 137 103 0 0
0.0258 -0.0247 -0.1900 0.783 0.482 0.394 97 81 53 0 0
0.0255 -0.0295 -0.2588 0.894 0.247 0.374 89 77 51 0 0
0.0244 -0.0314 -0.2752 0.880 0.046 0.473 101 90 62 0 0
-0.0664 -0.1059 -0.5787 -0.103 0.892 0.440 206 207 209 0 0
-0.0643 -0.1048 -0.5817 -0.100 0.926 0.365 205 207 207 0 0
-0.0599 -0.1026 -0.5878 0.072 0.958 0.278 123 122 120 0 0
-0.0576 -0.1015 -0.5907 0.250 0.903 0.349 61 59 55 0 0
-0.0551 -0.1002 -0.5934 0.148 0.863 0.482 49 43 35 0 0
-0.0551 -0.1004 -0.5977 0.799 0.465 0.380 49 41 32 0 0
-0.0543 -0.1001 -0.5994 0.834 0.457 0.309 38 31 23 0 0
-0.0520 -0.0995 -0.6110 0.664 0.722 0.194 47 38 24 0 0
-0.0503 -0.0989 -0.6164 0.575 0.777 0.255 43 35 23 0 0
-0.0461 -0.0967 -0.6203 0.426 0.651 0.628 42 34 24 0 0
-0.0449 -0.0960 -0.6217 0.410 0.689 0.597 47 38 29 0 0
-0.0434 -0.0953 -0.6229 0.437 0.753 0.492 48 38 28 0 0
-0.0426 -0.0949 -0.6245 0.456 0.792 0.406 39 29 19 0 0
-0.0437 -0.0958 -0.6275 0.671 0.736 0.086 53 43 33 0 0
-0.0416 -0.0953 -0.6392 0.725 0.614 0.311 46 37 28 0 0
-0.0388 -0.0948 -0.6571 0.578 0.816 0.020 40 31 22 0 0
-0.0369 -0.0947 -0.6714 0.831 0.456 0.317 43 35 25 0 0
-0.0339 -0.0929 -0.6715 0.609 0.606 0.511 70 61 50 0 0
-0.0302 -0.0913 -0.6801 0.703 0.621 0.348 71 59 42 0 0
-0.0180 -0.0855 -0.7004 0.775 0.384 0.502 91 78 52 0 0
-0.0059 -0.0895 -0.8647 0.849 -0.316 0.424 173 172 167 0 0
0.0255 -0.0314 -0.2589 0.951 0.221 0.218 87 75 48 0 0
0.0229 -0.0336 -0.2677 0.954 -0.135 0.269 95 84 56 0 0
0.0236 -0.0338 -0.2773 0.987 -0.145 0.067 102 90 63 0 0
0.0226 -0.0345 -0.2792 0.990 0.062 -0.126 101 89 63 0 0
0.0216 -0.0353 -0.2828 0.649 0.091 0.755 100 88 62 0 0
-0.0560 -0.1025 -0.5880 0.154 0.941 0.301 40 34 25 0 0
-0.0541 -0.1021 -0.5977 0.799 0.465 0.380 49 35 23 0 0
-0.0339 -0.0949 -0.6677 0.769 0.472 0.431 33 24 15 0 0
-0.0322 -0.0941 -0.6709 0.740 0.438 0.510 67 56 43 0 0
0.0195 -0.0311 -0.1763 0.387 0.754 0.530 118 103 69 0 0
0.0214 -0.0300 -0.1774 0.729 0.306 0.613 115 100 67 0 0
0.0231 -0.0317 -0.2170 0.878 0.296 0.377 92 78 52 0 0
-0.0488 -0.1018 -0.6078 0.592 0.799 0.109 53 40 23 0 0
-0.0330 -0.0965 -0.6675 0.769 0.472 0.431 35 25 18 0 0
-0.0326 -0.0964 -0.6695 0.672 0.539 0.507 42 32 23 0 0
-0.0006 -0.0916 -0.8737 0.518 0.477 0.710 184 181 178 0 0
0.0201 -0.0325 -0.1763 0.789 0.433 0.436 118 103 70 0 0
0.0236 -0.0332 -0.2170 0.878 0.296 0.377 90 76 51 0 0
-0.0498 -0.1033 -0.5895 0.327 0.908 0.264 41 31 22 0 0
-0.0484 -0.1026 -0.5908 0.317 0.883 0.347 48 36 23 0 0
-0.0459 -0.1016 -0.5978 0.706 0.475 0.525 63 50 34 0 0
-0.0446 -0.1009 -0.5992 0.682 0.228 0.695 65 52 35 0 0
-0.0421 -0.0998 -0.6041 0.531 0.694 0.486 61 48 28 0 0
-0.0403 -0.0995 -0.6159 0.666 0.656 0.356 66 51 32 0 0
-0.0366 -0.0976 -0.6200 0.843 0.157 0.514 60 46 28 0 0
-0.0379 -0.0996 -0.6383 0.555 0.659 0.509 53 44 26 0 0
-0.0369 -0.0991 -0.6398 0.570 0.763 0.303 49 40 22 0 0
-0.0362 -0.0988 -0.6415 0.556 0.734 0.391 43 34 16 0 0
-0.0321 -0.0979 -0.6630 0.500 0.843 0.198 53 39 27 0 0
-0.0322 -0.0981 -0.6653 0.499 0.854 0.146 41 32 21 0 0
-0.0310 -0.0975 -0.6667 0.591 0.776 0.221 39 30 21 0 0
-0.0315 -0.0980 -0.6693 0.672 0.539 0.507 38 28 20 0 0
-0.0306 -0.0976 -0.6709 0.661 0.427 0.617 62 50 40 0 0
0.0013 -0.0930 -0.8776 0.620 0.784 0.026 188 184 181 0 0
0.0195 -0.0356 -0.1902 0.936 0.067 0.344 107 91 59 0 0
-0.0413 -0.1008 -0.5955 0.470 0.814 0.341 51 38 20 0 0
-0.0382 -0.0995 -0.6022 0.720 0.629 0.293 64 50 28 0 0
-0.0394 -0.1012 -0.6159 0.589 0.658 0.469 76 60 38 0 0
-0.0385 -0.1007 -0.6174 0.520 0.642 0.563 63 47 26 0 0
-0.0377 -0.1004 -0.6191 0.585 0.589 0.557 60 45 24 0 0
-0.0378 -0.1006 -0.6213 0.741 0.486 0.464 63 48 28 0 0
-0.0379 -0.1015 -0.6344 0.829 0.231 0.509 63 51 31 0 0
-0.0375 -0.1015 -0.6363 0.692 0.471 0.548 60 47 28 0 0
-0.0353 -0.1004 -0.6393 0.713 0.502 0.490 62 48 29 0 0
-0.0304 -0.0990 -0.6624 0.447 0.870 0.205 59 46 30 0 0
-0.0299 -0.0989 -0.6642 0.447 0.870 0.205 52 38 24 0 0
-0.0291 -0.0987 -0.6682 0.635 0.734 0.240 35 25 16 0 0
-0.0290 -0.0987 -0.6703 0.698 0.610 0.374 46 36 24 0 0
-0.0280 -0.0983 -0.6719 0.831 0.500 0.242 47 34 17 0 0
-0.0254 -0.0969 -0.6745 0.824 0.429 0.371 103 91 67 0 0
0.0226 -0.0383 -0.2285 0.950 -0.027 0.310 92 78 51 0 0
-0.0606 -0.1118 -0.5563 0.695 0.570 0.438 50 46 39 0 0
-0.0367 -0.1007 -0.6017 0.768 0.601 0.221 70 55 32 0 0
-0.0373 -0.1020 -0.6150 0.607 0.781 0.145 76 60 37 0 0
-0.0369 -0.1019 -0.6169 0.611 0.628 0.481 71 55 32 0 0
-0.0293 -0.0996 -0.6490 0.607 0.734 0.306 65 53 30 0 0
-0.0007 -0.0984 -0.8712 0.104 0.523 0.846 185 181 178 0 0
0.0194 -0.0426 -0.2358 0.960 -0.031 0.280 92 78 52 0 0
-0.0382 -0.1033 -0.5945 0.636 0.581 0.507 61 47 24 0 0
-0.0334 -0.1025 -0.6238 0.842 0.436 0.317 67 52 29 0 0
-0.0330 -0.1025 -0.6279 0.682 0.706 0.192 67 52 27 0 0
-0.0326 -0.1024 -0.6298 0.728 0.641 0.244 64 50 24 0 0
-0.0321 -0.1023 -0.6316 0.728 0.641 0.244 73 59 33 0 0
-0.0316 -0.1021 -0.6335 0.728 0.641 0.244 62 47 23 0 0
-0.0311 -0.1020 -0.6354 0.728 0.641 0.244 70 56 32 0 0
-0.0305 -0.1017 -0.6372 0.618 0.749 0.239 69 55 31 0 0
-0.0301 -0.1016 -0.6391 0.653 0.736 0.182 63 49 25 0 0
-0.0248 -0.0993 -0.6509 0.741 0.616 0.268 61 47 24 0 0
-0.0352 -0.1038 -0.5974 0.702 0.693 0.162 74 58 35 0 0
-0.0326 -0.1042 -0.6238 0.734 0.639 0.230 63 48 25 0 0
-0.0308 -0.1032 -0.6248 0.770 0.362 0.526 72 57 34 0 0
-0.0284 -0.1024 -0.6341 0.781 0.617 0.096 78 62 37 0 0
-0.0281 -0.1024 -0.6361 0.781 0.624 0.025 93 77 52 0 0
-0.0280 -0.1027 -0.6404 0.716 0.691 0.093 78 61 40 0 0
-0.0278 -0.1027 -0.6424 0.716 0.691 0.093 69 52 32 0 0
-0.0261 -0.1019 -0.6457 0.845 0.532 0.050 60 44 23 0 0
-0.0246 -0.1012 -0.6490 0.759 0.482 0.439 60 45 25 0 0
-0.0164 -0.1128 -0.8748 0.119 0.010 0.993 181 180 176 0 0
0.0195 -0.0435 -0.1998 0.974 0.153 0.167 95 80 49 0 0
0.0173 -0.0459 -0.2144 0.987 0.113 0.115 94 80 53 0 0
0.0175 -0.0490 -0.2574 0.941 0.029 0.338 89 78 52 0 0
-0.0479 -0.1112 -0.5631 0.704 0.563 0.433 59 47 33 0 0
-0.0346 -0.1049 -0.5869 0.933 0.339 0.121 67 53 33 0 0
-0.0342 -0.1048 -0.5888 0.869 0.452 0.201 67 52 31 0 0
-0.0273 -0.1040 -0.6339 0.798 0.603 0.014 77 61 37 0 0
-0.0149 -0.1142 -0.8742 0.006 0.079 0.997 182 181 177 0 0
-0.0083 -0.1099 -0.8706 -0.139 0.127 0.982 183 181 177 0 0
-0.0054 -0.1083 -0.8729 0.205 0.118 0.972 186 182 179 0 0
-0.0248 -0.0822 -0.3322 0.723 -0.632 -0.278 180 181 185 0 0
-0.0370 -0.1079 -0.5782 0.441 0.808 0.390 68 56 34 0 0
-0.0339 -0.1063 -0.5827 0.543 0.803 0.247 60 46 25 0 0
-0.0336 -0.1063 -0.5846 0.651 0.695 0.306 60 47 27 0 0
-0.0304 -0.1058 -0.6040 0.654 0.739 0.162 71 55 32 0 0
-0.0001 -0.1067 -0.8639 0.435 -0.283 0.855 184 182 178 0 0
-0.0063 -0.1111 -0.8720 0.145 0.346 0.927 186 182 179 0 0
0.0055 -0.0534 -0.1690 0.486 0.289 0.825 146 130 95 0 0
0.0153 -0.0542 -0.2600 0.922 -0.005 0.387 87 76 50 0 0
0.0130 -0.0560 -0.2656 0.996 0.091 -0.007 96 82 55 0 0
0.0131 -0.0561 -0.2672 0.972 0.179 0.153 96 82 55 0 0
-0.0449 -0.1134 -0.5580 0.384 0.889 0.251 70 58 42 0 0
-0.0352 -0.1091 -0.5797 0.742 0.666 0.077 66 51 31 0 0
-0.0338 -0.1087 -0.5852 0.543 0.790 0.284 66 51 28 0 0
-0.0299 -0.1071 -0.5956 0.800 0.240 0.549 66 52 26 0 0
-0.0289 -0.1071 -0.6035 0.681 0.731 0.038 67 52 30 0 0
0.0147 -0.0567 -0.2636 0.985 0.012 -0.170 98 86 59 0 0
0.0132 -0.0578 -0.2657 0.990 0.067 0.124 102 88 61 0 0
0.0128 -0.0583 -0.2691 0.920 0.233 0.315 97 83 56 0 0
0.0131 -0.0583 -0.2706 0.859 0.234 0.456 101 89 62 0 0
-0.0352 -0.0927 -0.3345 0.807 -0.483 -0.338 114 112 109 0 0
-0.0643 -0.1252 -0.5272 0.843 0.537 0.045 61 55 49 0 0
-0.0457 -0.1154 -0.5484 0.311 0.890 0.334 71 59 46 0 0
-0.0450 -0.1150 -0.5501 0.311 0.890 0.334 51 39 27 0 0
-0.0395 -0.1129 -0.5658 0.544 0.792 0.277 82 69 52 0 0
-0.0385 -0.1124 -0.5673 0.604 0.686 0.406 52 39 22 0 0
-0.0374 -0.1118 -0.5688 0.617 0.683 0.391 66 53 35 0 0
-0.0293 -0.1089 -0.5957 0.807 0.568 0.164 66 51 27 0 0
-0.0289 -0.1088 -0.5976 0.807 0.568 0.164 71 56 33 0 0
-0.0281 -0.1086 -0.6014 0.655 0.719 0.232 66 51 30 0 0
-0.0269 -0.1089 -0.6156 0.829 0.457 0.322 80 68 55 0 0
-0.0258 -0.1105 -0.6453 0.998 -0.049 0.031 148 129 95 0 0
-0.0351 -0.1252 -0.7641 0.836 -0.546 -0.050 196 195 193 0 0
0.0071 -0.0562 -0.1704 0.564 0.604 0.563 146 131 93 0 0
0.0058 -0.0571 -0.1721 0.871 0.491 0.014 139 125 89 0 0
0.0068 -0.0567 -0.1750 0.998 0.054 0.013 137 123 88 0 0
0.0080 -0.0560 -0.1763 0.803 -0.236 0.548 137 123 88 0 0
0.0168 -0.0548 -0.2308 0.921 0.233 0.312 104 90 63 0 0
-0.0179 -0.0832 -0.3233 0.570 -0.127 -0.812 96 91 76 0 0
-0.0451 -0.1012 -0.3400 0.761 0.178 -0.623 118 117 114 0 0
-0.0414 -0.0990 -0.3405 0.923 -0.383 -0.042 179 179 179 0 0
-0.0658 -0.1277 -0.5201 0.780 0.402 0.479 75 71 66 0 0
-0.0649 -0.1273 -0.5217 0.676 0.602 0.425 74 69 62 0 0
-0.0617 -0.1256 -0.5262 0.834 0.547 -0.068 51 43 34 0 0
-0.0429 -0.1159 -0.5493 0.481 0.816 0.321 57 44 29 0 0
-0.0423 -0.1157 -0.5511 0.190 0.938 0.290 67 55 39 0 0
-0.0371 -0.1137 -0.5670 0.610 0.674 0.418 58 45 28 0 0
-0.0328 -0.1116 -0.5749 0.765 0.543 0.347 50 38 19 0 0
0.0111 -0.0590 -0.2149 0.994 0.102 0.039 99 85 57 0 0
0.0096 -0.0611 -0.2312 0.943 0.266 0.198 107 93 66 0 0
0.0126 -0.0595 -0.2336 0.789 -0.061 0.611 105 91 64 0 0
0.0074 -0.0669 -0.2877 0.972 0.232 0.043 103 91 64 0 0
0.0081 -0.0666 -0.2892 0.846 -0.165 0.507 103 90 63 0 0
-0.0022 -0.0750 -0.3164 0.570 0.026 -0.821 97 90 73 0 0
-0.0514 -0.1078 -0.3479 0.279 0.552 -0.785 180 181 184 0 0
-0.0676 -0.1187 -0.3611 0.238 0.605 -0.759 179 180 184 0 0
-0.0425 -0.1178 -0.5495 0.791 0.569 0.223 70 58 41 0 0
-0.0404 -0.1166 -0.5504 0.264 0.876 0.403 88 76 57 0 0
-0.0363 -0.1152 -0.5648 0.490 0.740 0.461 68 54 36 0 0
-0.0338 -0.1140 -0.5697 0.664 0.528 0.529 57 44 28 0 0
-0.0361 -0.1295 -0.7519 0.900 -0.435 -0.016 197 195 188 0 0
-0.0360 -0.1297 -0.7542 0.913 -0.406 0.022 198 198 196 0 0
0.0107 -0.0592 -0.1915 0.916 -0.392 0.089 114 99 71 0 0
0.0089 -0.0607 -0.1965 0.761 0.620 0.192 116 101 70 0 0
0.0107 -0.0600 -0.2009 0.784 0.490 0.381 118 105 73 0 0
0.0114 -0.0597 -0.2023 0.857 0.391 0.337 119 106 75 0 0
0.0113 -0.0620 -0.2325 0.787 -0.217 0.577 105 91 64 0 0
0.0124 -0.0615 -0.2338 0.787 -0.217 0.577 104 90 64 0 0
0.0084 -0.0680 -0.2859 0.952 0.258 -0.163 106 95 67 0 0
-0.0486 -0.1080 -0.3471 0.263 0.569 -0.779 175 174 175 0 0
-0.0646 -0.1189 -0.3603 0.247 0.595 -0.765 179 180 184 0 0
-0.0680 -0.1213 -0.3634 0.329 0.512 -0.794 179 180 184 0 0
-0.0670 -0.1312 -0.4987 0.959 -0.281 -0.024 197 198 202 0 0
-0.0535 -0.1254 -0.5309 0.672 0.563 0.482 69 59 44 0 0
-0.0370 -0.1172 -0.5573 0.625 0.691 0.364 75 63 43 0 0
-0.0327 -0.1155 -0.5695 0.674 0.687 0.271 55 43 27 0 0
-0.0321 -0.1153 -0.5712 0.769 0.351 0.534 56 44 29 0 0
-0.0314 -0.1150 -0.5729 0.807 0.426 0.409 63 50 34 0 0
-0.0246 -0.1129 -0.6006 0.952 0.273 0.134 103 89 70 0 0
-0.0375 -0.1325 -0.7489 0.902 -0.430 -0.019 202 200 194 0 0
-0.0374 -0.1326 -0.7512 0.913 -0.406 0.022 200 202 197 0 0
-0.0022 -0.0672 -0.1677 0.974 0.223 0.046 132 119 90 0 0
-0.0006 -0.0663 -0.1690 0.978 0.198 -0.064 144 129 97 0 0
-0.0006 -0.0664 -0.1705 0.978 0.198 -0.064 142 127 93 0 0
0.0101 -0.0611 -0.1870 0.942 -0.329 -0.063 128 113 80 0 0
0.0080 -0.0629 -0.1937 0.979 -0.198 0.048 125 110 80 0 0
0.0105 -0.0621 -0.2026 0.890 0.141 0.434 122 109 77 0 0
0.0104 -0.0647 -0.2361 0.974 -0.064 0.216 106 92 63 0 0
0.0097 -0.0653 -0.2379 0.919 -0.228 0.322 106 92 65 0 0
0.0092 -0.0694 -0.2858 0.810 0.577 -0.104 107 96 68 0 0
0.0084 -0.0702 -0.2894 0.831 0.279 0.480 102 91 63 0 0
0.0001 -0.0773 -0.3143 0.663 0.162 -0.731 112 99 76 0 0
-0.0252 -0.0944 -0.3318 0.311 0.400 -0.862 67 66 60 0 0
-0.0314 -0.0985 -0.3358 0.281 0.452 -0.846 73 74 68 0 0
-0.0625 -0.1199 -0.3616 0.359 0.584 -0.728 179 180 184 0 0
-0.0666 -0.1327 -0.4927 0.961 -0.219 -0.168 197 196 199 0 0
-0.0570 -0.1291 -0.5229 0.508 0.774 0.377 56 47 32 0 0
-0.0549 -0.1278 -0.5238 0.710 0.604 0.362 64 53 35 0 0
-0.0505 -0.1258 -0.5318 0.642 0.064 0.764 70 58 41 0 0
-0.0299 -0.1164 -0.5745 0.807 0.426 0.409 61 48 30 0 0
-0.0299 -0.1166 -0.5767 0.894 0.388 0.224 52 39 22 0 0
0.0074 -0.0656 -0.2002 0.737 -0.405 0.542 109 95 66 0 0
0.0095 -0.0644 -0.2013 0.623 -0.372 0.688 116 103 71 0 0
-0.0008 -0.0798 -0.3148 0.824 -0.135 -0.550 110 98 75 0 0
-0.0035 -0.0817 -0.3175 0.575 0.109 -0.811 96 88 71 0 0
-0.0299 -0.0996 -0.3355 0.421 0.301 -0.856 63 59 56 0 0
-0.0343 -0.1025 -0.3388 0.250 0.540 -0.804 66 64 60 0 0
-0.0393 -0.1060 -0.3424 0.226 0.618 -0.753 66 65 60 0 0
-0.0429 -0.1084 -0.3455 0.226 0.618 -0.753 62 61 58 0 0
-0.0518 -0.1145 -0.3524 0.249 0.621 -0.743 156 156 156 0 0
-0.0552 -0.1169 -0.3555 0.249 0.621 -0.743 180 181 183 0 0
-0.0661 -0.1247 -0.3688 0.613 0.244 -0.752 179 180 182 0 0
-0.0683 -0.1352 -0.4836 0.826 0.503 0.254 192 193 195 0 0
-0.0683 -0.1354 -0.4857 0.715 0.632 0.301 193 194 195 0 0
-0.0547 -0.1296 -0.5199 0.581 0.725 0.369 47 41 28 0 0
-0.0519 -0.1286 -0.5288 0.877 0.200 0.437 87 74 58 0 0
-0.0416 -0.1398 -0.7510 0.891 -0.451 -0.044 203 203 202 0 0
-0.0427 -0.1410 -0.7566 0.834 -0.544 0.094 203 201 202 0 0
-0.0520 -0.1534 -0.8401 0.908 -0.419 -0.028 161 155 140 0 0
0.0091 -0.0665 -0.2015 0.775 -0.177 0.607 115 100 69 0 0
-0.0180 -0.0935 -0.3279 0.303 0.396 -0.867 98 96 90 0 0
-0.0289 -0.1010 -0.3353 0.427 0.297 -0.854 49 47 43 0 0
-0.0321 -0.1032 -0.3383 0.304 0.496 -0.814 55 51 48 0 0
-0.0352 -0.1054 -0.3412 0.197 0.647 -0.737 68 66 62 0 0
-0.0405 -0.1090 -0.3449 0.242 0.640 -0.730 57 57 52 0 0
-0.0568 -0.1203 -0.3600 0.353 0.652 -0.671 178 180 185 0 0
-0.0686 -0.1377 -0.4842 0.995 0.098 -0.031 187 188 188 0 0
-0.0612 -0.1349 -0.5072 0.123 0.942 0.312 43 34 25 0 0
-0.0605 -0.1345 -0.5088 0.089 0.856 0.509 43 34 27 0 0
-0.0534 -0.1308 -0.5176 0.543 0.529 0.653 68 60 44 0 0
-0.0523 -0.1302 -0.5190 0.844 0.479 0.240 51 45 30 0 0
-0.0518 -0.1301 -0.5209 0.844 0.479 0.240 45 39 26 0 0
-0.0511 -0.1298 -0.5226 0.713 0.554 0.429 65 55 40 0 0
-0.0510 -0.1299 -0.5246 0.537 0.751 0.384 87 75 58 0 0
-0.0502 -0.1295 -0.5262 0.589 0.755 0.288 61 48 30 0 0
-0.0495 -0.1292 -0.5279 0.537 0.751 0.384 71 59 40 0 0
0.0069 -0.0728 -0.2390 0.951 0.053 0.305 108 94 64 0 0
0.0070 -0.0746 -0.2620 0.997 0.019 0.078 112 98 69 0 0
0.0066 -0.0762 -0.2787 0.890 0.369 0.269 115 101 72 0 0
0.0090 -0.0749 -0.2813 0.987 0.028 0.161 116 102 73 0 0
-0.0024 -0.0848 -0.3158 0.872 -0.327 -0.365 115 102 76 0 0
-0.0049 -0.0866 -0.3183 0.652 0.079 -0.754 122 113 95 0 0
-0.0123 -0.0917 -0.3244 0.524 0.082 -0.848 103 99 89 0 0
-0.0276 -0.1021 -0.3351 0.477 0.221 -0.850 68 66 62 0 0
-0.0312 -0.1047 -0.3382 0.476 0.254 -0.842 49 44 41 0 0
-0.0345 -0.1070 -0.3412 0.276 0.598 -0.753 67 65 61 0 0
-0.0376 -0.1092 -0.3441 0.242 0.640 -0.730 65 63 58 0 0
-0.0451 -0.1143 -0.3504 0.270 0.615 -0.741 57 52 48 0 0
-0.0726 -0.1340 -0.3813 0.371 0.561 -0.740 180 181 183 0 0
-0.0667 -0.1387 -0.4856 0.360 0.809 0.466 56 51 42 0 0
-0.0511 -0.1317 -0.5188 0.558 0.823 0.108 70 62 45 0 0
-0.0457 -0.1289 -0.5263 0.131 0.891 0.434 76 64 39 0 0
-0.0446 -0.1284 -0.5278 0.131 0.891 0.434 86 74 51 0 0
-0.0341 -0.1233 -0.5468 0.794 0.596 0.119 75 60 39 0 0
-0.0326 -0.1232 -0.5565 0.783 0.495 0.377 47 34 18 0 0
-0.0278 -0.1218 -0.5768 0.819 0.385 0.425 111 98 76 0 0
-0.0272 -0.1216 -0.5785 0.621 0.505 0.600 105 91 70 0 0
0.0065 -0.0750 -0.2393 0.971 -0.092 0.220 113 98 67 0 0
0.0063 -0.0755 -0.2442 0.962 -0.093 -0.257 119 105 71 0 0
0.0053 -0.0787 -0.2759 0.966 0.129 0.222 112 98 69 0 0
-0.0019 -0.0865 -0.3158 0.817 -0.210 -0.536 103 89 63 0 0
-0.0193 -0.0986 -0.3306 0.418 0.303 -0.856 93 91 84 0 0
-0.0315 -0.1069 -0.3385 0.501 0.245 -0.830 64 59 56 0 0
-0.0325 -0.1077 -0.3407 0.344 0.532 -0.774 68 65 61 0 0
-0.0356 -0.1099 -0.3436 0.310 0.607 -0.732 71 68 61 0 0
-0.0473 -0.1180 -0.3533 0.454 0.474 -0.754 56 53 47 0 0
-0.0650 -0.1399 -0.4851 0.736 0.547 0.397 43 33 21 0 0
-0.0647 -0.1398 -0.4870 0.732 0.589 0.343 63 51 40 0 0
-0.0624 -0.1386 -0.4900 0.412 0.901 0.136 46 38 25 0 0
-0.0620 -0.1386 -0.4919 0.412 0.901 0.136 88 79 66 0 0
-0.0511 -0.1334 -0.5130 0.392 0.720 0.573 62 52 33 0 0
-0.0397 -0.1276 -0.5296 0.566 0.729 0.386 79 65 43 0 0
-0.0391 -0.1274 -0.5314 0.580 0.764 0.283 80 66 41 0 0
-0.0314 -0.1246 -0.5562 0.852 0.382 0.358 61 48 33 0 0
-0.0454 -0.1485 -0.7415 0.882 -0.470 -0.022 206 206 205 0 0
-0.0467 -0.1497 -0.7472 0.877 -0.468 -0.112 206 206 206 0 0
-0.0009 -0.0866 -0.3018 0.932 0.352 0.082 120 110 80 0 0
-0.0008 -0.0867 -0.3035 0.767 0.629 0.127 124 113 82 0 0
-0.0307 -0.1085 -0.3402 0.458 0.418 -0.785 63 58 55 0 0
-0.0337 -0.1107 -0.3431 0.458 0.418 -0.785 71 66 60 0 0
-0.0675 -0.1428 -0.4745 0.700 0.689 0.188 44 39 30 0 0
-0.0641 -0.1413 -0.4830 0.351 0.796 0.493 59 48 36 0 0
-0.0642 -0.1416 -0.4851 0.791 0.393 0.469 47 38 24 0 0
-0.0618 -0.1405 -0.4901 0.896 0.354 0.268 51 43 30 0 0
-0.0609 -0.1400 -0.4917 0.744 0.434 0.508 55 47 33 0 0
-0.0600 -0.1396 -0.4933 0.744 0.434 0.508 80 70 57 0 0
-0.0497 -0.1345 -0.5106 0.443 0.597 0.669 65 55 37 0 0
-0.0383 -0.1289 -0.5293 0.617 0.637 0.462 58 44 24 0 0
-0.0212 -0.1041 -0.3335 0.376 0.492 -0.785 98 94 89 0 0
-0.0320 -0.1116 -0.3427 0.462 0.428 -0.777 70 66 59 0 0
-0.0351 -0.1138 -0.3457 0.378 0.532 -0.757 60 56 47 0 0
-0.0587 -0.1305 -0.3673 0.591 0.675 -0.441 46 44 39 0 0
-0.0596 -0.1314 -0.3714 0.874 -0.452 0.181 60 59 58 0 0
-0.0579 -0.1305 -0.3727 0.905 -0.422 0.053 96 96 96 0 0
-0.0031 -0.0923 -0.3064 0.980 -0.195 -0.030 115 102 70 0 0
-0.0329 -0.1144 -0.3451 0.505 0.358 -0.785 65 61 52 0 0
-0.0595 -0.1335 -0.3716 0.454 0.755 -0.473 34 32 27 0 0
-0.0600 -0.1340 -0.3737 0.708 0.541 -0.453 46 41 38 0 0
-0.0602 -0.1343 -0.3757 0.716 0.510 -0.477 55 53 51 0 0
-0.0699 -0.1475 -0.4600 0.706 0.707 -0.050 64 60 59 0 0
-0.0677 -0.1462 -0.4610 0.774 0.515 0.368 49 46 43 0 0
-0.0671 -0.1459 -0.4628 0.719 0.661 0.215 51 49 43 0 0
-0.0655 -0.1452 -0.4661 0.988 0.142 0.053 41 37 27 0 0
-0.0655 -0.1453 -0.4681 0.565 0.796 0.216 44 38 27 0 0
-0.0650 -0.1452 -0.4699 0.565 0.796 0.216 55 48 35 0 0
-0.0647 -0.1452 -0.4718 0.689 0.724 0.028 44 36 23 0 0
