ply
format ascii 1.0
element vertex 673
property float x
property float y
property float z
property uchar diffuse_red
property uchar diffuse_green
property uchar diffuse_blue
end_header
0.06755129296976649 0.15743517384713118 -0.4263351028065057 74 57 31
0.06761817076559543 0.15711345727912251 -0.42810788506735475 83 66 39
0.06775700031916403 0.15752854724494525 -0.42953439659571657 89 72 44
0.0679178039932041 0.15816916812045692 -0.4308540962264746 93 76 48
0.06799469754065444 0.15794662500776882 -0.432585733237959 93 76 48
0.06807172155266848 0.15772372924907302 -0.43432025640059646 93 77 45
0.06814886625210548 0.15750037583193488 -0.43605772294682055 95 79 46
0.06843242664890231 0.15940601901958953 -0.4367700896017651 101 85 52
0.06838047143899482 0.1578474912572405 -0.439156228690502 106 90 57
0.06844511429328685 0.15749053040286684 -0.4409654830592091 107 91 58
0.06844614572344841 0.15647277606776605 -0.4431004193554369 104 88 55
0.06856837758875127 0.15670811589035885 -0.44462717042350636 100 84 51
0.0686614348719288 0.1566399271738158 -0.44630425677604396 104 88 55
0.06875395891417908 0.15656480277939816 -0.44798697909744545 108 92 59
0.068842205574662 0.15644377047684327 -0.44969466964299876 110 94 61
0.06894003637533148 0.15642102295038035 -0.4513559438647245 109 94 61
0.06911717335005985 0.15722374732697997 -0.452607764500891 109 94 61
0.06923381675460089 0.1573956438854914 -0.4541743452456291 109 93 60
0.0692714316554136 0.15674094012815581 -0.4561573085651309 112 96 63
0.06927816332582618 0.15576046379923822 -0.45830870846433097 108 90 56
0.06932464408429466 0.15519276359300208 -0.46025688172662216 113 94 61
0.06949795257763437 0.15595212376950637 -0.4615357828087543 115 99 65
0.06952696547529094 0.15519747263597725 -0.463584824820405 119 103 69
0.06962008016832587 0.15511336946154428 -0.4652959758534961 118 104 71
0.06961659940822822 0.15401168428983913 -0.46753113141895153 119 106 74
0.06965584607135133 0.1533561746047639 -0.4695426914112164 122 107 73
0.06969910865794496 0.15274021729376516 -0.4715381955443822 125 109 72
0.06974925987139906 0.15219426427956553 -0.4735016657997679 133 116 77
0.06989111801775293 0.15261484052942656 -0.47496672390366484 133 114 76
0.06991749652688226 0.15181337828243505 -0.4770697185236092 134 114 76
0.06994394078843022 0.15100945785948103 -0.4791789132771774 145 127 89
0.06997047279493723 0.15020329821527553 -0.4812942153412487 143 125 89
0.06999707458839202 0.1493946951711047 -0.483415753349028 135 116 83
0.07006316042011683 0.1490025342559427 -0.48532206326792127 116 97 67
0.07013968357280514 0.14871918770499887 -0.48717412018070144 115 98 69
0.07018869343478965 0.1481407498657407 -0.4891863613827482 136 122 95
0.07017858565822017 0.14692911848725626 -0.4915409847585313 147 134 112
0.07015544998813718 0.14557420214418437 -0.49397885630109273 162 153 137
0.07011203270268876 0.14399794655731796 -0.49654273863825893 178 171 160
0.07007298072198848 0.14246335337056096 -0.4990919380297453 202 198 192
0.07007227387716274 0.14133466437400036 -0.50142904977698 211 210 208
0.07008545866839941 0.1403509703989647 -0.5036936041323584 213 214 213
0.07004855035772063 0.13882554304721786 -0.506259094274352 215 215 216
0.07005938809526413 0.13780854715066598 -0.5085542291863591 216 217 219
0.06988915981233554 0.1348383714528803 -0.5119267931964221 216 217 219
0.06989153524045781 0.1337202096726988 -0.5142928470428192 216 217 219
0.06999264624656423 0.13251278638066277 -0.5184735153205823 217 218 220
0.07142511380106323 0.14341991570364326 -0.5194078066477912 216 217 219
0.09926236282787879 0.19634360561389666 -0.8685124667641264 213 212 210
0.09969559242855089 0.20090115124501087 -0.8661754200004447 213 212 210
0.09994207562166754 0.20265875420556248 -0.8665841834034123 213 212 210
0.10019887204777446 0.20457724350414355 -0.8668282862562311 213 212 210
0.03863827098932266 0.017971972712431845 -0.213907910505439 177 177 180
0.03902500092503828 0.02058819059980351 -0.2148919768993306 177 177 177
0.03930165868447926 0.022221569856314974 -0.21608204650867 176 177 175
0.038621631616275236 0.015279838958805275 -0.21912958419185702 176 175 172
0.0389450974683056 0.017329732918368576 -0.22023498258292654 172 171 170
0.03926854908090472 0.01938180976182221 -0.2213356936491646 168 165 165
0.03965680539922965 0.022018564640346322 -0.22230280679878192 162 158 155
0.03992619839541437 0.023589576993076213 -0.22350137007538395 151 144 133
0.04018636158625186 0.025079082238294914 -0.22471535800589018 139 126 107
0.040468729244805615 0.026770041870705606 -0.22588128024582863 127 112 82
0.04049891280043418 0.02618933150024702 -0.22755979883012614 130 114 82
0.040892767072759136 0.02888786652657583 -0.22849236406387285 144 125 92
0.041099387248687225 0.029899173439534965 -0.22980678522312073 151 130 98
0.04165464393849193 0.0340616768818066 -0.23039075402392423 156 137 103
0.041738785393078945 0.03396920537631536 -0.23195513327710565 165 148 112
0.041933193373175436 0.034873694488316544 -0.23328786871733762 167 148 113
0.04210617375237835 0.03558460322509159 -0.23466530313344058 153 135 99
0.04221487317171499 0.03571296162002525 -0.23618055659514028 136 119 86
0.04248246888648918 0.037282280774209337 -0.23735319032864524 119 102 72
0.04272883380084064 0.038660416587806425 -0.23856884911689857 122 106 78
0.04303675177161928 0.04059923849267122 -0.23964670623449344 143 129 100
0.04338919337313516 0.04294523069520867 -0.2406216108846816 149 134 107
0.0435607016247639 0.043647116004093406 -0.24199339036366938 98 78 56
0.04371048016241634 0.04415124131147129 -0.24341345858089727 128 108 81
0.0438622655062014 0.0446735422614799 -0.24482924697353495 197 180 139
0.04389091642105203 0.044072132290413166 -0.24652494831378136 227 213 168
0.04409231702283357 0.04504644284202698 -0.2478295285417118 231 220 176
0.04422927215791959 0.04543236220319705 -0.24928115736495765 239 227 184
0.044717360154587306 0.049030026464876274 -0.24991958961500557 224 207 164
0.044783465946751685 0.04876931845867915 -0.25153240643962527 217 199 155
0.044954620356759165 0.04946976817382014 -0.252901330313691 208 189 145
0.04512713263270654 0.05018287384622305 -0.25426662825144425 191 171 127
0.04535839769398686 0.05143544430376258 -0.2554916466846041 196 177 133
0.04565477205812083 0.05328721855319151 -0.25655840515311473 192 174 132
0.04592900384688993 0.054937555554570826 -0.2576742062504742 190 170 127
0.04627726105676763 0.05727080716381766 -0.2586066970678932 202 181 139
0.04664483301025853 0.05978487222543167 -0.25948599750401485 206 185 144
0.046930356554980714 0.06154598972877377 -0.26056034901175046 205 185 144
0.04721524447867528 0.06330324275745783 -0.26163219445386937 207 188 146
0.047499460318890754 0.06505628823750978 -0.26270163778107974 222 203 160
0.04774359701908918 0.06644100073040263 -0.26386744548070373 222 202 159
0.0479792090010953 0.0677482551573004 -0.2650519430036562 224 205 162
0.04830348336734224 0.06987738074774277 -0.26600887571110904 223 204 160
0.048538112588534535 0.07117873104757756 -0.26718935381189446 214 193 149
0.04877294315035872 0.07248319345804376 -0.26836677299675665 223 205 160
0.04902346704106976 0.0739345322412933 -0.26950104714639317 237 224 181
0.04929772538016078 0.0756078057355288 -0.27057047682644786 239 227 184
0.04944291376344901 0.0760832465132025 -0.27197403326225505 230 214 174
0.04973554038469895 0.07793016537860539 -0.27298942591404524 213 193 151
0.049951574297712874 0.07906611867696503 -0.27420339717572195 223 203 160
0.05006590478716571 0.07925526098657551 -0.2756866771254654 232 216 173
0.05035586194894623 0.08108185669723483 -0.27669989783876375 226 205 164
0.05058923063686576 0.08238236205956165 -0.2778614909887393 212 192 149
0.05086426269085044 0.08407341598629045 -0.27890728681977944 225 208 169
0.051138091897783074 0.08575517548725187 -0.279952383348262 225 209 173
0.051339776798894746 0.086763633695915 -0.28119192810925897 205 188 147
0.051600185026483114 0.08832297319496221 -0.2822674145601455 221 202 160
0.0519315323654908 0.0905491746011663 -0.28314188894053627 222 203 160
0.05222366335523897 0.09241027273662203 -0.2841202432101054 224 205 163
0.05248761766351249 0.09400900068806567 -0.28517332825620795 232 215 175
0.052813159732098304 0.09618851744759457 -0.2860481562851532 241 228 190
0.052978852837311165 0.09686687041956944 -0.2873728820325747 242 228 188
0.05319755913588704 0.09804466979297964 -0.28854515218546417 237 222 180
0.053403229950734044 0.0991006927046911 -0.289752801704095 235 219 176
0.05355441282873268 0.09964355660382279 -0.2911167781234949 232 217 174
0.05374593748573778 0.1005673096148337 -0.29236306146747965 230 216 171
0.05370889650225053 0.09933159540921915 -0.29427912553336977 231 216 173
0.05416879873466024 0.10279334518697207 -0.2947340874115733 235 220 177
0.05435976149832432 0.1037140625010108 -0.29597737885538883 238 224 179
0.054634373430793304 0.10542809331215455 -0.29696941795097326 236 220 177
0.05489443799154189 0.10700621963371676 -0.29800094814467615 239 222 179
0.05509118012768202 0.10798505114110181 -0.29922013874071196 234 217 174
0.05526592746338892 0.10875565290322148 -0.3005046491760354 239 222 178
0.05551706051906653 0.11025308522834332 -0.30155482182473464 231 213 163
0.055842656273736246 0.11246101591328309 -0.3023725445359866 228 210 158
0.05600759550311266 0.11314128750477716 -0.3036810294935832 221 201 148
0.056196100149712776 0.11404650668066844 -0.3049157581549652 217 197 146
0.0564236200230715 0.1153247532967422 -0.3060271481525774 222 202 151
0.05664203627983759 0.11651734519909407 -0.30716448977572997 215 195 142
0.05690249472886037 0.11811311808870097 -0.30816644928955506 206 184 134
0.05706212978654614 0.11874581630191408 -0.3094852942408568 184 161 111
0.0570890123527238 0.11810691885885147 -0.3112285828933141 179 157 108
0.05735861629197265 0.11979317942231225 -0.3121954129859347 180 159 109
0.05763290599840523 0.12152649464934512 -0.3131428309551063 184 164 115
0.057833575801521576 0.12255477288227326 -0.3143253334377884 172 150 104
0.058057282973176666 0.12380543617886217 -0.3154306754795187 146 124 81
0.05822899045600652 0.12455694252137443 -0.3167044528173828 149 129 89
0.058422652107265056 0.12552030141927603 -0.3179048530890251 140 122 84
0.05861855727504022 0.1265060554355226 -0.3190962331486467 123 104 69
0.05869674142003442 0.12635649433815 -0.3206797131944527 122 103 71
0.05884328203925903 0.12686594296804285 -0.3220359797621648 110 91 60
0.0590283014590335 0.12774736242165535 -0.3232622935190776 111 92 60
0.059191425849778684 0.12841749513519296 -0.32456179661130224 123 104 71
0.059440520885758005 0.12992066411886682 -0.32556694196289077 132 113 80
0.05958950545304631 0.13045491820014124 -0.32691254662653524 140 118 82
0.059739339453995684 0.13099738190587143 -0.32825528614233296 155 138 95
0.059924431924665296 0.1318823516063869 -0.329475549415544 158 143 106
0.06012194550496381 0.13288873350442776 -0.3306511319082012 125 105 68
0.060368087122807716 0.13436928216079214 -0.3316541504591441 135 119 80
0.06041260660955334 0.13388731275311688 -0.33336555897543607 125 109 77
0.06050791823916241 0.1338986809054178 -0.33490066472185376 110 95 66
0.060607728536859855 0.13395292625156158 -0.3364218241357449 106 90 63
0.060822753684166536 0.1351319112449145 -0.33753148960210655 96 79 53
0.061165126083580844 0.13755752731243812 -0.3381792821600292 90 73 46
0.06126897186784042 0.13765176614163105 -0.3396848070854474 95 79 50
0.06144256428438132 0.1384285450233971 -0.34093782970857134 107 93 62
0.06159641342387723 0.13901211505181704 -0.34226233113110627 94 79 55
0.061838772315209116 0.14046470125565358 -0.34326056548800177 85 69 50
0.06216795017980395 0.1427722188890874 -0.3439336314035743 76 60 40
0.06228163215549854 0.14296338631540034 -0.3454021758640833 78 63 42
0.06240573922674735 0.1432565027697399 -0.3468331232142417 82 68 46
0.06246218596123514 0.14288226322841857 -0.34851969745837835 75 63 41
0.0627092557371955 0.1443868153779869 -0.34948890811131056 70 55 35
0.06276740608133087 0.1440276155574441 -0.3511726447378171 72 57 38
0.06286915899479366 0.14409763626705882 -0.35269337298747644 82 67 48
0.06295779493703577 0.1440369213190524 -0.3542664309589227 72 58 39
0.06314050326079429 0.1449067336333876 -0.3554786454722316 67 53 36
0.06319539442675713 0.14450996440078948 -0.35718576219994685 65 52 35
0.06329661961736517 0.14457113774939634 -0.3587159168323247 68 54 37
0.06341119734100792 0.14476397931840462 -0.36019569003716484 71 58 41
0.06355466548401836 0.14524338710274926 -0.36156302598465756 80 67 49
0.06360965427611154 0.14484194658771898 -0.36328127134065485 76 63 45
0.06390190225438426 0.14680258297636672 -0.3640584149371097 67 53 36
0.06407930777555956 0.14762063623756103 -0.36528955335313285 62 48 31
0.06413527713688456 0.14722683794361838 -0.3670082354469698 60 47 30
0.06430177400077361 0.14793572329196478 -0.3682837962109203 59 46 30
0.06440394362618594 0.14800140319632965 -0.3698201956146514 60 47 31
0.06452693047836859 0.1482745622039976 -0.37127355415748364 60 47 31
0.06465937135090993 0.14864192309978166 -0.3726892481788244 57 44 28
0.06472065555630731 0.14829489913267488 -0.3743993753573575 57 44 29
0.06479728546714641 0.14810018351008833 -0.37604958921798576 58 44 31
0.06486000465776127 0.1477640724409877 -0.37776090831253273 53 39 26
0.06505082539684502 0.14871549023987057 -0.37893922857087137 53 39 26
0.06509148255321698 0.14815476903656152 -0.38074819500825463 52 38 25
0.06549670825568636 0.15126869023280853 -0.3810190177491198 52 38 25
0.06561638191243911 0.15150492013426056 -0.38249356658989897 54 40 27
0.06560648473332165 0.15043098840220573 -0.38452327774894063 53 39 26
0.06580739330724536 0.1514864027570941 -0.3856543085276699 50 36 23
0.06595197415180623 0.15197240009590865 -0.38702638965070146 50 36 23
0.06613522280035862 0.15285026778658795 -0.38823099998625515 54 40 27
0.06622671794311934 0.15279764960676182 -0.3898342819363652 49 35 23
0.06631850458836973 0.1527467276245268 -0.3914388684704096 48 34 20
0.06669401637282008 0.15557993692848865 -0.39179671795658255 50 34 20
0.06675447065009694 0.15521052643092081 -0.39353895938584166 56 40 24
0.06668692873821465 0.15353476560683516 -0.39585433036286577 58 40 26
0.06696074292384221 0.15533674286996263 -0.39665385813937143 56 38 24
0.06708762297443473 0.15564078333417167 -0.39810785035980145 54 38 23
0.06714557901782897 0.1552396634671817 -0.399873954668643 51 35 20
0.06706827180403391 0.1534522170348806 -0.40225757911473825 49 33 18
0.06726888780548487 0.15450711863538807 -0.4033848728146672 49 33 18
0.0674658473092593 0.15552557994525543 -0.4045267464634495 51 35 20
0.06779992654440882 0.15795281218207272 -0.40503565129830127 53 37 22
0.0678718507932247 0.15768966636398232 -0.4067485721288784 55 38 22
0.06808949620791901 0.15892406598465975 -0.4077879956220158 61 43 26
0.06830553295955617 0.1601433545465845 -0.40883195464509203 66 48 28
0.0683027613216488 0.15910795166454272 -0.4108995411959918 68 50 29
0.06840995445423051 0.15920418258252722 -0.41245572866096225 64 46 26
0.06851123421315203 0.15923831630240917 -0.4140419540564812 63 45 25
0.06860362070994934 0.15917932401905657 -0.41567281661847444 64 46 26
0.06865260898600441 0.15866957911183563 -0.41751396817638836 65 47 26
0.06867417023945457 0.15787317961528713 -0.41949166324165654 67 48 27
0.06871857280236542 0.15731087951618766 -0.42136508745257417 72 51 30
0.06885202651466604 0.15767133340843967 -0.42281143579109826 74 56 32
0.06901972819533382 0.15838756474155644 -0.42409170416061487 76 59 34
0.0690197199713386 0.15735788232059025 -0.42619279784685554 79 62 36
0.06899185286378651 0.15603430623916367 -0.42843814675692177 86 69 41
0.06907892148100392 0.15590596863568393 -0.43012357424957764 89 72 44
0.06922017985952866 0.1563422213141304 -0.43154284624425077 93 76 48
0.06928647583673715 0.15599420536849562 -0.4333369380285123 96 79 50
0.06946130816125133 0.1567805540970119 -0.43459070384472664 100 84 51
0.06968166511042544 0.15804458063841323 -0.43561400139401824 98 82 49
0.06983620174770967 0.15861949337733225 -0.43696740966460684 100 84 51
0.06976951646359947 0.15687045962312715 -0.43944631102060544 104 88 55
0.06992078663994784 0.15740847472588676 -0.4408216094584859 106 90 57
0.06988496165605963 0.15597654981743383 -0.44315795324584667 108 92 59
0.06998808316672325 0.15600471698374466 -0.4447864661783913 105 89 56
0.07009758400622468 0.156098992734212 -0.4463843734864721 105 89 56
0.0701797649093018 0.1559035836900677 -0.4481267587231707 108 92 59
0.07026117486416597 0.15569829681047143 -0.4498766965567554 110 94 61
0.07038900344613741 0.15598276237158745 -0.4513861425117723 110 94 61
0.07046251367324348 0.1556907819864352 -0.45318383485401365 108 92 59
0.07057851234205999 0.15584775885041363 -0.4547600274467652 108 91 58
0.07080364932519151 0.1571633759856262 -0.4557561978182891 108 89 57
0.07079277778029187 0.15597028257814385 -0.45801314656474534 107 90 53
0.07089818564535372 0.1560114330115823 -0.4596525460217933 110 95 59
0.07091904492865514 0.15514995151858282 -0.4617515741767238 110 95 63
0.07094071399465954 0.15429381048509264 -0.46385294388781134 119 104 74
0.07100606928118239 0.15390121077078156 -0.46572263594126545 117 104 75
0.0710328603326122 0.15309379184465663 -0.46780832282990326 117 106 75
0.07109267661455983 0.15263690393011933 -0.46971864467054875 121 107 73
0.07113408840374039 0.1519802557550816 -0.4717357030307213 126 109 74
0.0711759160806443 0.1513252005656594 -0.47375631024020826 133 115 79
0.07124322396786362 0.15094114892244356 -0.4756404828000714 122 104 66
0.07126740096512818 0.15009070065692504 -0.47777123912689473 122 104 66
0.0713008886425554 0.1493372120190234 -0.4798563597824468 126 107 74
0.07130499385197997 0.14826364554723165 -0.48211425861420026 119 103 77
0.07134101996267665 0.14753090817836428 -0.48419853535188684 118 105 85
0.07154752095539897 0.1486383041345523 -0.48531492318438163 129 117 105
0.07147288100834413 0.14670354526406 -0.4880427703843567 152 143 135
0.07149238026638545 0.1457830927914474 -0.4902399022239381 183 179 174
0.07140789303784598 0.14373069064178887 -0.49304682012223083 199 199 198
0.07144089426459263 0.14294839048997687 -0.4951827819216073 210 212 211
0.07135067681615273 0.14082254861309437 -0.4980458784418149 214 216 217
0.07142382972104885 0.14046933272305084 -0.4999626893515329 216 217 220
0.07143713422552281 0.13946130684472244 -0.5022372468700862 217 218 221
0.0714418612712062 0.13835579381583607 -0.5045705044078075 217 218 219
0.0715040473156411 0.13787419906013637 -0.5065699890246081 217 218 220
0.07136597872123068 0.13519859997047798 -0.5097726054840379 217 218 220
0.07131418426431833 0.1334603094519955 -0.5124730422202143 217 218 220
0.10081280464405312 0.19471941089814657 -0.8697540411845788 213 212 210
0.1011695813320743 0.1982022891777849 -0.8684798286538944 213 212 210
0.10156162946619846 0.20224542727327224 -0.8666389912843814 213 212 210
0.10168727172341102 0.20216092765471338 -0.8688656229671208 213 212 210
0.041508182763099026 0.022180011062884704 -0.22679736779198587 170 165 152
0.041894183385071414 0.023955633507642612 -0.2294992043599171 170 162 149
0.04228618634166485 0.02666481938085944 -0.23043017961569812 168 159 146
0.04239440523397834 0.026779078215323535 -0.23195518272915863 167 158 145
0.04272177456588919 0.028900818280433165 -0.23301431714501236 166 156 142
0.043080069645228196 0.03130871966510056 -0.2340019616069052 163 153 135
0.04325321701737369 0.03202017381723556 -0.23538407410725282 154 142 120
0.04360494580452659 0.034372379216608004 -0.23637676609483987 141 129 109
0.0440054690085156 0.037176135393299996 -0.23725656660391806 137 124 105
0.044275525264098566 0.038783055466716954 -0.23841715727461227 141 129 108
0.04451731891012775 0.040131400322901786 -0.23963719121642865 156 146 122
0.04476963004767216 0.04157796494646845 -0.24083111210413122 165 156 132
0.044966115410707365 0.042510998043460514 -0.24214801205780206 134 120 101
0.045124544515595194 0.04309327041983597 -0.24355012292627806 123 105 83
0.0452863845082259 0.04370706568860569 -0.2449444262980939 177 159 126
0.04533331670227802 0.043258259841055184 -0.24660303578919573 215 199 161
0.045446426414179654 0.04342024582964383 -0.24811178722164043 214 200 159
0.0456288111052174 0.04422325768883477 -0.24946037324669726 216 201 160
0.04585325155253899 0.045416559121269066 -0.25070945855756027 201 181 142
0.04596026207655426 0.045521247052192175 -0.2522340326115388 184 163 123
0.04613438356330902 0.0462483921809544 -0.2536005314847962 178 158 117
0.04632502892783158 0.04712937604733042 -0.2549269508428303 170 151 110
0.046617678536949814 0.04895979991734451 -0.2560064106562518 188 169 129
0.04693419688259036 0.051014592345058035 -0.25702367622683553 196 179 139
0.04723520378824672 0.05292735972951483 -0.25807378741412657 198 179 138
0.04745973882483732 0.05412918382688129 -0.2593073510479902 195 176 136
0.047792515896632415 0.056342482693054426 -0.2602709000284503 189 170 133
0.048170077102604895 0.05897699750225727 -0.261117274687513 180 160 123
0.048457105409124526 0.06076850793902937 -0.2621835121204718 184 164 127
0.04876050667279459 0.06271534844473092 -0.2632042401711103 194 175 136
0.04903384989528276 0.06438301168680102 -0.26429654341088177 204 185 142
0.049441474171230224 0.06731145351074802 -0.26504190907113306 213 194 149
0.049739072535119534 0.06921159653458955 -0.2660620484667613 214 193 148
0.05001054121516802 0.07086865878420305 -0.26714518884697813 214 193 146
0.05026187517432634 0.07233835836299614 -0.26827698026818747 222 201 155
0.05053323983027204 0.07399807048490448 -0.2693531323975031 231 214 170
0.05080069583234296 0.07562288603668785 -0.27043577689435205 222 206 164
0.05091356958501005 0.07579274797325944 -0.2719249443722146 210 189 150
0.051112819545831994 0.076776646334186 -0.27318485850445073 203 180 139
0.05133049638393435 0.07793523846438978 -0.27439379805581415 212 190 148
0.05155932131813098 0.07920021012106658 -0.2755705149866022 225 207 163
0.05174912140834311 0.08009734063198107 -0.27685092643592835 226 205 162
0.052098935415865896 0.08250970543435476 -0.2776922069612664 227 209 167
0.05235651094574319 0.08405146247129365 -0.27878094840856255 235 221 180
0.05265523055738431 0.08598510411827295 -0.27975222404482764 232 218 179
0.05284894075803896 0.08692453744311798 -0.28101134631000146 218 201 159
0.053041956866038735 0.08785804546088485 -0.2822710780460528 219 201 156
0.05343288573597728 0.09067395883082863 -0.2829710788655312 223 205 160
0.05362908454331932 0.09164076196676847 -0.2842157590550465 224 206 161
0.05391432039636711 0.09345636865946251 -0.28520473218925024 235 218 175
0.05427060341864845 0.09595156227144207 -0.28598509413981965 244 231 190
0.0544832692762014 0.09707981983902275 -0.287173534402184 239 226 184
0.05462930316977916 0.09757271363757972 -0.2885536387908312 239 222 180
0.05481959439893995 0.09848855925232314 -0.28980455869559274 231 212 168
0.05499448788923541 0.0992577213318074 -0.2910994886707227 226 207 161
0.05514175220573844 0.09976266329134637 -0.29247542233708906 238 221 177
0.05527508690640068 0.10013398139549462 -0.293893023063904 236 219 176
0.0556426939137652 0.1027526216772218 -0.2946098600379761 234 217 174
0.05575196282108489 0.10289419752567677 -0.29609721493319435 233 216 172
0.055933889748646465 0.10373338324363374 -0.29736599662744545 233 216 173
0.05633488912048036 0.1066806988491628 -0.29796624063287386 233 215 172
0.05658454644840442 0.10817505983915925 -0.29902151369175595 224 207 161
0.05669668377935322 0.10834567847383308 -0.30049723354843555 230 213 165
0.0568749751140515 0.10915378707012836 -0.30176928946533815 223 204 153
0.057117361445963286 0.11058127202663005 -0.30284056268115256 222 202 151
0.05737239539334635 0.11213261075086715 -0.30386894518081137 217 195 145
0.057558756342896804 0.11302144538182221 -0.3051102273987079 217 196 144
0.05769707448131312 0.11344569329811982 -0.30650266639613 224 205 154
0.057970610378488545 0.11518024746354602 -0.3074642383639071 207 188 136
0.05826019225551456 0.11707266987834287 -0.3083699233358755 185 159 114
0.05848017977042268 0.1182918129001837 -0.3094951398321245 169 145 100
0.05858632790128174 0.118405747749357 -0.3109872354156506 182 159 112
0.05878015249634608 0.11937182039488481 -0.3121949042236174 176 155 107
0.059041244080445164 0.12099369712200075 -0.31318029671149583 183 162 113
0.05922698506361715 0.12188315107649916 -0.3144102933158926 173 152 104
0.059409522056392876 0.12274198084596263 -0.315649651727103 154 134 90
0.05961830786134581 0.12385771980502028 -0.31680026793900307 151 132 89
0.05978606254628124 0.124573459196498 -0.31808641906731777 134 116 78
0.05994667413702508 0.12521961916187163 -0.3193960526301255 123 105 68
0.06017707508994017 0.12654942910990372 -0.3204685622789215 121 102 69
0.06037057037610872 0.12751894769972716 -0.32166399919091065 114 95 63
0.060495912353102026 0.12782053507156613 -0.3230916172264137 121 103 69
0.06062658544081627 0.12817399956761402 -0.3245018139349166 128 109 75
0.06086941306843804 0.1296296735073421 -0.3255238300114162 124 105 70
0.06103877144586727 0.1303641144803071 -0.32679854513222417 136 114 77
0.061195280621898045 0.13097234224877946 -0.3281176057516663 154 137 94
0.0612727137542572 0.13080102293650608 -0.32971520028896983 149 134 99
0.06154978750334662 0.13259857832013872 -0.3306080317979141 126 105 71
0.06176486890057541 0.13378614967595837 -0.3317169237970771 133 113 79
0.06192931586841076 0.13447426826813746 -0.3330047458950373 117 97 69
0.06202007756189813 0.1344333142449686 -0.33455745414713334 113 95 69
0.06215532262183305 0.13483192845644068 -0.33595139002049823 111 94 68
0.062436035215845925 0.13667290772085397 -0.33681629326347223 102 85 59
0.06266292386577632 0.13798210093093854 -0.33787314302676796 98 81 55
0.0627686247701746 0.13808854762221912 -0.3393729758229276 98 81 53
0.0628846044846904 0.13829635757427758 -0.3408365374764816 99 84 56
0.06296140858856687 0.13811343051751357 -0.34244716678384346 88 72 49
0.06318800860030249 0.13942198953261795 -0.3435006083517223 77 60 41
0.06353052351789196 0.14188846838377805 -0.3441153240383404 74 58 38
0.06362945967317085 0.1419262983850223 -0.3456428436938459 77 62 42
0.0638379690520462 0.14305843472352164 -0.34675616821304356 78 64 44
0.06404365069938527 0.1441634394271572 -0.34787796282004524 78 66 45
0.06419983762825239 0.14477379979054625 -0.34918753408136444 73 58 41
0.06414746491307628 0.14329317527446533 -0.35130169030673003 69 53 37
0.06430962774926267 0.14396165092197558 -0.3525918059068827 75 59 43
0.06449326019720775 0.14484606103382275 -0.3537977276424127 71 57 40
0.06469361911479941 0.14589936027729875 -0.3549367358747323 73 61 43
0.06479721419173405 0.1459795571028216 -0.3564549724381171 84 71 54
0.06487554343431556 0.14580418926639266 -0.3580751894615473 74 62 45
0.06497987186706851 0.14588960937759413 -0.35959485759232035 72 59 42
0.06513875006602206 0.1465249099651227 -0.3608981326319703 72 60 43
0.06525071167636438 0.14668614492189913 -0.36238978241338576 75 62 45
0.06546022601917575 0.14783366231002268 -0.3634886133922295 71 59 42
0.06563925979140121 0.14867367072616713 -0.36470886640298045 64 53 35
0.06584408050833841 0.14977573382609882 -0.36582259634069836 60 47 30
0.06598589375456126 0.15023942544490135 -0.3671927424899338 61 46 30
0.06591198958873803 0.14851120374340188 -0.3694534498588506 61 47 31
0.06593796963379076 0.14779415572918636 -0.371309309914483 56 43 27
0.06612683152656652 0.14873281953481704 -0.37249140718413576 54 41 25
0.0662058517811303 0.148552792995295 -0.37413214417147117 56 43 28
0.06621462218444239 0.1476545135598456 -0.37607178592078006 56 42 29
0.0662089749436521 0.14660595061837128 -0.37807852357473926 49 35 22
0.06624637847255442 0.14599417616099325 -0.3799088366801785 49 35 22
0.06654918272583166 0.14809622285601232 -0.3806093118154689 49 35 22
0.06702060108151663 0.1519290369724964 -0.38057872143363164 49 35 22
0.06695060174869777 0.1502158916046562 -0.38287253621979134 51 37 24
0.06695491126197009 0.14926088685488065 -0.38485340244110305 52 38 25
0.06711652761642604 0.14991946677286383 -0.3861544645843776 50 36 23
0.067385448372159 0.15168229930441307 -0.386984663042948 50 36 23
0.06759716801505632 0.15285854541080823 -0.38806174180808906 51 37 24
0.06759064988288394 0.15178592941441305 -0.3901024988919526 47 33 21
0.06774772664901663 0.15239842094650327 -0.39142222498451207 46 32 20
0.0677974156682678 0.15190142068183848 -0.3932219481576879 49 33 20
0.0678455965210219 0.1513865620825797 -0.39503296790140646 56 40 25
0.06793979751019512 0.15134593971903068 -0.39664074486740436 59 41 27
0.06839807543689408 0.15507811731704682 -0.3965985999948333 56 39 24
0.06849886552498223 0.15510737143588976 -0.3981733228273818 55 39 24
0.06856272880498933 0.15475186901057988 -0.39991958691052437 52 36 21
0.06872502523247008 0.15541808501162444 -0.40121638901630674 52 36 21
0.0689082888083246 0.15630283580841378 -0.40241565159481535 53 37 22
0.06900796137435963 0.1563170719798713 -0.4040023174158303 53 37 22
0.06922488812501061 0.15755355167021917 -0.40504324356703436 53 37 22
0.06910391650289262 0.1552620418606537 -0.40766842144024507 55 38 22
0.06931832794113753 0.15647133587269543 -0.40872298844901045 58 40 22
0.06964844638357195 0.15889333036706974 -0.40922584065187717 60 42 23
0.06971886146373453 0.15859777042754045 -0.41095832482288186 62 44 25
0.06986845771735406 0.15913105908065792 -0.41231532283567696 63 44 25
0.0699666252854282 0.15912413573394973 -0.41391994247479 61 43 24
0.07007231954896888 0.1591951042240933 -0.41549066205802154 61 43 23
0.070165715356371 0.1591355329141707 -0.41712330956785487 62 44 23
0.07021210497547654 0.15857922412740333 -0.4189882478667384 66 46 25
0.070296300465287 0.158419279047415 -0.42067266301092904 72 51 30
0.07048072294301735 0.15931630946154857 -0.42186613273701323 76 58 34
0.07052328718565039 0.15871413152246516 -0.4237608697959079 79 61 36
0.07054970516745043 0.15793842285394263 -0.42574121057273157 79 62 36
0.0705090829642743 0.15644923832167548 -0.42806290826806614 82 65 38
0.07052130779435549 0.15551610353648113 -0.4301282756283867 87 70 42
0.07061235133549715 0.15541676301891816 -0.4318023866279284 92 75 47
0.07067670566033955 0.155032116139321 -0.4336149280153125 98 81 52
0.07099488920072719 0.1573475279455258 -0.4341376595091479 100 84 51
0.0710670779324237 0.15704514216335036 -0.43591254397796314 96 80 47
0.07117138263731475 0.15708346197876388 -0.43752607864442866 101 85 52
0.07116096434730708 0.1558950639197233 -0.4397353233841897 104 88 55
0.07137817990029215 0.1571371123457223 -0.4407697860243811 106 90 57
0.07137342194745878 0.15600405268000062 -0.44296001817272923 106 90 57
0.07137877773484998 0.15497548742269357 -0.4451050386392295 105 89 56
0.0713826412210548 0.15392721884470087 -0.44726530471534764 103 87 54
0.07142524249011084 0.15329141426726703 -0.44922793106324405 106 90 57
0.07140346962431539 0.15196035610908856 -0.45153865250595665 110 94 61
0.07135847728004975 0.15037481370986483 -0.45398235277491067 109 93 60
0.07141517437063304 0.14988064260626435 -0.45588997754274047 106 90 57
0.07233375338705028 0.15868760192495368 -0.4531518261559074 106 87 55
0.0723194294573654 0.15743182481889426 -0.4554326118496063 101 81 49
0.07231866390155052 0.15631846175580547 -0.4576481248681867 110 94 62
0.07236245044548294 0.1556837558077195 -0.4596277596782541 117 103 73
0.07235933640008001 0.15453754488395852 -0.46187094727927613 111 98 70
0.07236035255925974 0.15343211684345598 -0.4640994537213997 110 98 68
0.07242763490614534 0.15304310974874094 -0.4659681676156431 106 95 65
0.07243848951838716 0.1520376436666644 -0.4681560712136048 102 92 65
0.07244936751455436 0.15102866849814478 -0.4703513756696925 98 85 58
0.07248909590999547 0.1503306769572341 -0.4723918887978856 110 96 68
0.0725225364207044 0.14956095173240117 -0.4744740535050262 112 100 72
0.07255241915371176 0.1487490863140395 -0.47658289139017584 108 95 71
0.07257038973158521 0.14780344387833858 -0.47876639495426776 113 101 78
0.07259010919740425 0.14687329908864083 -0.4809472266465069 133 123 107
0.07270864528148435 0.14702414520500506 -0.48256620190928695 169 163 152
0.07267489082190404 0.145500341838039 -0.48506846334373244 188 185 180
0.0726787722473319 0.1443855307767316 -0.4873621763513738 198 197 193
0.07269671057330958 0.14342144416107422 -0.4895820654002582 205 204 203
0.07262821715167436 0.14150024492239935 -0.49231661343253225 210 210 211
0.07261986640916562 0.14023709271220863 -0.4947089503030395 212 214 213
0.07270739049416608 0.1400294965900128 -0.49654265709778694 216 217 217
0.07263832452338888 0.1380863942132025 -0.49931175693854163 217 217 218
0.07278042476089214 0.1384776916903139 -0.5008314194823931 217 217 218
0.07280658247585997 0.13758176945763578 -0.5030480986181914 217 218 220
0.07281080014743513 0.13643837476731532 -0.5054044582290762 217 218 220
0.07287783153391811 0.13598952322413063 -0.5073888584024364 217 218 220
0.0726800381546154 0.13258804269167937 -0.5109903011579411 217 218 220
0.07277936054453707 0.13249047613806603 -0.5127950177083944 217 218 220
0.0431578138324088 0.022224105962339015 -0.22822033157030297 175 175 174
0.04458229219194797 0.02916039538724951 -0.23749025120021583 175 174 172
0.044871870208448794 0.03095615937640158 -0.23861787417156988 174 172 170
0.045741913340795345 0.0381674779715284 -0.23844266861249025 172 170 165
0.04595537724426757 0.03926150312396224 -0.23972468003980932 169 165 157
0.04620072048786048 0.04065422013232788 -0.24093265207122727 163 159 150
0.04633503578103013 0.04101021474326723 -0.24239152268334374 152 146 138
0.046633144738317686 0.04289860309288829 -0.24347442421992657 143 135 123
0.046712370603337175 0.04273917829496179 -0.24505979091901367 156 147 128
0.046796836643699206 0.04262760836250467 -0.2466354257774311 168 157 133
0.046891358907718644 0.042609199096321784 -0.24818978630002733 161 149 122
0.04669668210149279 0.03987413732730592 -0.2504295760984284 162 146 118
0.04686638535428912 0.040557890181634956 -0.25181372954653364 153 134 105
0.047073576826590253 0.04159444771031471 -0.25310775462317814 164 142 112
0.047278529260613204 0.04261071378951437 -0.2544056316025696 169 151 117
0.04750210635770847 0.04380322924573918 -0.2556568259548347 185 168 132
0.0477969999676883 0.04566938639902848 -0.2567317038658278 194 178 142
0.048115096202600904 0.047756795765046885 -0.25774512693376767 186 170 135
0.04838730825903356 0.049413353178431124 -0.25886696479584687 194 179 142
0.0486798329844621 0.05126386432683915 -0.2599344937077623 197 181 146
0.0489028409804658 0.05245870525874321 -0.2611719839865439 193 177 142
0.049268295758799756 0.05500391710848187 -0.26204779156611246 177 159 124
0.049699192618543914 0.05817301964921809 -0.26275054758334154 165 147 113
0.04997497076733284 0.05987478591158221 -0.2638409561147407 170 151 116
0.05030356621926323 0.06208016506786808 -0.26479153989449034 173 152 113
0.050700840842234016 0.06494127647458112 -0.26555858753308165 190 169 126
0.05103874022979837 0.06724154199670339 -0.26647242739320826 193 170 127
0.05130313622455876 0.06884493590139035 -0.2675730392381359 188 164 121
0.05157413911866298 0.07051313912087645 -0.2686526038859726 200 177 134
0.051852118223632865 0.07224985133714204 -0.26970979379329096 209 188 145
0.05218765070452956 0.07453817659208065 -0.27060904503274624 192 171 130
0.052293042688797337 0.07463020343109371 -0.27212129995469386 180 156 119
0.05257805241031473 0.07643946464236413 -0.27314906172169306 193 169 130
0.05278939977625801 0.07754572431250556 -0.27437307030119573 206 185 142
0.05304417046418296 0.0790690579651361 -0.2754761723594734 209 190 145
0.05332429866477691 0.08083732558225307 -0.2765059635829087 219 199 157
0.05356217004479811 0.08220210875339067 -0.27764873257570244 227 208 168
0.05381429527142134 0.083705298351428 -0.27874886926062314 233 219 179
0.05409861008925358 0.08551976717040581 -0.2797552509710659 235 221 181
0.05434510654021201 0.08697246957611905 -0.280864042857018 232 215 172
0.05457981586070946 0.08831322521455487 -0.2820031689121034 227 210 165
0.05483766618233362 0.08987856361980145 -0.2830733151023853 223 204 158
0.055076995817944764 0.09126696657875655 -0.28419316022643204 223 204 157
0.055284523513055 0.09234963528598533 -0.28540210653089637 234 216 170
0.0555949716027658 0.09442852242071235 -0.2863094056721443 233 220 175
0.05546847076021379 0.09228091932228769 -0.28849154297571694 235 220 175
0.05572312495008187 0.09382096741108181 -0.2895599767840696 223 205 158
0.05628200806611205 0.09831294356978794 -0.28972273701970747 224 203 157
0.05649873899827522 0.09949126784405095 -0.29089181263626335 218 197 151
0.05678839489313933 0.1013792104028328 -0.29183981390974356 236 217 170
0.05705360097461849 0.10303187345562366 -0.2928567617300656 239 220 176
0.057106190452625195 0.10261714097283742 -0.29451525298872894 233 214 169
0.057368784395203376 0.1042465102658549 -0.2955359510125577 229 210 165
0.05778896206956269 0.10741454908927775 -0.29606862028320596 227 207 163
0.05793169474549716 0.10787946651508915 -0.29744896467267556 223 204 159
0.05808763892234374 0.10847328290632885 -0.29878858988411283 223 205 158
0.05811556868949185 0.10781531857906983 -0.30052826033114705 233 216 167
0.058346107896700916 0.1091382411629755 -0.301635397069671 231 211 160
0.05852943572338889 0.11000005948660872 -0.3028889917993097 229 208 160
0.058751609867694315 0.11124341207321398 -0.3040178990962628 212 191 142
0.058985049203806976 0.11259864913396667 -0.3051082109592931 217 197 146
0.059166574983583124 0.11344533268273577 -0.3063625582292402 221 203 151
0.05942255302487395 0.11502479591784935 -0.30737491571921904 189 168 119
0.05972035872258533 0.11701797856536875 -0.3082473190787001 162 134 93
0.0598805196476923 0.11765760863567848 -0.3095647791448245 163 139 96
0.05998276366336144 0.11772615742255947 -0.31107253927104556 185 163 120
0.06018911550009125 0.11882158965612177 -0.3122375541084683 177 157 111
0.06038590001083901 0.11982351800823611 -0.3134323695224133 188 167 119
0.060523150917297895 0.1202374197616804 -0.31482476734188486 174 152 106
0.060788423811550696 0.1219186352120638 -0.31578676286883256 157 135 92
0.06099712789227861 0.12304138811213151 -0.3169359514242514 150 130 88
0.061199597603961146 0.12410339879219447 -0.31810419039738896 137 119 81
0.0614250014689238 0.12539414229963955 -0.3191919838287866 128 110 74
0.061595055431169166 0.12613615061831088 -0.32046746170005 118 99 66
0.06176199623207218 0.12684755362432232 -0.3217529889533693 120 101 68
0.06193773162268289 0.12764685658389668 -0.3230072997816902 134 117 80
0.06214731254802413 0.12878405855773026 -0.3241422204703208 136 119 81
0.062316491037525075 0.12951923318945108 -0.3254170453474632 123 103 69
0.062405634881577764 0.1294553077481431 -0.32697432822110006 133 109 74
0.06249517334089415 0.12939410778760205 -0.32853260156130704 154 137 97
0.06263879918735799 0.1298730362047804 -0.32989979991890195 143 124 88
0.06284742663498107 0.1310030476825649 -0.3310335148100219 127 105 73
0.06310586882781757 0.13263378376900722 -0.3319848445749721 134 114 83
0.06335319819856768 0.1341551137896698 -0.33297235404288134 113 93 65
0.06354365893978285 0.1351069257348254 -0.334163933955511 116 96 72
0.06352928430455912 0.13399914264953341 -0.3361067349931108 115 97 71
0.06376994247423597 0.13545592573191492 -0.33711374399458827 108 90 65
0.06393226037329444 0.13612493518516164 -0.3384082016981275 104 88 62
0.06409614620217799 0.13681000010853703 -0.3396963398336347 102 85 58
0.06430129258065377 0.13791204184723824 -0.34082902317177177 95 80 53
0.06442814985570322 0.13822372348029607 -0.3422550522497639 87 70 49
0.06459580223839514 0.13894776118103375 -0.34352721731835784 79 62 42
0.06482457503351656 0.1402913130649965 -0.3445655027783068 72 57 36
0.06497979049549406 0.1408905688587999 -0.3458827500229491 79 64 45
0.06510174415808641 0.14115228537960978 -0.34732805761234015 79 64 45
0.06525131340619698 0.14169401987713112 -0.34866748226584504 82 69 50
0.06545891650143879 0.14282604089805812 -0.3497808006568732 81 67 49
0.0656740052811149 0.1440354781673602 -0.35086244979605413 68 54 36
0.06576616109181786 0.14399325243884353 -0.35242553242524083 68 54 37
0.06591972436716984 0.14457635755635861 -0.35374793269953364 69 55 39
0.06607173582796375 0.14514367959870045 -0.3550763768960919 71 59 42
0.0664235126282771 0.14775352186884527 -0.3556056680347474 77 65 48
0.06650605308400595 0.1476119974924656 -0.35720915026657896 71 59 42
0.06662199077943885 0.14781121116918108 -0.35868047098691047 66 53 38
0.06665396114042743 0.1471484857077402 -0.3604943846500731 62 49 33
0.06685838871539822 0.14825386940173602 -0.36160896482664867 66 53 36
0.06700250929208586 0.14874058420146266 -0.36296883122890344 66 54 37
0.06702272015856076 0.14795228608375255 -0.36484025964706296 62 50 32
0.06709693659429451 0.1477174015478793 -0.36649323070535217 59 46 29
0.06722375073794981 0.14802316410164282 -0.36793018140226075 60 46 30
0.06716459147322629 0.14640889616578293 -0.3701474651525129 60 47 31
0.06753754225882858 0.14925475195360577 -0.37055375237925914 54 41 25
0.06755870452757426 0.14846680874206986 -0.3724397660388677 53 40 24
0.06769566429112155 0.1488750211007862 -0.37383865117381104 57 44 28
0.06791264369050677 0.1501123643871643 -0.37489591074399026 57 43 30
0.06802941500104084 0.1503113593383702 -0.37638105036061453 49 35 22
0.06816369615165277 0.15069148249130707 -0.3777920275923327 49 35 22
0.06827590245373907 0.15084168130349496 -0.3792995906973937 49 35 22
0.0684609360989824 0.15174915017605461 -0.3804910092567609 47 33 20
0.06836577384964239 0.1497373740245783 -0.38290999475157894 49 35 22
0.06830474510496541 0.14807614489997398 -0.3851893976405825 52 38 25
0.06850978257334417 0.14918888324979301 -0.38629934277210864 58 44 31
0.06884668460801506 0.15168151626015974 -0.386819699839871 56 42 29
0.06899395598409343 0.15219356872643122 -0.3881804575751373 49 35 23
0.06908157131751588 0.15208044573790383 -0.38980972449156015 44 30 19
0.06915344059475549 0.15180069131444318 -0.3915130385614861 42 28 17
0.06941480073771572 0.15350897144673462 -0.3923590803331303 45 30 17
0.06953192691438057 0.15370350493865687 -0.39385867415562337 50 35 22
0.06955154911693791 0.1528710872261786 -0.3958072186984546 53 37 24
0.0696606901483701 0.15297876488968004 -0.397348981645273 51 36 23
0.06997425361899766 0.15524161071420817 -0.39794535737796194 51 36 24
0.07002566785452646 0.15474014030181313 -0.39975516861233673 50 35 21
0.07009503715520413 0.15442612291888957 -0.40148555820335324 52 36 21
0.0701361665747879 0.15381130867911003 -0.40335257542949776 55 39 24
0.07028595725551084 0.1543451057873883 -0.4047111315121786 53 37 22
0.07059433871979807 0.15656094990765446 -0.40531649933800745 53 37 22
0.07078634657274395 0.1575448153026764 -0.406470034095102 56 38 23
0.07066223746539016 0.1551691969222217 -0.4091379991006009 58 39 23
0.07104090331515724 0.15813769205608763 -0.4093954403056175 59 39 23
0.07112510565727775 0.1579743020677519 -0.4110685207893855 60 41 25
0.07121599910539375 0.15788065290876924 -0.4127122300146662 60 41 25
0.071394171164783 0.1587175432145154 -0.4139319253533286 61 42 25
0.07136703618528956 0.15736017867381402 -0.4161594950795318 61 43 25
0.07145510977823578 0.15723152178617697 -0.4178266032482006 62 44 24
0.07167781286480428 0.15854388232765607 -0.4188285992693569 64 46 25
0.07180569135505273 0.15884074044902502 -0.420300117999754 70 51 29
0.07166354476048493 0.15623696824413114 -0.42312604378210195 76 57 33
0.07177276246723532 0.15632863912388253 -0.4247004467829519 78 59 34
0.0718575569507904 0.15615632230344312 -0.4264005545872346 77 60 34
0.07195475577379593 0.15611599392778924 -0.4280409162342783 81 64 36
0.07209173798077648 0.15650352001709217 -0.42948075241553957 88 71 42
0.07213276502008784 0.1558541197525533 -0.43141398981256335 92 75 46
0.07218732281323668 0.15534823028337091 -0.43328296464165683 94 77 48
0.07219053054628931 0.1542838587525356 -0.43542299557758435 92 75 45
0.0723369210496496 0.15476779141499575 -0.4368247811573875 94 77 46
0.07247538445929741 0.15516550760532846 -0.43826841375452125 104 87 56
0.0725387800064592 0.15474717829981388 -0.4401075322084372 106 90 58
0.07263105074489683 0.1546406498371408 -0.4417986355240668 105 90 57
0.07274674101537992 0.15478760518284834 -0.4433685232375741 105 90 57
0.07281402045512732 0.15440569114933322 -0.44519857167815724 105 90 56
0.07270750252506748 0.15212415750219296 -0.4479644772682031 105 89 55
0.07268245920658255 0.15072637300752953 -0.4503049556743689 107 89 58
0.07374040492838672 0.16117526346856398 -0.4467951270536421 108 91 59
0.07378812382616033 0.16057946144071178 -0.4487306802402397 107 89 57
0.07383511316703077 0.15997287925819811 -0.4506756679165678 106 89 56
0.07388222425812051 0.15936482259996723 -0.4526255043855331 101 84 51
0.07392944882164348 0.1587551900246998 -0.4545802557354175 103 85 53
0.07387916411356243 0.15706922617461264 -0.4570807661875735 118 103 75
0.07377320432221761 0.15476413168815667 -0.45990186775732056 118 105 80
0.07379406100350448 0.15385159650055757 -0.4620274471187297 105 93 70
0.07376621359191908 0.15239731116438637 -0.46443375138354853 101 89 63
0.0737974388614663 0.15159159862182175 -0.4665162661734382 99 88 62
0.07380556618223093 0.1505266809187981 -0.46873638833341896 83 74 53
0.07382005558128922 0.14952830752240587 -0.47092812652808147 89 78 62
0.07384807247087137 0.14867627796518895 -0.47304999074604326 118 111 99
0.07387343087037186 0.14779118303311414 -0.4751940345072093 146 141 132
0.07384238942058907 0.14627470123352038 -0.4776710771821679 165 161 154
0.07389432112982523 0.14567775604375008 -0.4796765406054827 188 183 180
0.07384352394375411 0.14393159289792434 -0.4822869424536558 198 197 196
0.0737877381734262 0.1421239157088915 -0.48493791926535634 204 205 204
0.07380440693836136 0.1411207926344539 -0.48717398273408913 206 207 208
0.07379542647927519 0.13982643181063908 -0.48956952869465403 206 207 209
0.07380283394674517 0.13871115293135125 -0.49187690700421244 207 207 210
0.07379876295455727 0.13746272454265662 -0.4942611813994081 209 209 212
0.07377962158491908 0.13604025295565444 -0.49674489919881104 213 213 214
0.07381291896188227 0.13520301058163614 -0.4989225644145515 215 216 218
0.07433750400035638 0.1350191595853904 -0.5077093195242549 217 218 220
0.07419903466297076 0.13221683163375586 -0.5109839159133404 217 218 220
0.04336899903015359 0.016097378652690043 -0.2186002954014416 178 178 180
0.04721478377289548 0.03852020004331511 -0.236692488175197 178 178 178
0.04731917440016938 0.03859070011016912 -0.23821899372281954 178 178 178
0.04746937699122305 0.03909379374823028 -0.23964261761153338 179 179 178
0.04769868297497662 0.040345889896828815 -0.2408846626100216 178 178 177
0.04787033807982461 0.04105270890479119 -0.24225789060675948 177 177 176
0.04805571779528528 0.04188995412663158 -0.24359870488427623 177 177 175
0.04814025289435396 0.04177011291521054 -0.24517528292555435 175 173 171
0.048300459455652964 0.04236818981665964 -0.2465754444662181 171 167 162
0.048360511831299385 0.04201364656049451 -0.24821376988693838 165 158 152
0.047770435950648775 0.03546808419255917 -0.25141212897503806 155 147 138
0.04794070061043351 0.03615495551830654 -0.25280159745810943 148 138 127
0.048193966364610145 0.03763359490894034 -0.2539892660971824 152 140 127
0.048432214801452135 0.03897047132421847 -0.2552105776020701 159 148 129
0.048692344586203376 0.04051773897389724 -0.2563754960370713 158 148 128
0.048983139457739244 0.04235995567674492 -0.2574611887917861 155 145 124
0.04929341279337621 0.04439084564443123 -0.25849401457690346 149 139 119
0.04960059272869843 0.04639468987380388 -0.2595296225088226 145 136 113
0.04988729977358981 0.048204783568330765 -0.2606120325199928 153 143 117
0.05013008766741442 0.04959560297732674 -0.26180183575634763 157 144 116
0.050510824090134465 0.0523129206544259 -0.26263590333644216 160 143 113
