ply
format ascii 1.0
element vertex 843
property float x
property float y
property float z
property float nx
property float ny
property float nz
property uchar diffuse_red
property uchar diffuse_green
property uchar diffuse_blue
property uchar class
property uchar detection
end_header
-0.0101 -0.0797 -0.7799 0.891 -0.433 0.133 178 160 116 0 0
-0.0099 -0.0800 -0.7840 0.741 -0.616 0.268 179 161 114 0 0
-0.0095 -0.0804 -0.7859 0.741 -0.616 0.268 178 160 113 0 0
-0.0116 -0.0818 -0.8250 0.876 -0.481 0.019 158 141 96 0 0
-0.0115 -0.0820 -0.8271 0.890 -0.447 -0.093 155 138 93 0 0
-0.0130 -0.0816 -0.8329 0.737 -0.651 -0.183 134 117 75 0 0
-0.0133 -0.0820 -0.8421 0.903 -0.382 0.195 124 112 77 0 0
0.0022 -0.0468 -0.1547 0.798 -0.345 0.493 82 69 57 0 0
0.0145 -0.0557 -0.1904 1.000 0.011 -0.001 31 21 12 0 0
0.0138 -0.0568 -0.2128 0.918 -0.181 -0.354 40 26 17 0 0
0.0131 -0.0574 -0.2280 0.945 -0.300 0.126 46 32 18 0 0
0.0138 -0.0597 -0.2568 0.763 -0.449 0.465 70 49 31 0 0
0.0136 -0.0615 -0.2849 0.922 -0.298 0.249 84 61 35 0 0
-0.0207 -0.0497 -0.3808 0.635 -0.770 -0.064 76 65 50 0 0
-0.0632 -0.0309 -0.4358 0.851 -0.524 0.018 98 90 71 0 0
-0.0636 -0.0309 -0.4397 0.807 -0.590 -0.026 101 92 77 0 0
-0.0655 -0.0313 -0.4609 0.678 -0.628 0.381 43 33 23 0 0
-0.0611 -0.0362 -0.5002 0.954 -0.255 0.157 60 51 32 0 0
-0.0612 -0.0370 -0.5117 0.865 -0.501 0.026 64 52 38 0 0
-0.0664 -0.0389 -0.5831 0.720 -0.472 0.509 94 87 75 0 0
-0.0596 -0.0437 -0.6012 0.847 -0.463 0.262 67 53 37 0 0
-0.0596 -0.0439 -0.6032 0.811 -0.486 0.327 69 56 40 0 0
-0.0590 -0.0443 -0.6049 0.760 -0.433 0.485 84 71 55 0 0
-0.0582 -0.0448 -0.6064 0.805 -0.342 0.485 61 48 32 0 0
-0.0536 -0.0477 -0.6137 0.813 -0.534 0.234 96 85 66 0 0
-0.0531 -0.0481 -0.6154 0.897 -0.371 0.239 79 67 47 0 0
-0.0349 -0.0606 -0.6586 0.868 -0.449 0.211 89 75 45 0 0
-0.0337 -0.0629 -0.6846 0.907 0.039 0.419 17 16 13 0 0
-0.0469 -0.0571 -0.7023 0.964 -0.237 -0.117 10 8 9 0 0
-0.0115 -0.0779 -0.7333 0.831 -0.437 0.344 119 101 66 0 0
-0.0099 -0.0822 -0.7854 0.666 -0.680 0.308 172 154 106 0 0
-0.0115 -0.0836 -0.8196 0.850 -0.522 0.069 163 146 100 0 0
0.0056 -0.0507 -0.1597 0.568 -0.560 0.603 164 144 111 0 0
0.0068 -0.0516 -0.1639 0.810 -0.449 0.378 93 77 50 0 0
0.0074 -0.0520 -0.1652 0.750 -0.480 0.455 83 63 43 0 0
0.0102 -0.0552 -0.1911 0.468 -0.713 0.522 31 21 12 0 0
0.0125 -0.0578 -0.2129 0.651 -0.739 -0.175 39 25 16 0 0
0.0110 -0.0576 -0.2207 0.764 -0.505 0.400 46 32 20 0 0
0.0112 -0.0579 -0.2237 0.726 -0.600 0.337 45 31 18 0 0
0.0116 -0.0582 -0.2251 0.726 -0.600 0.337 35 21 8 0 0
0.0123 -0.0586 -0.2265 0.936 -0.295 0.192 40 27 14 0 0
0.0124 -0.0588 -0.2280 0.958 -0.284 0.035 49 35 21 0 0
0.0116 -0.0589 -0.2357 0.870 -0.325 0.370 61 44 30 0 0
0.0133 -0.0611 -0.2552 0.714 -0.543 0.442 63 40 24 0 0
-0.0605 -0.0453 -0.6011 0.847 -0.463 0.262 70 56 40 0 0
-0.0600 -0.0458 -0.6048 0.786 -0.393 0.478 74 61 45 0 0
-0.0592 -0.0463 -0.6064 0.760 -0.433 0.485 58 45 29 0 0
-0.0414 -0.0573 -0.6296 0.853 -0.470 0.228 74 62 40 0 0
-0.0406 -0.0579 -0.6332 0.783 -0.502 0.367 79 67 45 0 0
-0.0377 -0.0604 -0.6476 0.855 -0.454 0.251 88 73 49 0 0
-0.0373 -0.0607 -0.6494 0.855 -0.454 0.251 70 56 37 0 0
-0.0358 -0.0620 -0.6565 0.859 -0.391 0.331 94 78 49 0 0
-0.0137 -0.0777 -0.7174 0.912 -0.325 0.249 124 102 67 0 0
-0.0126 -0.0787 -0.7228 0.852 -0.419 0.314 136 118 83 0 0
-0.0122 -0.0790 -0.7246 0.767 -0.568 0.299 130 112 76 0 0
-0.0121 -0.0792 -0.7266 0.927 -0.283 0.246 137 117 79 0 0
-0.0118 -0.0795 -0.7285 0.825 -0.536 0.179 134 112 80 0 0
-0.0119 -0.0799 -0.7349 0.889 -0.457 -0.021 126 108 80 0 0
-0.0123 -0.0824 -0.7757 0.831 -0.491 0.260 160 141 98 0 0
-0.0114 -0.0831 -0.7793 0.841 -0.530 0.107 170 152 105 0 0
-0.0135 -0.0852 -0.8271 0.826 -0.563 -0.019 154 137 91 0 0
0.0079 -0.0556 -0.1898 0.938 -0.038 0.345 33 23 14 0 0
0.0084 -0.0560 -0.1912 0.681 -0.375 0.629 32 22 13 0 0
0.0094 -0.0566 -0.1925 0.673 -0.128 0.729 33 22 13 0 0
0.0115 -0.0597 -0.2234 0.911 -0.327 0.252 46 32 19 0 0
0.0115 -0.0598 -0.2249 0.864 -0.302 0.403 40 26 13 0 0
0.0119 -0.0601 -0.2263 0.878 -0.359 0.318 43 30 16 0 0
0.0123 -0.0604 -0.2277 0.878 -0.359 0.318 47 34 20 0 0
0.0110 -0.0603 -0.2356 0.870 -0.325 0.370 60 43 29 0 0
0.0111 -0.0619 -0.2586 0.702 -0.709 0.067 69 45 28 0 0
0.0079 -0.0635 -0.3083 0.875 -0.471 -0.115 63 42 25 0 0
-0.0246 -0.0506 -0.3696 0.736 -0.677 0.031 26 19 12 0 0
-0.0246 -0.0507 -0.3713 0.736 -0.677 0.031 47 39 26 0 0
-0.0238 -0.0512 -0.3727 0.726 -0.659 0.193 59 49 36 0 0
-0.0644 -0.0366 -0.4725 0.773 -0.548 0.319 103 90 73 0 0
-0.0626 -0.0396 -0.5019 0.924 -0.354 0.144 64 53 35 0 0
-0.0631 -0.0398 -0.5097 0.673 -0.714 0.194 70 59 41 0 0
-0.0664 -0.0398 -0.5346 0.967 -0.227 0.116 79 68 50 0 0
-0.0727 -0.0384 -0.5636 0.798 -0.539 0.271 24 17 16 0 0
-0.0704 -0.0408 -0.5802 0.799 -0.446 0.403 24 15 12 0 0
-0.0657 -0.0436 -0.5855 0.759 -0.462 0.459 79 67 51 0 0
-0.0417 -0.0594 -0.6333 0.739 -0.569 0.361 95 83 61 0 0
-0.0406 -0.0607 -0.6448 0.840 -0.367 0.400 83 72 44 0 0
-0.0385 -0.0620 -0.6474 0.888 -0.366 0.277 75 61 37 0 0
-0.0379 -0.0624 -0.6491 0.695 -0.522 0.495 59 46 26 0 0
-0.0332 -0.0671 -0.6808 0.139 -0.799 0.585 26 21 17 0 0
-0.0505 -0.0598 -0.7077 0.505 -0.731 0.459 10 9 7 0 0
-0.0130 -0.0805 -0.7224 0.900 -0.180 0.398 153 133 97 0 0
-0.0126 -0.0835 -0.7644 0.950 -0.245 0.196 161 138 93 0 0
-0.0125 -0.0853 -0.7902 0.910 -0.394 0.128 169 151 104 0 0
0.0076 -0.0572 -0.1912 0.761 -0.282 0.584 36 23 14 0 0
0.0088 -0.0579 -0.1924 0.822 -0.017 0.569 35 23 14 0 0
0.0112 -0.0613 -0.2232 0.851 -0.441 0.285 46 32 19 0 0
0.0115 -0.0615 -0.2246 0.900 -0.285 0.330 45 30 17 0 0
0.0113 -0.0615 -0.2262 0.878 -0.359 0.318 48 32 19 0 0
0.0114 -0.0617 -0.2277 0.794 -0.471 0.385 49 33 19 0 0
0.0100 -0.0614 -0.2341 0.849 -0.447 0.282 47 31 16 0 0
0.0111 -0.0656 -0.2879 0.873 -0.483 0.067 95 71 43 0 0
0.0074 -0.0651 -0.3081 0.924 -0.363 -0.121 56 35 21 0 0
-0.0309 -0.0472 -0.3410 0.810 -0.436 -0.392 14 12 15 0 0
-0.0342 -0.0459 -0.3472 0.731 -0.633 0.254 7 5 6 0 0
-0.0258 -0.0521 -0.3731 0.591 -0.793 0.146 54 45 35 0 0
-0.0623 -0.0407 -0.4860 0.852 -0.515 0.098 90 75 52 0 0
-0.0622 -0.0412 -0.4936 0.869 -0.491 -0.066 58 45 26 0 0
-0.0649 -0.0408 -0.5082 0.723 -0.646 0.245 90 78 61 0 0
-0.0646 -0.0411 -0.5100 0.723 -0.646 0.245 62 49 32 0 0
-0.0672 -0.0412 -0.5325 0.906 -0.417 0.074 77 66 48 0 0
-0.0671 -0.0414 -0.5344 0.906 -0.417 0.074 72 61 43 0 0
-0.0732 -0.0398 -0.5573 0.682 -0.723 0.110 53 45 37 0 0
-0.0668 -0.0449 -0.5836 0.902 -0.271 0.337 120 110 98 0 0
-0.0434 -0.0608 -0.6378 0.787 -0.526 0.321 68 52 35 0 0
-0.0141 -0.0819 -0.7225 0.824 -0.375 0.426 132 111 76 0 0
-0.0137 -0.0823 -0.7243 0.811 -0.510 0.285 89 71 38 0 0
-0.0132 -0.0827 -0.7259 0.837 -0.503 0.215 109 90 57 0 0
-0.0127 -0.0831 -0.7276 0.790 -0.555 0.262 103 84 51 0 0
-0.0132 -0.0829 -0.7301 0.912 -0.398 0.095 87 67 32 0 0
-0.0135 -0.0831 -0.7346 0.933 -0.356 0.059 107 90 60 0 0
-0.0135 -0.0835 -0.7409 0.881 -0.433 0.190 149 131 94 0 0
-0.0135 -0.0840 -0.7473 0.876 -0.349 0.334 112 96 67 0 0
-0.0127 -0.0845 -0.7487 0.860 -0.331 0.389 109 93 64 0 0
-0.0137 -0.0844 -0.7559 0.868 -0.485 0.109 162 143 95 0 0
-0.0129 -0.0851 -0.7596 0.830 -0.445 0.335 172 157 107 0 0
-0.0124 -0.0856 -0.7634 0.844 -0.407 0.349 176 154 107 0 0
-0.0139 -0.0856 -0.7754 0.918 -0.318 0.236 159 141 96 0 0
-0.0120 -0.0873 -0.7847 0.905 -0.425 0.001 169 149 102 0 0
0.0044 -0.1012 -0.8630 0.546 -0.663 0.511 186 185 181 0 0
0.0041 -0.0551 -0.1623 0.741 -0.585 0.328 190 170 133 0 0
0.0068 -0.0570 -0.1691 0.791 -0.478 0.382 102 82 57 0 0
0.0085 -0.0592 -0.1878 0.980 0.192 -0.049 38 26 17 0 0
0.0090 -0.0597 -0.1921 0.835 0.166 0.525 36 23 14 0 0
0.0095 -0.0600 -0.1935 0.529 -0.242 0.813 37 24 15 0 0
0.0142 -0.0640 -0.2147 0.971 -0.235 -0.040 40 26 15 0 0
0.0105 -0.0627 -0.2246 0.783 -0.453 0.426 46 30 17 0 0
0.0093 -0.0627 -0.2340 0.849 -0.447 0.282 45 29 14 0 0
0.0093 -0.0645 -0.2601 0.947 -0.318 0.041 73 48 28 0 0
0.0070 -0.0664 -0.3047 0.895 -0.447 -0.013 117 101 72 0 0
0.0070 -0.0665 -0.3064 0.895 -0.447 -0.013 73 52 33 0 0
0.0069 -0.0665 -0.3080 0.924 -0.363 -0.121 60 39 25 0 0
-0.0323 -0.0482 -0.3394 0.510 -0.859 -0.053 14 12 16 0 0
-0.0636 -0.0376 -0.4233 0.886 -0.388 -0.253 81 70 50 0 0
-0.0684 -0.0378 -0.4622 0.634 -0.641 0.432 54 44 33 0 0
-0.0648 -0.0408 -0.4792 0.816 -0.457 0.353 74 60 39 0 0
-0.0741 -0.0427 -0.5771 0.680 -0.596 0.428 61 52 43 0 0
-0.0540 -0.0560 -0.6175 0.803 -0.292 0.519 115 103 79 0 0
-0.0444 -0.0623 -0.6378 0.787 -0.526 0.321 46 33 17 0 0
-0.0441 -0.0626 -0.6396 0.779 -0.355 0.517 113 99 82 0 0
-0.0401 -0.0654 -0.6492 0.535 -0.599 0.596 92 80 57 0 0
-0.0369 -0.0679 -0.6614 0.612 -0.477 0.631 55 44 25 0 0
-0.0375 -0.0678 -0.6638 0.638 -0.742 0.208 122 112 92 0 0
-0.0369 -0.0682 -0.6655 0.677 -0.734 0.048 86 74 49 0 0
-0.0369 -0.0693 -0.6819 0.812 -0.529 0.248 14 13 10 0 0
-0.0535 -0.0623 -0.7062 0.719 -0.509 0.473 7 6 6 0 0
-0.0134 -0.0861 -0.7485 0.860 -0.331 0.389 138 121 92 0 0
-0.0135 -0.0896 -0.8003 0.723 -0.679 0.128 172 155 108 0 0
-0.0133 -0.0899 -0.8023 0.854 -0.515 0.072 166 148 100 0 0
-0.0128 -0.0903 -0.8040 0.861 -0.504 0.072 168 150 102 0 0
-0.0144 -0.0900 -0.8120 0.912 -0.399 0.095 165 148 99 0 0
-0.0140 -0.0903 -0.8139 0.873 -0.411 0.261 169 151 103 0 0
-0.0192 -0.0897 -0.8450 0.766 -0.616 0.183 105 95 72 0 0
0.0030 -0.1026 -0.8633 0.546 -0.663 0.511 186 185 181 0 0
0.0037 -0.1030 -0.8649 0.572 -0.709 0.413 187 186 182 0 0
0.0048 -0.0574 -0.1664 0.862 -0.249 0.441 94 76 46 0 0
0.0066 -0.0587 -0.1718 0.568 -0.644 0.512 75 53 30 0 0
0.0093 -0.0615 -0.1918 0.828 0.240 0.507 36 23 14 0 0
0.0117 -0.0639 -0.2076 0.869 -0.343 0.357 39 25 14 0 0
0.0145 -0.0655 -0.2100 0.970 0.153 0.189 40 26 17 0 0
0.0127 -0.0669 -0.2435 0.640 -0.612 0.465 56 37 20 0 0
0.0119 -0.0672 -0.2544 0.667 -0.464 0.583 66 43 27 0 0
0.0064 -0.0678 -0.3046 0.865 -0.500 0.040 117 102 71 0 0
0.0062 -0.0678 -0.3063 0.846 -0.485 0.221 86 65 42 0 0
0.0065 -0.0681 -0.3078 0.837 -0.537 0.105 67 48 29 0 0
-0.0342 -0.0492 -0.3414 0.407 -0.913 0.001 19 17 20 0 0
-0.0348 -0.0496 -0.3518 0.619 -0.635 0.462 12 11 10 0 0
-0.0303 -0.0528 -0.3638 0.319 -0.908 0.271 57 55 45 0 0
-0.0299 -0.0534 -0.3687 0.300 -0.953 -0.043 59 53 42 0 0
-0.0738 -0.0358 -0.4456 0.887 -0.450 -0.103 38 32 23 0 0
-0.0641 -0.0435 -0.4841 0.896 -0.270 0.352 83 64 42 0 0
-0.0647 -0.0446 -0.5032 0.879 -0.439 0.187 56 43 26 0 0
-0.0649 -0.0447 -0.5072 0.937 -0.348 0.011 75 62 46 0 0
-0.0758 -0.0438 -0.5755 0.775 -0.491 0.398 64 54 44 0 0
-0.0753 -0.0441 -0.5772 0.651 -0.577 0.493 42 33 28 0 0
-0.0656 -0.0507 -0.5997 0.849 -0.339 0.406 67 53 38 0 0
-0.0573 -0.0560 -0.6128 0.880 -0.320 0.350 116 102 84 0 0
-0.0468 -0.0625 -0.6285 0.880 -0.267 0.394 114 103 84 0 0
-0.0444 -0.0642 -0.6351 0.678 -0.543 0.496 46 34 19 0 0
-0.0449 -0.0641 -0.6374 0.653 -0.590 0.475 65 55 40 0 0
-0.0389 -0.0690 -0.6620 0.591 -0.749 0.299 81 70 53 0 0
-0.0413 -0.0688 -0.6781 0.825 -0.549 0.133 77 68 53 0 0
-0.0150 -0.0882 -0.7618 0.767 -0.375 0.521 164 143 100 0 0
-0.0143 -0.0888 -0.7633 0.820 -0.471 0.326 169 148 104 0 0
-0.0131 -0.0897 -0.7689 0.830 -0.553 0.076 172 154 105 0 0
-0.0143 -0.0914 -0.8023 0.854 -0.515 0.072 169 151 103 0 0
-0.0154 -0.0911 -0.8054 0.893 -0.446 0.063 163 145 97 0 0
-0.0152 -0.0913 -0.8074 0.855 -0.505 0.120 164 146 98 0 0
-0.0153 -0.0914 -0.8097 0.841 -0.520 0.148 165 147 99 0 0
-0.0142 -0.0923 -0.8132 0.828 -0.561 -0.002 169 153 104 0 0
-0.0204 -0.0912 -0.8452 0.766 -0.616 0.183 113 103 77 0 0
-0.0135 -0.0491 -0.1591 0.130 -0.357 0.925 172 167 159 0 0
0.0037 -0.0584 -0.1649 0.862 -0.249 0.441 85 64 35 0 0
0.0043 -0.0588 -0.1662 0.862 -0.249 0.441 88 65 38 0 0
0.0054 -0.0598 -0.1719 0.568 -0.644 0.512 81 59 35 0 0
0.0095 -0.0661 -0.2319 0.868 -0.495 0.037 44 28 13 0 0
0.0095 -0.0662 -0.2334 0.868 -0.495 0.037 47 30 15 0 0
0.0107 -0.0674 -0.2423 0.657 -0.543 0.523 60 40 24 0 0
0.0110 -0.0684 -0.2529 0.803 -0.341 0.489 66 42 27 0 0
0.0116 -0.0687 -0.2542 0.695 -0.650 0.306 66 42 26 0 0
0.0090 -0.0689 -0.2751 0.780 -0.567 0.265 87 63 38 0 0
0.0048 -0.0684 -0.3000 0.867 -0.340 0.364 141 124 84 0 0
0.0054 -0.0689 -0.3030 0.880 -0.315 0.355 140 129 90 0 0
0.0055 -0.0691 -0.3046 0.856 -0.347 0.383 97 82 51 0 0
-0.0376 -0.0496 -0.3456 0.604 -0.502 0.619 25 23 24 0 0
-0.0378 -0.0496 -0.3474 0.571 -0.678 0.464 30 29 30 0 0
-0.0372 -0.0500 -0.3489 0.586 -0.718 0.376 40 39 39 0 0
-0.0329 -0.0532 -0.3627 0.396 -0.814 0.426 28 21 19 0 0
-0.0320 -0.0538 -0.3640 0.367 -0.901 0.231 30 23 20 0 0
-0.0602 -0.0424 -0.4102 0.286 -0.913 -0.292 68 60 40 0 0
-0.0740 -0.0376 -0.4452 0.763 -0.626 -0.162 35 30 22 0 0
-0.0658 -0.0459 -0.5033 0.643 -0.691 0.329 75 61 43 0 0
-0.0656 -0.0462 -0.5051 0.714 -0.659 0.236 74 61 41 0 0
-0.0655 -0.0463 -0.5070 0.761 -0.547 0.348 79 67 50 0 0
-0.0777 -0.0443 -0.5680 0.741 -0.479 0.470 65 57 49 0 0
-0.0673 -0.0516 -0.5961 0.918 -0.382 0.106 126 111 95 0 0
-0.0607 -0.0560 -0.6103 0.735 -0.449 0.507 144 129 106 0 0
-0.0601 -0.0565 -0.6119 0.794 -0.404 0.454 103 88 68 0 0
-0.0579 -0.0577 -0.6126 0.880 -0.320 0.350 90 77 60 0 0
-0.0471 -0.0643 -0.6281 0.759 -0.555 0.339 102 90 72 0 0
-0.0455 -0.0657 -0.6351 0.678 -0.543 0.496 40 29 15 0 0
-0.0459 -0.0656 -0.6374 0.672 -0.572 0.470 121 112 94 0 0
-0.0457 -0.0658 -0.6393 0.779 -0.355 0.517 141 131 110 0 0
-0.0442 -0.0670 -0.6445 0.754 -0.606 0.254 82 69 50 0 0
-0.0535 -0.0658 -0.6963 0.513 -0.852 -0.106 8 7 8 0 0
-0.0538 -0.0658 -0.6986 0.675 -0.713 -0.188 7 6 6 0 0
-0.0151 -0.0902 -0.7611 0.946 -0.287 0.150 173 152 107 0 0
-0.0151 -0.0904 -0.7632 0.854 -0.497 0.156 177 156 108 0 0
-0.0148 -0.0906 -0.7651 0.854 -0.497 0.156 176 155 109 0 0
-0.0146 -0.0909 -0.7671 0.854 -0.497 0.156 173 152 108 0 0
-0.0157 -0.0927 -0.8004 0.735 -0.594 0.327 173 156 108 0 0
-0.0163 -0.0930 -0.8097 0.811 -0.528 0.252 169 150 103 0 0
-0.0149 -0.0939 -0.8130 0.816 -0.577 -0.023 171 154 106 0 0
-0.0156 -0.0938 -0.8157 0.864 -0.504 -0.009 171 154 106 0 0
-0.0216 -0.0927 -0.8453 0.766 -0.616 0.183 106 94 68 0 0
-0.0221 -0.0926 -0.8480 0.773 -0.618 -0.146 60 56 39 0 0
0.0078 -0.0629 -0.1741 0.889 -0.145 0.435 72 51 27 0 0
0.0110 -0.0669 -0.2088 0.743 -0.654 0.144 42 26 16 0 0
0.0115 -0.0684 -0.2251 0.944 -0.044 0.327 46 30 17 0 0
0.0104 -0.0692 -0.2451 0.683 -0.553 0.477 63 40 26 0 0
0.0118 -0.0702 -0.2493 0.743 -0.541 0.394 65 39 24 0 0
0.0038 -0.0695 -0.2969 0.880 -0.446 0.167 123 102 67 0 0
0.0042 -0.0699 -0.2999 0.867 -0.340 0.364 151 137 96 0 0
0.0045 -0.0703 -0.3046 0.832 -0.253 0.493 97 83 52 0 0
0.0052 -0.0708 -0.3060 0.624 -0.715 0.314 100 83 54 0 0
-0.0403 -0.0499 -0.3428 0.588 -0.476 0.654 37 36 34 0 0
-0.0387 -0.0511 -0.3491 0.473 -0.790 0.391 56 53 52 0 0
-0.0354 -0.0535 -0.3581 0.586 -0.749 0.310 20 16 13 0 0
-0.0349 -0.0538 -0.3596 0.512 -0.800 0.312 27 22 18 0 0
-0.0753 -0.0390 -0.4453 0.649 -0.753 -0.106 34 29 23 0 0
-0.0682 -0.0474 -0.5135 0.905 -0.419 -0.076 73 60 44 0 0
-0.0710 -0.0464 -0.5188 0.623 -0.602 0.500 76 63 46 0 0
-0.0702 -0.0469 -0.5203 0.740 -0.643 0.198 72 60 43 0 0
-0.0691 -0.0475 -0.5217 0.891 -0.198 0.409 70 59 43 0 0
-0.0786 -0.0459 -0.5679 0.819 -0.393 0.418 37 29 23 0 0
-0.0573 -0.0603 -0.6156 0.749 -0.469 0.468 97 87 69 0 0
-0.0486 -0.0655 -0.6264 0.807 -0.494 0.324 114 102 82 0 0
-0.0478 -0.0660 -0.6278 0.874 -0.462 0.154 74 61 44 0 0
-0.0474 -0.0666 -0.6337 0.854 -0.434 0.288 41 28 15 0 0
-0.0466 -0.0671 -0.6352 0.778 -0.497 0.384 103 91 77 0 0
-0.0459 -0.0680 -0.6429 0.795 -0.536 0.283 78 65 46 0 0
-0.0424 -0.0709 -0.6568 0.682 -0.635 0.362 82 73 53 0 0
-0.0422 -0.0711 -0.6588 0.776 -0.340 0.531 38 29 14 0 0
-0.0419 -0.0714 -0.6606 0.745 -0.627 0.228 59 47 31 0 0
-0.0417 -0.0725 -0.6749 0.677 -0.542 0.497 43 36 23 0 0
-0.0409 -0.0730 -0.6764 0.677 -0.542 0.497 18 14 9 0 0
-0.0395 -0.0738 -0.6775 0.575 -0.715 0.397 14 13 9 0 0
-0.0397 -0.0738 -0.6797 0.648 -0.746 0.153 13 12 9 0 0
-0.0161 -0.0900 -0.7356 0.933 -0.356 0.059 92 76 46 0 0
-0.0162 -0.0917 -0.7611 0.854 -0.497 0.156 160 139 92 0 0
-0.0160 -0.0920 -0.7631 0.854 -0.497 0.156 169 148 100 0 0
-0.0158 -0.0922 -0.7651 0.854 -0.497 0.156 168 147 101 0 0
-0.0156 -0.0925 -0.7670 0.854 -0.497 0.156 166 145 102 0 0
-0.0171 -0.0945 -0.8073 0.924 -0.332 0.191 170 152 104 0 0
-0.0231 -0.0941 -0.8457 0.790 -0.611 -0.046 109 97 72 0 0
-0.0235 -0.0941 -0.8484 0.715 -0.674 -0.185 69 62 46 0 0
-0.0264 -0.0929 -0.8532 0.609 -0.792 -0.028 25 22 17 0 0
-0.0011 -0.1072 -0.8711 0.277 -0.938 0.209 191 190 188 0 0
0.0025 -0.0610 -0.1632 0.725 -0.495 0.479 167 151 116 0 0
0.0030 -0.0614 -0.1646 0.748 -0.528 0.401 138 120 85 0 0
0.0035 -0.0620 -0.1689 0.811 -0.512 0.282 75 54 30 0 0
0.0032 -0.0619 -0.1704 0.913 -0.164 0.373 74 54 31 0 0
0.0050 -0.0637 -0.1832 0.580 -0.786 0.216 46 35 21 0 0
0.0059 -0.0660 -0.2082 0.807 -0.057 0.588 39 25 15 0 0
0.0107 -0.0695 -0.2221 0.960 0.055 0.274 41 24 13 0 0
0.0108 -0.0714 -0.2493 0.743 -0.541 0.394 64 38 23 0 0
0.0080 -0.0713 -0.2670 0.968 -0.241 0.072 77 50 29 0 0
0.0077 -0.0712 -0.2687 0.918 -0.395 -0.005 76 52 28 0 0
0.0077 -0.0713 -0.2702 0.844 -0.432 0.319 77 53 29 0 0
0.0052 -0.0715 -0.2913 0.901 -0.386 0.200 93 71 42 0 0
-0.0392 -0.0529 -0.3523 0.376 -0.792 0.481 65 61 58 0 0
-0.0636 -0.0442 -0.4071 0.321 -0.901 -0.293 64 56 42 0 0
-0.0744 -0.0408 -0.4371 0.861 -0.504 -0.065 73 62 50 0 0
-0.0719 -0.0478 -0.5168 0.740 -0.643 0.198 62 48 34 0 0
-0.0719 -0.0479 -0.5187 0.707 -0.431 0.561 60 46 33 0 0
-0.0696 -0.0493 -0.5214 0.891 -0.198 0.409 74 62 46 0 0
-0.0789 -0.0456 -0.5379 0.912 -0.326 -0.251 68 59 46 0 0
-0.0776 -0.0464 -0.5392 0.747 -0.615 -0.251 69 61 47 0 0
-0.0588 -0.0614 -0.6139 0.800 -0.457 0.389 74 66 47 0 0
-0.0582 -0.0618 -0.6155 0.749 -0.469 0.468 102 94 74 0 0
-0.0486 -0.0676 -0.6277 0.874 -0.462 0.154 65 54 37 0 0
-0.0482 -0.0682 -0.6335 0.854 -0.434 0.288 80 68 54 0 0
-0.0436 -0.0723 -0.6570 0.663 -0.625 0.413 54 44 28 0 0
-0.0421 -0.0731 -0.6581 0.641 -0.730 0.236 30 21 7 0 0
-0.0436 -0.0734 -0.6734 0.704 -0.436 0.560 46 38 29 0 0
-0.0424 -0.0741 -0.6747 0.789 -0.434 0.435 21 17 13 0 0
-0.0418 -0.0746 -0.6763 0.789 -0.434 0.435 15 13 13 0 0
-0.0172 -0.0904 -0.7210 0.903 -0.377 0.206 145 123 85 0 0
-0.0167 -0.0918 -0.7374 0.933 -0.356 0.059 82 66 35 0 0
-0.0166 -0.0922 -0.7416 0.933 -0.356 0.059 121 102 68 0 0
-0.0166 -0.0928 -0.7500 0.877 -0.424 0.227 125 107 66 0 0
-0.0167 -0.0938 -0.7650 0.854 -0.497 0.156 145 124 82 0 0
-0.0165 -0.0940 -0.7670 0.854 -0.497 0.156 160 138 96 0 0
-0.0174 -0.0952 -0.7893 0.806 -0.553 0.210 162 142 94 0 0
-0.0173 -0.0969 -0.8133 0.884 -0.452 0.116 167 149 101 0 0
-0.0173 -0.0971 -0.8154 0.951 -0.260 0.166 170 152 104 0 0
-0.0250 -0.0955 -0.8487 0.700 -0.706 -0.109 74 68 51 0 0
0.0046 -0.0646 -0.1743 0.815 -0.324 0.481 87 71 49 0 0
0.0052 -0.0650 -0.1756 0.778 -0.532 0.336 71 52 32 0 0
0.0034 -0.0645 -0.1819 0.407 -0.755 0.514 45 35 20 0 0
0.0077 -0.0714 -0.2468 0.646 -0.612 0.457 65 44 28 0 0
0.0083 -0.0718 -0.2482 0.700 -0.546 0.461 64 41 25 0 0
0.0077 -0.0722 -0.2591 0.886 -0.428 0.178 76 51 31 0 0
0.0071 -0.0731 -0.2748 0.801 -0.577 0.162 82 58 34 0 0
-0.0740 -0.0453 -0.4699 0.785 -0.529 0.322 100 90 77 0 0
-0.0722 -0.0493 -0.5126 0.819 -0.407 0.405 66 51 32 0 0
-0.0723 -0.0495 -0.5165 0.750 -0.334 0.571 89 76 58 0 0
-0.0726 -0.0497 -0.5205 0.740 -0.643 0.198 81 68 51 0 0
-0.0835 -0.0478 -0.5735 0.868 -0.489 0.087 30 26 21 0 0
-0.0736 -0.0542 -0.5919 0.676 -0.515 0.527 106 93 79 0 0
-0.0464 -0.0722 -0.6479 0.840 -0.411 0.355 114 102 84 0 0
-0.0439 -0.0741 -0.6565 0.641 -0.730 0.236 29 19 8 0 0
-0.0435 -0.0744 -0.6583 0.641 -0.730 0.236 49 40 27 0 0
-0.0457 -0.0743 -0.6721 0.698 -0.559 0.447 53 45 32 0 0
-0.0445 -0.0750 -0.6734 0.649 -0.324 0.689 21 16 12 0 0
-0.0441 -0.0754 -0.6751 0.640 -0.583 0.500 13 13 8 0 0
-0.0325 -0.0822 -0.6878 0.534 0.642 0.550 11 11 10 0 0
-0.0173 -0.0924 -0.7203 0.793 -0.524 0.312 143 124 87 0 0
-0.0174 -0.0935 -0.7372 0.933 -0.356 0.059 136 115 72 0 0
-0.0173 -0.0941 -0.7456 0.935 -0.351 0.055 138 114 73 0 0
-0.0175 -0.0957 -0.7691 0.862 -0.506 -0.021 157 136 92 0 0
-0.0175 -0.0959 -0.7713 0.849 -0.527 -0.045 164 143 97 0 0
-0.0186 -0.0966 -0.7895 0.706 -0.667 0.235 163 142 97 0 0
-0.0204 -0.0984 -0.8283 0.852 -0.522 -0.019 157 140 95 0 0
-0.0206 -0.0985 -0.8307 0.875 -0.397 0.277 146 129 83 0 0
-0.0133 -0.0559 -0.1568 0.085 -0.663 0.744 162 160 157 0 0
0.0082 -0.0724 -0.2342 0.838 -0.526 0.148 56 38 24 0 0
0.0067 -0.0726 -0.2468 0.700 -0.546 0.461 64 43 25 0 0
0.0073 -0.0730 -0.2482 0.700 -0.546 0.461 65 43 25 0 0
0.0071 -0.0748 -0.2745 0.859 -0.490 0.146 81 57 32 0 0
0.0029 -0.0746 -0.3026 0.871 -0.227 0.435 149 139 101 0 0
-0.0395 -0.0555 -0.3381 0.563 -0.407 -0.720 24 20 21 0 0
-0.0422 -0.0552 -0.3544 0.319 -0.699 0.640 73 71 66 0 0
-0.0414 -0.0558 -0.3558 0.581 -0.773 0.254 77 74 69 0 0
-0.0709 -0.0450 -0.4164 0.715 -0.697 0.042 84 74 57 0 0
-0.0763 -0.0437 -0.4370 0.840 -0.541 0.045 69 58 49 0 0
-0.0788 -0.0443 -0.4622 0.543 -0.585 0.602 45 39 33 0 0
-0.0778 -0.0449 -0.4636 0.496 -0.715 0.492 42 35 27 0 0
-0.0737 -0.0509 -0.5186 0.678 -0.309 0.667 69 55 38 0 0
-0.0829 -0.0507 -0.5806 0.623 -0.678 0.390 38 35 33 0 0
-0.0823 -0.0511 -0.5822 0.564 -0.554 0.612 47 43 38 0 0
-0.0820 -0.0514 -0.5841 0.617 -0.486 0.619 58 53 42 0 0
-0.0809 -0.0521 -0.5855 0.478 -0.607 0.635 80 74 60 0 0
-0.0540 -0.0685 -0.6217 0.813 -0.196 0.548 95 82 63 0 0
-0.0187 -0.0935 -0.7186 0.793 -0.524 0.312 148 131 90 0 0
-0.0183 -0.0939 -0.7203 0.793 -0.524 0.312 134 115 79 0 0
-0.0178 -0.0944 -0.7242 0.911 -0.311 0.270 152 136 91 0 0
-0.0179 -0.0958 -0.7453 0.935 -0.351 0.055 146 124 84 0 0
-0.0184 -0.0970 -0.7648 0.838 -0.498 0.223 165 144 101 0 0
-0.0182 -0.0972 -0.7668 0.765 -0.586 0.267 163 141 97 0 0
-0.0186 -0.0992 -0.7974 0.870 -0.464 0.164 174 156 108 0 0
-0.0185 -0.0995 -0.7994 0.884 -0.462 0.070 173 156 108 0 0
-0.0184 -0.0996 -0.8015 0.884 -0.462 0.070 168 151 103 0 0
-0.0197 -0.0998 -0.8135 0.896 -0.440 -0.062 164 146 97 0 0
-0.0199 -0.0999 -0.8159 0.872 -0.480 0.098 169 151 103 0 0
-0.0201 -0.1000 -0.8183 0.932 -0.256 0.257 172 154 106 0 0
-0.0270 -0.0985 -0.8465 0.787 -0.576 -0.219 106 95 67 0 0
0.0069 -0.0698 -0.1837 0.613 -0.424 0.667 44 32 22 0 0
0.0057 -0.0706 -0.2031 0.740 -0.641 0.203 40 26 15 0 0
0.0060 -0.0708 -0.2045 0.740 -0.641 0.203 41 28 16 0 0
0.0095 -0.0730 -0.2097 0.450 -0.603 0.658 57 41 28 0 0
0.0121 -0.0745 -0.2120 0.510 -0.448 0.735 45 32 19 0 0
0.0131 -0.0751 -0.2133 0.621 -0.419 0.662 43 29 16 0 0
0.0090 -0.0736 -0.2217 0.615 -0.716 0.331 48 31 18 0 0
0.0089 -0.0742 -0.2308 0.970 -0.245 0.005 52 36 21 0 0
0.0063 -0.0741 -0.2466 0.848 -0.411 0.335 63 41 22 0 0
0.0067 -0.0744 -0.2481 0.848 -0.411 0.335 66 43 25 0 0
0.0063 -0.0748 -0.2574 0.854 -0.453 0.255 73 47 27 0 0
0.0064 -0.0750 -0.2589 0.812 -0.298 0.502 73 46 27 0 0
0.0068 -0.0761 -0.2712 0.926 -0.279 0.254 78 52 29 0 0
0.0024 -0.0761 -0.3024 0.859 -0.411 0.306 137 128 91 0 0
0.0039 -0.0770 -0.3035 0.802 -0.558 0.211 107 93 62 0 0
-0.0026 -0.0748 -0.3185 0.936 0.173 -0.305 80 70 50 0 0
-0.0429 -0.0569 -0.3559 0.481 -0.849 0.219 59 56 51 0 0
-0.0543 -0.0529 -0.3809 0.208 -0.769 -0.604 31 26 23 0 0
-0.0726 -0.0462 -0.4185 0.649 -0.757 -0.069 49 39 29 0 0
-0.0775 -0.0451 -0.4371 0.861 -0.479 0.171 45 37 30 0 0
-0.0765 -0.0457 -0.4385 0.870 -0.481 0.106 46 38 31 0 0
-0.0798 -0.0449 -0.4510 0.811 -0.430 0.396 20 15 12 0 0
-0.0792 -0.0454 -0.4526 0.806 -0.411 0.427 19 14 11 0 0
-0.0735 -0.0529 -0.5160 0.940 -0.147 0.309 95 84 62 0 0
-0.0745 -0.0525 -0.5185 0.695 -0.412 0.589 85 73 54 0 0
-0.0849 -0.0518 -0.5811 0.845 -0.319 0.430 38 34 33 0 0
-0.0847 -0.0520 -0.5830 0.758 -0.258 0.599 38 33 30 0 0
-0.0619 -0.0659 -0.6139 0.761 -0.556 0.334 98 90 72 0 0
-0.0477 -0.0772 -0.6700 0.900 -0.289 0.326 35 28 20 0 0
-0.0186 -0.0960 -0.7240 0.905 -0.368 0.212 166 149 105 0 0
-0.0185 -0.0976 -0.7449 0.924 -0.381 0.002 137 114 72 0 0
-0.0186 -0.0981 -0.7535 0.896 -0.444 -0.013 125 103 66 0 0
-0.0193 -0.0986 -0.7647 0.838 -0.498 0.223 167 146 103 0 0
-0.0190 -0.0990 -0.7687 0.765 -0.586 0.267 170 149 101 0 0
-0.0201 -0.1019 -0.8152 0.811 -0.533 0.243 162 144 96 0 0
-0.0206 -0.1018 -0.8179 0.879 -0.374 0.295 173 155 107 0 0
0.0050 -0.0712 -0.1926 0.613 -0.472 0.634 37 24 15 0 0
0.0048 -0.0712 -0.1942 0.806 -0.552 0.213 38 25 16 0 0
0.0050 -0.0714 -0.1956 0.806 -0.552 0.213 38 25 16 0 0
0.0050 -0.0715 -0.1971 0.877 -0.429 0.216 38 25 16 0 0
0.0035 -0.0713 -0.2048 0.637 -0.398 0.660 44 31 19 0 0
0.0081 -0.0755 -0.2307 0.777 -0.614 0.142 49 33 18 0 0
0.0055 -0.0757 -0.2512 0.938 -0.306 0.159 69 43 28 0 0
0.0056 -0.0762 -0.2573 0.854 -0.453 0.255 70 44 25 0 0
0.0062 -0.0766 -0.2587 0.802 -0.463 0.378 70 43 24 0 0
0.0067 -0.0769 -0.2601 0.802 -0.463 0.378 72 45 26 0 0
0.0068 -0.0777 -0.2693 0.624 -0.724 0.293 76 50 28 0 0
0.0064 -0.0776 -0.2710 0.888 -0.458 -0.047 78 52 29 0 0
-0.0501 -0.0541 -0.3428 0.171 -0.921 -0.350 30 27 27 0 0
-0.0779 -0.0466 -0.4331 0.832 -0.510 0.217 65 55 47 0 0
-0.0776 -0.0468 -0.4348 0.832 -0.510 0.217 47 37 32 0 0
-0.0779 -0.0491 -0.4683 0.571 -0.606 0.553 16 11 11 0 0
-0.0769 -0.0497 -0.4698 0.796 -0.429 0.428 50 41 34 0 0
-0.0761 -0.0504 -0.4732 0.798 -0.362 0.482 63 48 32 0 0
-0.0743 -0.0540 -0.5102 0.878 -0.265 0.399 98 85 66 0 0
-0.0755 -0.0539 -0.5165 0.919 -0.383 -0.091 75 64 44 0 0
-0.0757 -0.0539 -0.5185 0.919 -0.383 -0.091 71 62 43 0 0
-0.0943 -0.0476 -0.5617 0.176 -0.951 0.255 9 7 8 0 0
-0.0938 -0.0482 -0.5654 0.087 -0.940 0.329 9 7 8 0 0
-0.0851 -0.0537 -0.5806 0.933 -0.077 0.352 26 22 21 0 0
-0.0844 -0.0541 -0.5823 0.915 0.080 0.396 29 25 24 0 0
-0.0848 -0.0541 -0.5845 0.914 -0.323 0.247 38 35 30 0 0
-0.0633 -0.0671 -0.6121 0.780 -0.480 0.400 89 82 65 0 0
-0.0627 -0.0675 -0.6137 0.828 -0.431 0.358 124 116 96 0 0
-0.0547 -0.0723 -0.6229 0.877 -0.328 0.350 90 81 65 0 0
-0.0472 -0.0788 -0.6608 0.789 -0.612 0.058 62 50 37 0 0
-0.0470 -0.0791 -0.6627 0.940 -0.341 0.012 53 41 28 0 0
-0.0492 -0.0785 -0.6703 0.865 -0.495 0.074 24 20 16 0 0
-0.0491 -0.0787 -0.6724 0.865 -0.495 0.074 13 11 8 0 0
-0.0345 -0.0866 -0.6788 0.576 0.611 0.543 15 10 6 0 0
-0.0245 -0.0921 -0.6841 0.933 -0.173 0.316 94 81 55 0 0
-0.0195 -0.0978 -0.7281 0.853 -0.418 0.314 160 139 97 0 0
-0.0188 -0.0983 -0.7297 0.880 -0.452 0.148 167 150 106 0 0
-0.0203 -0.1001 -0.7647 0.838 -0.498 0.223 143 124 81 0 0
-0.0201 -0.1004 -0.7667 0.813 -0.448 0.372 167 145 100 0 0
-0.0198 -0.1007 -0.7686 0.855 -0.439 0.275 171 149 102 0 0
-0.0211 -0.1032 -0.8130 0.865 -0.479 0.149 165 147 99 0 0
-0.0211 -0.1034 -0.8152 0.811 -0.533 0.243 168 150 102 0 0
-0.0214 -0.1034 -0.8177 0.879 -0.374 0.295 171 153 105 0 0
0.0040 -0.0724 -0.1941 0.752 -0.544 0.372 37 24 15 0 0
0.0044 -0.0729 -0.1970 0.909 -0.348 0.230 38 25 16 0 0
0.0049 -0.0738 -0.2073 0.558 -0.153 0.816 54 39 25 0 0
0.0077 -0.0770 -0.2306 0.853 -0.521 0.024 48 32 17 0 0
0.0056 -0.0779 -0.2570 0.945 -0.300 0.128 69 42 23 0 0
0.0057 -0.0781 -0.2585 0.904 -0.300 0.303 69 42 23 0 0
0.0067 -0.0790 -0.2644 0.892 -0.428 0.143 77 50 29 0 0
0.0055 -0.0788 -0.2694 0.650 -0.723 0.235 78 51 29 0 0
0.0058 -0.0790 -0.2709 0.898 -0.431 -0.083 80 54 31 0 0
0.0067 -0.0796 -0.2722 0.691 -0.723 0.022 81 54 30 0 0
0.0043 -0.0788 -0.2791 0.899 -0.422 0.119 92 65 38 0 0
0.0046 -0.0791 -0.2806 0.913 -0.290 0.287 91 64 37 0 0
-0.0518 -0.0556 -0.3498 0.167 -0.731 0.662 53 52 48 0 0
-0.0462 -0.0589 -0.3564 0.457 -0.695 0.556 82 78 75 0 0
-0.0457 -0.0593 -0.3579 0.579 -0.687 0.439 53 49 46 0 0
-0.0461 -0.0592 -0.3598 0.523 -0.838 0.153 38 32 31 0 0
-0.0764 -0.0481 -0.4174 0.609 -0.782 0.132 59 50 40 0 0
-0.0763 -0.0483 -0.4192 0.609 -0.782 0.132 55 45 37 0 0
-0.0761 -0.0485 -0.4210 0.694 -0.714 0.096 66 56 47 0 0
-0.0745 -0.0494 -0.4221 0.815 -0.577 0.055 65 55 44 0 0
-0.0797 -0.0475 -0.4316 0.935 -0.293 0.201 61 50 42 0 0
-0.0792 -0.0479 -0.4332 0.866 -0.473 0.160 77 66 59 0 0
-0.0803 -0.0480 -0.4429 0.790 -0.613 -0.009 52 43 41 0 0
-0.0814 -0.0478 -0.4471 0.909 -0.411 0.069 24 16 13 0 0
-0.0780 -0.0510 -0.4679 0.759 -0.529 0.380 14 11 10 0 0
-0.0775 -0.0514 -0.4696 0.759 -0.529 0.380 15 10 5 0 0
-0.0758 -0.0533 -0.4838 0.624 -0.727 0.287 78 63 42 0 0
-0.1016 -0.0462 -0.5651 0.013 -0.804 0.595 8 6 7 0 0
-0.0991 -0.0475 -0.5657 0.009 -0.982 0.190 8 6 7 0 0
-0.0987 -0.0479 -0.5675 0.009 -0.982 0.190 8 6 7 0 0
-0.0983 -0.0482 -0.5693 0.009 -0.982 0.190 9 7 8 0 0
-0.0912 -0.0527 -0.5815 0.467 -0.616 0.635 20 16 15 0 0
-0.0855 -0.0557 -0.5823 0.828 -0.222 0.515 22 19 19 0 0
-0.0635 -0.0691 -0.6136 0.828 -0.431 0.358 134 125 105 0 0
-0.0506 -0.0774 -0.6379 0.687 -0.617 0.384 39 29 20 0 0
-0.0518 -0.0771 -0.6407 0.737 -0.441 0.512 110 101 88 0 0
-0.0472 -0.0808 -0.6601 0.937 -0.269 0.222 41 32 22 0 0
-0.0480 -0.0812 -0.6709 0.757 -0.217 0.616 10 9 5 0 0
-0.0469 -0.0819 -0.6722 0.905 -0.394 -0.161 11 10 6 0 0
-0.0244 -0.0941 -0.6834 0.999 0.030 0.038 111 95 67 0 0
-0.0202 -0.0977 -0.7030 0.747 -0.571 0.341 120 103 64 0 0
-0.0202 -0.0995 -0.7279 0.945 -0.309 0.110 148 127 87 0 0
-0.0196 -0.0999 -0.7295 0.888 -0.438 0.140 161 144 102 0 0
-0.0211 -0.1019 -0.7667 0.855 -0.439 0.275 169 149 105 0 0
-0.0210 -0.1021 -0.7687 0.900 -0.375 0.223 165 144 100 0 0
-0.0220 -0.1039 -0.7998 0.922 -0.382 0.055 181 162 115 0 0
-0.0221 -0.1048 -0.8130 0.863 -0.490 0.123 167 149 101 0 0
-0.0221 -0.1050 -0.8152 0.811 -0.533 0.243 160 142 94 0 0
-0.0218 -0.1053 -0.8172 0.730 -0.428 0.533 171 153 105 0 0
-0.0243 -0.1055 -0.8371 0.959 -0.253 -0.125 160 142 99 0 0
-0.0245 -0.1055 -0.8395 0.954 -0.298 -0.014 151 134 97 0 0
0.0036 -0.0739 -0.1940 0.565 -0.744 0.358 36 23 14 0 0
0.0038 -0.0741 -0.1954 0.715 -0.541 0.443 37 24 15 0 0
0.0056 -0.0776 -0.2308 0.852 -0.510 0.120 48 32 17 0 0
0.0031 -0.0793 -0.2698 0.759 -0.290 0.582 77 51 29 0 0
0.0036 -0.0796 -0.2712 0.948 -0.204 0.246 83 57 34 0 0
0.0038 -0.0799 -0.2727 0.950 -0.070 0.305 84 58 34 0 0
0.0030 -0.0808 -0.2902 0.881 -0.472 0.046 105 80 49 0 0
0.0004 -0.0813 -0.3149 0.493 -0.852 -0.177 130 116 80 0 0
-0.0802 -0.0492 -0.4314 0.935 -0.293 0.201 40 31 26 0 0
-0.0799 -0.0494 -0.4331 0.935 -0.293 0.201 49 39 36 0 0
-0.0805 -0.0500 -0.4444 0.854 -0.508 0.112 49 39 37 0 0
-0.0819 -0.0499 -0.4524 0.940 -0.328 0.097 44 36 34 0 0
-0.0806 -0.0554 -0.5180 0.410 -0.876 -0.253 60 50 34 0 0
-0.0821 -0.0549 -0.5207 0.449 -0.808 -0.381 64 55 43 0 0
-0.1002 -0.0499 -0.5779 0.224 -0.843 0.488 11 9 10 0 0
-0.0498 -0.0808 -0.6510 0.840 -0.543 -0.010 20 12 5 0 0
-0.0492 -0.0816 -0.6567 0.792 -0.540 0.285 65 57 44 0 0
-0.0488 -0.0819 -0.6585 0.842 -0.470 0.263 42 34 24 0 0
-0.0469 -0.0832 -0.6633 0.742 -0.297 0.601 23 18 13 0 0
-0.0213 -0.0991 -0.7030 0.747 -0.571 0.341 150 133 90 0 0
-0.0208 -0.0995 -0.7047 0.747 -0.571 0.341 165 150 108 0 0
-0.0202 -0.0999 -0.7064 0.837 -0.507 0.206 159 144 101 0 0
-0.0200 -0.1002 -0.7083 0.931 -0.325 0.165 135 120 79 0 0
-0.0204 -0.1015 -0.7294 0.907 -0.407 0.111 156 137 95 0 0
-0.0201 -0.1020 -0.7333 0.938 -0.322 0.126 150 131 89 0 0
-0.0218 -0.1034 -0.7643 0.936 -0.313 0.159 137 119 71 0 0
-0.0219 -0.1035 -0.7665 0.855 -0.439 0.275 160 141 98 0 0
-0.0217 -0.1038 -0.7685 0.900 -0.375 0.223 164 145 101 0 0
-0.0217 -0.1040 -0.7706 0.832 -0.553 0.051 150 132 87 0 0
-0.0214 -0.1042 -0.7726 0.799 -0.602 -0.004 141 121 79 0 0
-0.0217 -0.1046 -0.7792 0.871 -0.491 0.030 151 132 89 0 0
-0.0212 -0.1050 -0.7810 0.814 -0.552 0.179 158 139 95 0 0
-0.0220 -0.1057 -0.7968 0.851 -0.495 0.174 158 137 93 0 0
-0.0227 -0.1056 -0.7996 0.902 -0.427 0.071 177 157 109 0 0
-0.0229 -0.1056 -0.8019 0.910 -0.413 0.047 174 156 108 0 0
-0.0216 -0.1064 -0.8030 0.889 -0.454 0.057 168 150 102 0 0
-0.0249 -0.1072 -0.8366 0.953 -0.286 -0.094 151 134 91 0 0
-0.0251 -0.1073 -0.8391 0.954 -0.298 -0.014 144 127 88 0 0
0.0041 -0.0762 -0.1996 0.869 -0.375 0.322 36 25 15 0 0
0.0011 -0.0749 -0.2017 0.690 -0.698 0.191 39 26 15 0 0
0.0049 -0.0789 -0.2292 0.863 -0.501 0.065 47 31 16 0 0
0.0050 -0.0790 -0.2307 0.906 -0.414 0.086 45 29 14 0 0
0.0019 -0.0804 -0.2699 0.847 -0.408 0.340 77 51 28 0 0
0.0010 -0.0802 -0.2732 0.798 -0.114 0.592 85 59 34 0 0
-0.0785 -0.0504 -0.4102 0.686 -0.616 0.388 43 38 29 0 0
-0.0788 -0.0504 -0.4121 0.660 -0.666 0.349 38 31 23 0 0
-0.0825 -0.0515 -0.4522 0.862 -0.490 0.132 37 31 28 0 0
-0.0841 -0.0519 -0.4679 0.809 -0.510 0.294 12 8 7 0 0
-0.0829 -0.0529 -0.4730 0.786 -0.611 0.091 16 12 9 0 0
-0.0765 -0.0581 -0.5002 0.927 -0.374 -0.042 89 74 55 0 0
-0.0765 -0.0584 -0.5040 0.946 -0.307 0.104 83 68 49 0 0
-0.0704 -0.0693 -0.6085 0.669 -0.696 0.259 48 41 31 0 0
-0.0565 -0.0777 -0.6262 0.825 -0.515 0.233 83 75 62 0 0
-0.0527 -0.0806 -0.6399 0.800 -0.441 0.407 100 92 76 0 0
-0.0534 -0.0804 -0.6424 0.857 -0.342 0.386 62 53 39 0 0
-0.0528 -0.0808 -0.6441 0.857 -0.342 0.386 61 52 39 0 0
-0.0224 -0.0997 -0.6908 0.848 -0.393 0.355 148 129 88 0 0
-0.0224 -0.1006 -0.7031 0.747 -0.571 0.341 150 134 92 0 0
-0.0219 -0.1010 -0.7048 0.747 -0.571 0.341 134 118 75 0 0
-0.0211 -0.1015 -0.7063 0.855 -0.458 0.243 146 130 88 0 0
-0.0211 -0.1016 -0.7084 0.852 -0.456 0.255 142 127 85 0 0
-0.0209 -0.1035 -0.7311 0.938 -0.322 0.126 167 149 103 0 0
-0.0207 -0.1037 -0.7330 0.938 -0.322 0.126 167 150 104 0 0
-0.0207 -0.1038 -0.7352 0.928 -0.295 0.229 170 152 108 0 0
-0.0224 -0.1051 -0.7640 0.936 -0.313 0.159 159 141 94 0 0
-0.0228 -0.1051 -0.7664 0.855 -0.439 0.275 165 147 100 0 0
-0.0226 -0.1060 -0.7770 0.912 -0.404 0.075 150 130 88 0 0
-0.0227 -0.1061 -0.7792 0.890 -0.444 0.105 142 123 80 0 0
-0.0226 -0.1063 -0.7813 0.898 -0.417 0.140 147 128 86 0 0
-0.0224 -0.1066 -0.7833 0.898 -0.417 0.140 144 125 83 0 0
-0.0253 -0.1087 -0.8317 0.780 -0.625 0.013 154 136 92 0 0
-0.0253 -0.1089 -0.8339 0.713 -0.683 0.157 156 138 92 0 0
-0.0254 -0.1091 -0.8362 0.953 -0.286 -0.094 154 137 92 0 0
-0.0255 -0.1092 -0.8385 0.851 -0.522 0.066 150 134 93 0 0
0.0035 -0.0776 -0.1994 0.909 -0.346 0.234 35 25 15 0 0
0.0036 -0.0778 -0.2009 0.907 -0.294 0.303 35 25 14 0 0
0.0040 -0.0781 -0.2023 0.907 -0.294 0.303 38 26 14 0 0
0.0044 -0.0784 -0.2037 0.907 -0.294 0.303 42 29 17 0 0
0.0043 -0.0804 -0.2306 0.906 -0.414 0.086 43 27 12 0 0
0.0019 -0.0793 -0.2328 0.810 -0.566 0.157 44 28 13 0 0
0.0010 -0.0818 -0.2714 0.582 -0.795 0.170 85 59 34 0 0
0.0018 -0.0839 -0.2947 0.661 -0.723 0.201 108 86 53 0 0
0.0020 -0.0842 -0.2962 0.661 -0.723 0.201 118 98 62 0 0
0.0010 -0.0844 -0.3060 0.879 -0.316 0.358 83 59 35 0 0
-0.0763 -0.0522 -0.3945 0.483 -0.831 -0.277 29 24 19 0 0
-0.0812 -0.0507 -0.4072 0.810 -0.219 0.544 37 28 23 0 0
-0.0792 -0.0533 -0.4282 0.970 -0.210 0.122 39 32 29 0 0
-0.0848 -0.0535 -0.4677 0.739 -0.659 0.139 14 10 9 0 0
-0.0772 -0.0598 -0.5000 0.927 -0.374 -0.042 89 74 55 0 0
-0.0774 -0.0599 -0.5039 0.927 -0.374 -0.042 73 58 39 0 0
-0.1054 -0.0493 -0.5494 0.241 -0.926 -0.290 5 5 5 0 0
-0.1069 -0.0487 -0.5522 0.258 -0.912 -0.319 6 6 6 0 0
-0.0958 -0.0565 -0.5802 0.689 -0.520 0.506 15 11 10 0 0
-0.0939 -0.0576 -0.5832 0.496 -0.837 0.230 18 14 13 0 0
-0.0821 -0.0647 -0.5987 0.443 -0.259 0.858 62 57 49 0 0
-0.0681 -0.0727 -0.6105 0.832 -0.383 0.402 100 89 77 0 0
-0.0593 -0.0781 -0.6232 0.711 -0.463 0.529 74 67 51 0 0
-0.0550 -0.0811 -0.6347 0.877 -0.420 0.232 97 89 79 0 0
-0.0559 -0.0808 -0.6373 0.765 -0.334 0.551 113 107 94 0 0
-0.0548 -0.0816 -0.6407 0.822 -0.449 0.349 65 57 42 0 0
-0.0541 -0.0821 -0.6422 0.880 -0.269 0.391 49 39 28 0 0
-0.0232 -0.1013 -0.6906 0.848 -0.393 0.355 143 123 85 0 0
-0.0235 -0.1021 -0.7032 0.761 -0.530 0.375 150 135 93 0 0
-0.0227 -0.1026 -0.7047 0.852 -0.456 0.255 167 149 105 0 0
-0.0223 -0.1029 -0.7065 0.852 -0.456 0.255 166 149 104 0 0
-0.0215 -0.1051 -0.7308 0.938 -0.322 0.126 162 145 98 0 0
-0.0230 -0.1069 -0.7637 0.936 -0.313 0.159 158 140 94 0 0
-0.0235 -0.1070 -0.7683 0.924 -0.338 0.177 171 153 103 0 0
-0.0234 -0.1081 -0.7833 0.818 -0.572 0.066 147 128 84 0 0
-0.0232 -0.1095 -0.8005 0.891 -0.452 0.046 172 154 107 0 0
-0.0263 -0.1105 -0.8339 0.878 -0.479 0.018 165 148 101 0 0
-0.0264 -0.1106 -0.8362 0.878 -0.479 0.018 158 141 96 0 0
-0.0265 -0.1107 -0.8385 0.851 -0.522 0.066 153 137 95 0 0
-0.0354 -0.1077 -0.8574 0.792 -0.606 0.077 9 10 7 0 0
0.0026 -0.0779 -0.1861 0.624 -0.618 0.478 38 27 16 0 0
0.0033 -0.0783 -0.1875 0.624 -0.618 0.478 39 28 17 0 0
0.0034 -0.0797 -0.2052 0.908 -0.396 0.135 39 26 16 0 0
0.0036 -0.0799 -0.2066 0.756 -0.603 0.255 41 28 18 0 0
0.0037 -0.0800 -0.2081 0.763 -0.621 0.179 43 30 19 0 0
0.0035 -0.0801 -0.2096 0.718 -0.693 0.064 43 29 18 0 0
0.0035 -0.0802 -0.2111 0.785 -0.592 0.181 42 28 17 0 0
0.0035 -0.0816 -0.2291 0.939 -0.332 0.083 46 30 16 0 0
0.0010 -0.0806 -0.2327 0.820 -0.390 0.419 45 29 14 0 0
0.0028 -0.0831 -0.2536 0.893 -0.396 0.213 74 52 31 0 0
0.0031 -0.0834 -0.2566 0.929 -0.184 0.320 70 44 24 0 0
0.0035 -0.0837 -0.2580 0.922 -0.333 0.200 68 43 23 0 0
0.0042 -0.0843 -0.2609 0.837 -0.542 -0.073 70 44 24 0 0
0.0008 -0.0855 -0.2994 0.830 -0.557 -0.016 115 94 62 0 0
0.0008 -0.0857 -0.3010 0.721 -0.606 0.336 113 91 59 0 0
-0.0005 -0.0857 -0.3094 0.873 -0.342 0.346 81 58 32 0 0
-0.0736 -0.0551 -0.3895 0.309 -0.903 0.299 24 19 16 0 0
-0.0840 -0.0564 -0.4744 0.850 -0.344 0.399 31 25 21 0 0
-0.0750 -0.0620 -0.4890 0.982 -0.163 0.097 67 53 36 0 0
-0.0781 -0.0616 -0.5037 0.927 -0.374 -0.042 78 65 45 0 0
-0.1012 -0.0565 -0.5888 0.280 -0.683 0.675 22 19 18 0 0
-0.0877 -0.0639 -0.5973 0.401 -0.783 0.476 53 49 43 0 0
-0.0676 -0.0752 -0.6136 0.654 -0.483 0.582 135 126 110 0 0
-0.0566 -0.0825 -0.6371 0.780 -0.281 0.559 87 82 70 0 0
-0.0562 -0.0828 -0.6388 0.684 -0.509 0.523 62 56 45 0 0
-0.0231 -0.1031 -0.6878 0.936 -0.321 0.142 157 138 97 0 0
-0.0239 -0.1029 -0.6905 0.906 -0.320 0.276 141 122 82 0 0
-0.0234 -0.1042 -0.7045 0.891 -0.409 0.195 165 148 104 0 0
-0.0231 -0.1045 -0.7063 0.884 -0.423 0.198 169 152 108 0 0
-0.0228 -0.1048 -0.7082 0.852 -0.456 0.255 158 141 96 0 0
-0.0226 -0.1050 -0.7101 0.891 -0.409 0.195 147 129 87 0 0
-0.0223 -0.1055 -0.7140 0.938 -0.224 0.263 138 120 77 0 0
-0.0244 -0.1079 -0.7597 0.945 -0.327 0.016 161 142 99 0 0
-0.0239 -0.1083 -0.7614 0.936 -0.313 0.159 157 138 94 0 0
-0.0239 -0.1088 -0.7679 0.909 -0.388 0.151 170 152 102 0 0
-0.0242 -0.1098 -0.7831 0.771 -0.624 0.126 142 125 81 0 0
-0.0258 -0.1104 -0.8018 0.771 -0.637 0.018 170 152 104 0 0
-0.0262 -0.1106 -0.8065 0.809 -0.437 0.393 170 152 104 0 0
-0.0239 -0.1120 -0.8112 0.781 -0.431 0.452 165 147 99 0 0
-0.0278 -0.1117 -0.8321 0.610 -0.783 0.119 167 149 103 0 0
-0.0277 -0.1119 -0.8342 0.618 -0.776 0.126 166 148 103 0 0
-0.0275 -0.1122 -0.8363 0.668 -0.744 -0.034 155 138 94 0 0
-0.0288 -0.1118 -0.8397 0.567 -0.785 0.250 146 129 87 0 0
-0.0353 -0.1098 -0.8565 0.895 -0.444 0.035 9 10 8 0 0
0.0015 -0.0790 -0.1862 0.756 -0.470 0.455 36 26 14 0 0
0.0023 -0.0794 -0.1875 0.766 -0.353 0.537 37 27 15 0 0
0.0004 -0.0788 -0.1923 0.301 -0.521 0.799 41 31 20 0 0
0.0033 -0.0805 -0.1946 0.960 -0.279 0.008 37 27 17 0 0
-0.0043 -0.0778 -0.2081 0.906 -0.414 0.084 39 26 17 0 0
0.0019 -0.0832 -0.2398 0.815 -0.369 0.447 57 35 21 0 0
0.0023 -0.0863 -0.2767 0.886 -0.456 -0.083 82 56 29 0 0
0.0002 -0.0857 -0.2835 0.990 -0.127 0.056 89 63 33 0 0
0.0005 -0.0862 -0.2882 0.906 -0.421 -0.035 87 61 34 0 0
-0.0002 -0.0869 -0.3010 0.721 -0.606 0.336 112 94 60 0 0
-0.0029 -0.0867 -0.3162 0.894 -0.347 0.282 114 96 62 0 0
-0.0647 -0.0584 -0.3491 0.509 -0.509 0.695 60 57 54 0 0
-0.0803 -0.0561 -0.4205 0.945 -0.327 0.026 34 28 26 0 0
-0.0803 -0.0562 -0.4223 0.945 -0.327 0.026 29 23 20 0 0
-0.0805 -0.0569 -0.4334 0.866 -0.500 0.006 63 53 38 0 0
-0.0806 -0.0571 -0.4352 0.866 -0.500 0.006 72 62 45 0 0
-0.0912 -0.0538 -0.4622 0.585 -0.556 0.591 10 8 6 0 0
-0.0908 -0.0541 -0.4639 0.675 -0.359 0.645 7 5 5 0 0
-0.0860 -0.0571 -0.4711 0.789 -0.431 0.437 34 29 25 0 0
-0.1185 -0.0476 -0.5591 0.234 -0.970 -0.064 9 7 8 0 0
-0.1192 -0.0475 -0.5615 0.289 -0.952 -0.096 8 7 7 0 0
-0.1197 -0.0474 -0.5638 0.289 -0.952 -0.096 8 8 8 0 0
-0.1202 -0.0473 -0.5661 0.289 -0.952 -0.096 9 9 9 0 0
-0.1190 -0.0485 -0.5736 0.000 -1.000 0.020 4 4 4 0 0
-0.1170 -0.0499 -0.5786 -0.214 -0.937 0.276 6 4 5 0 0
-0.0879 -0.0658 -0.5968 0.365 -0.465 0.806 55 50 44 0 0
-0.0861 -0.0667 -0.5978 0.445 -0.149 0.883 57 52 45 0 0
-0.0706 -0.0755 -0.6108 0.548 -0.575 0.607 150 142 129 0 0
-0.0641 -0.0794 -0.6189 0.693 -0.620 0.368 108 100 89 0 0
-0.0245 -0.1043 -0.6861 0.879 -0.476 0.042 163 141 100 0 0
-0.0236 -0.1065 -0.7101 0.919 -0.389 0.070 151 132 89 0 0
-0.0250 -0.1096 -0.7594 0.945 -0.327 0.016 169 151 105 0 0
-0.0257 -0.1095 -0.7620 0.801 -0.492 0.341 164 146 99 0 0
-0.0251 -0.1099 -0.7637 0.813 -0.481 0.328 168 150 102 0 0
-0.0246 -0.1103 -0.7655 0.813 -0.481 0.328 170 152 102 0 0
-0.0257 -0.1106 -0.7770 0.764 -0.592 0.255 158 136 94 0 0
-0.0253 -0.1113 -0.7832 0.891 -0.430 0.147 127 110 68 0 0
0.0015 -0.0803 -0.1816 0.640 -0.651 0.408 46 34 22 0 0
0.0020 -0.0806 -0.1829 0.557 -0.726 0.404 47 36 24 0 0
0.0017 -0.0806 -0.1844 0.650 -0.509 0.564 42 32 20 0 0
0.0018 -0.0810 -0.1888 0.895 -0.420 0.150 37 27 15 0 0
0.0019 -0.0832 -0.2169 0.778 -0.513 0.363 38 26 17 0 0
0.0024 -0.0835 -0.2183 0.778 -0.513 0.363 40 27 16 0 0
0.0022 -0.0836 -0.2199 0.784 -0.385 0.487 43 29 18 0 0
0.0027 -0.0839 -0.2213 0.763 -0.494 0.418 46 32 20 0 0
0.0036 -0.0860 -0.2422 0.874 -0.269 0.406 52 32 17 0 0
0.0025 -0.0857 -0.2455 0.848 -0.433 0.307 55 34 17 0 0
0.0029 -0.0860 -0.2469 0.848 -0.433 0.307 63 41 24 0 0
0.0014 -0.0872 -0.2720 0.941 -0.273 0.198 86 60 33 0 0
0.0016 -0.0875 -0.2750 0.893 -0.444 -0.071 86 60 33 0 0
0.0014 -0.0876 -0.2766 0.893 -0.444 -0.071 81 55 28 0 0
-0.0018 -0.0881 -0.3044 0.891 -0.427 0.155 110 93 63 0 0
-0.0030 -0.0885 -0.3176 0.770 -0.336 0.543 108 92 59 0 0
-0.0659 -0.0597 -0.3492 0.509 -0.509 0.695 77 74 70 0 0
-0.0600 -0.0636 -0.3626 0.246 -0.964 -0.101 95 91 83 0 0
-0.0801 -0.0560 -0.3930 0.767 -0.588 -0.256 28 23 19 0 0
-0.0810 -0.0557 -0.3951 0.807 -0.527 -0.266 34 29 25 0 0
-0.0803 -0.0581 -0.4219 0.966 -0.056 0.254 26 23 17 0 0
-0.0822 -0.0578 -0.4300 0.912 -0.375 0.166 63 52 37 0 0
-0.0808 -0.0597 -0.4459 0.837 -0.542 0.071 78 70 58 0 0
-0.0931 -0.0549 -0.4625 0.603 -0.471 0.644 21 20 20 0 0
-0.0765 -0.0652 -0.4887 0.905 -0.233 0.357 64 50 33 0 0
-0.0781 -0.0647 -0.4932 0.832 -0.553 -0.031 74 59 40 0 0
-0.0819 -0.0635 -0.5027 0.922 -0.237 0.305 73 60 41 0 0
-0.1230 -0.0481 -0.5671 0.289 -0.952 -0.096 8 8 8 0 0
-0.1114 -0.0552 -0.5851 -0.101 -0.558 0.824 13 12 10 0 0
-0.0978 -0.0627 -0.5937 0.457 -0.585 0.670 45 41 38 0 0
-0.0960 -0.0637 -0.5947 0.299 -0.267 0.916 47 44 39 0 0
-0.0845 -0.0696 -0.5982 0.376 -0.082 0.923 69 64 58 0 0
-0.0818 -0.0710 -0.5987 0.542 -0.604 0.584 85 78 70 0 0
-0.0803 -0.0718 -0.5998 0.589 -0.422 0.689 79 70 66 0 0
-0.0796 -0.0723 -0.6014 0.458 -0.645 0.612 50 44 41 0 0
-0.0717 -0.0768 -0.6088 0.721 -0.509 0.470 109 101 90 0 0
-0.0686 -0.0788 -0.6150 0.845 -0.359 0.396 58 50 41 0 0
-0.0664 -0.0800 -0.6156 0.806 -0.302 0.508 61 54 44 0 0
-0.0659 -0.0804 -0.6173 0.756 -0.501 0.421 72 65 54 0 0
-0.0643 -0.0814 -0.6204 0.844 -0.458 0.277 77 70 58 0 0
-0.0632 -0.0822 -0.6238 0.891 -0.326 0.317 60 55 45 0 0
-0.0240 -0.1056 -0.6748 0.927 -0.249 0.282 152 135 91 0 0
-0.0252 -0.1053 -0.6777 0.872 -0.484 0.080 140 121 79 0 0
-0.0251 -0.1054 -0.6797 0.872 -0.484 0.080 163 141 101 0 0
-0.0248 -0.1057 -0.6815 0.835 -0.526 0.164 160 138 100 0 0
-0.0246 -0.1061 -0.6855 0.821 -0.539 0.188 158 138 96 0 0
-0.0251 -0.1062 -0.6899 0.832 -0.509 0.222 162 144 101 0 0
-0.0243 -0.1082 -0.7099 0.919 -0.389 0.070 161 144 96 0 0
-0.0241 -0.1084 -0.7118 0.853 -0.511 0.102 155 140 94 0 0
-0.0266 -0.1110 -0.7620 0.801 -0.492 0.341 164 146 98 0 0
-0.0266 -0.1122 -0.7770 0.762 -0.546 0.348 172 151 104 0 0
-0.0263 -0.1127 -0.7811 0.837 -0.537 0.104 169 151 104 0 0
-0.0261 -0.1129 -0.7831 0.891 -0.430 0.147 147 129 85 0 0
-0.0254 -0.1146 -0.7998 0.841 -0.250 0.479 168 150 100 0 0
-0.0274 -0.1140 -0.8058 0.798 -0.564 0.212 172 154 106 0 0
-0.0008 -0.0830 -0.2099 0.870 -0.491 -0.052 45 35 25 0 0
-0.0008 -0.0831 -0.2114 0.787 -0.616 0.020 47 37 29 0 0
0.0013 -0.0843 -0.2139 0.678 -0.554 0.483 53 44 34 0 0
0.0014 -0.0845 -0.2153 0.838 -0.267 0.476 50 41 31 0 0
0.0015 -0.0849 -0.2198 0.921 -0.116 0.371 44 32 22 0 0
0.0014 -0.0851 -0.2228 0.884 -0.260 0.388 42 28 15 0 0
0.0031 -0.0874 -0.2420 0.874 -0.269 0.406 51 32 17 0 0
0.0024 -0.0874 -0.2468 0.772 -0.486 0.411 62 42 24 0 0
-0.0018 -0.0903 -0.3104 0.933 -0.211 0.291 78 51 25 0 0
-0.0021 -0.0903 -0.3121 0.963 -0.255 0.090 77 51 25 0 0
-0.0624 -0.0629 -0.3442 0.639 -0.080 -0.765 64 59 53 0 0
-0.0667 -0.0613 -0.3508 0.407 -0.703 0.583 74 73 69 0 0
-0.0657 -0.0618 -0.3522 0.407 -0.703 0.583 65 64 62 0 0
-0.0632 -0.0633 -0.3548 0.283 -0.916 0.284 36 32 31 0 0
-0.0820 -0.0570 -0.3933 0.929 -0.339 -0.147 31 26 21 0 0
-0.0826 -0.0595 -0.4297 0.916 -0.324 0.235 71 59 38 0 0
-0.0826 -0.0597 -0.4315 0.940 -0.321 0.113 75 63 41 0 0
-0.0835 -0.0605 -0.4485 0.897 -0.307 -0.317 56 50 39 0 0
-0.0950 -0.0557 -0.4592 0.346 -0.922 -0.175 52 49 46 0 0
-0.0945 -0.0562 -0.4627 0.675 -0.478 0.563 36 35 36 0 0
-0.0896 -0.0591 -0.4699 0.398 -0.672 0.625 24 19 18 0 0
-0.1253 -0.0489 -0.5657 0.289 -0.952 -0.096 14 14 15 0 0
-0.1258 -0.0488 -0.5680 0.289 -0.952 -0.096 18 19 19 0 0
-0.1263 -0.0488 -0.5703 0.233 -0.970 -0.068 33 33 33 0 0
-0.1274 -0.0486 -0.5750 -0.123 -0.990 0.073 34 34 34 0 0
-0.1205 -0.0530 -0.5876 -0.144 -0.732 0.665 13 12 10 0 0
-0.1183 -0.0541 -0.5884 -0.144 -0.732 0.665 13 12 10 0 0
-0.1160 -0.0553 -0.5892 -0.162 -0.775 0.611 14 13 11 0 0
-0.1137 -0.0566 -0.5899 -0.143 -0.840 0.524 15 14 12 0 0
-0.1091 -0.0591 -0.5935 0.046 -0.729 0.683 36 32 31 0 0
-0.0833 -0.0723 -0.5989 0.336 -0.841 0.425 65 61 52 0 0
-0.0824 -0.0729 -0.6004 0.344 -0.837 0.426 52 45 41 0 0
-0.0803 -0.0741 -0.6032 0.481 -0.741 0.468 39 36 32 0 0
-0.0688 -0.0807 -0.6145 0.909 -0.290 0.299 57 50 42 0 0
-0.0250 -0.1069 -0.6729 0.926 -0.264 0.270 158 139 98 0 0
-0.0241 -0.1077 -0.6763 0.927 -0.249 0.282 152 132 90 0 0
-0.0246 -0.1076 -0.6787 0.903 -0.299 0.310 159 137 96 0 0
-0.0257 -0.1076 -0.6855 0.892 -0.441 0.095 170 152 110 0 0
-0.0252 -0.1095 -0.7078 0.889 -0.401 0.222 149 130 88 0 0
-0.0248 -0.1099 -0.7095 0.779 -0.610 0.146 176 158 112 0 0
-0.0266 -0.1120 -0.7485 0.906 -0.412 0.094 174 153 106 0 0
-0.0261 -0.1124 -0.7502 0.817 -0.565 0.112 168 147 101 0 0
-0.0265 -0.1126 -0.7548 0.851 -0.525 0.034 165 145 98 0 0
-0.0269 -0.1127 -0.7593 0.854 -0.520 0.027 169 151 106 0 0
-0.0269 -0.1131 -0.7635 0.784 -0.605 0.136 164 145 99 0 0
-0.0274 -0.1145 -0.7854 0.770 -0.627 0.118 156 135 93 0 0
-0.0286 -0.1155 -0.8059 0.905 -0.355 0.236 169 151 103 0 0
-0.0378 -0.1154 -0.8628 0.918 -0.300 0.258 19 17 15 0 0
0.0002 -0.0866 -0.2289 0.903 -0.220 0.368 44 26 15 0 0
0.0009 -0.0903 -0.2715 0.862 -0.491 -0.128 85 59 32 0 0
-0.0039 -0.0898 -0.2949 0.925 -0.150 0.349 135 118 81 0 0
-0.0036 -0.0901 -0.2964 0.847 -0.123 0.517 135 123 86 0 0
-0.0826 -0.0587 -0.3949 0.883 -0.379 0.277 26 22 18 0 0
-0.0810 -0.0605 -0.4069 0.797 -0.256 0.547 17 15 12 0 0
-0.0803 -0.0609 -0.4084 0.837 -0.220 0.501 17 13 12 0 0
-0.0816 -0.0624 -0.4362 0.917 -0.300 0.265 85 73 49 0 0
-0.1320 -0.0476 -0.5646 0.852 -0.298 0.430 72 73 75 0 0
-0.1313 -0.0481 -0.5662 0.852 -0.298 0.430 112 113 115 0 0
-0.1324 -0.0477 -0.5689 0.859 -0.502 -0.105 140 141 143 0 0
-0.1328 -0.0477 -0.5711 0.858 -0.255 -0.446 142 143 145 0 0
-0.1324 -0.0481 -0.5729 0.471 -0.719 -0.511 165 166 168 0 0
-0.1351 -0.0470 -0.5764 0.454 -0.643 -0.617 148 149 151 0 0
-0.1159 -0.0572 -0.5865 -0.094 -0.301 0.949 14 12 12 0 0
-0.1082 -0.0615 -0.5923 0.630 0.032 0.776 32 28 25 0 0
-0.0819 -0.0754 -0.6036 0.481 -0.741 0.468 62 57 54 0 0
-0.0701 -0.0819 -0.6126 0.813 -0.297 0.502 71 62 52 0 0
-0.0685 -0.0828 -0.6137 0.841 -0.401 0.362 59 51 44 0 0
-0.0258 -0.1076 -0.6606 0.951 -0.280 -0.127 144 125 84 0 0
-0.0258 -0.1078 -0.6626 0.980 -0.198 -0.013 141 123 79 0 0
-0.0262 -0.1077 -0.6649 0.918 -0.394 0.046 136 114 72 0 0
-0.0265 -0.1092 -0.6854 0.892 -0.441 0.095 154 135 92 0 0
-0.0276 -0.1144 -0.7591 0.847 -0.519 0.119 160 141 98 0 0
-0.0269 -0.1181 -0.8016 0.812 -0.403 0.422 169 151 103 0 0
-0.0324 -0.1181 -0.8370 0.901 -0.414 -0.131 159 142 98 0 0
-0.0328 -0.1181 -0.8395 0.935 -0.344 -0.082 156 141 95 0 0
-0.0385 -0.1171 -0.8624 0.918 -0.300 0.258 17 15 14 0 0
-0.0406 -0.1164 -0.8666 0.998 -0.066 0.014 41 38 33 0 0
-0.0020 -0.0842 -0.1904 0.524 -0.848 0.078 42 32 22 0 0
-0.0020 -0.0843 -0.1919 0.594 -0.804 0.045 42 32 22 0 0
-0.0013 -0.0877 -0.2305 0.630 -0.671 0.391 42 25 14 0 0
