ply
format ascii 1.0
element vertex 859
property float x
property float y
property float z
property float nx
property float ny
property float nz
property uchar diffuse_red
property uchar diffuse_green
property uchar diffuse_blue
property uchar class
property uchar detection
end_header
-0.1220 0.0109 -0.2815 -0.475 0.678 0.561 71 56 41 0 0
-0.1227 0.0115 -0.2827 -0.713 0.574 0.403 89 78 60 0 0
-0.1234 0.0122 -0.2839 -0.703 0.453 0.548 80 73 58 0 0
-0.1239 0.0127 -0.2852 -0.698 0.357 0.621 64 56 42 0 0
-0.1246 0.0134 -0.2863 -0.549 0.554 0.626 62 54 42 0 0
-0.1252 0.0140 -0.2876 -0.625 0.527 0.576 64 54 44 0 0
-0.1261 0.0149 -0.2887 -0.666 0.470 0.579 61 50 40 0 0
-0.1263 0.0151 -0.2900 -0.664 0.594 0.454 60 50 40 0 0
-0.1270 0.0158 -0.2912 -0.769 0.468 0.436 81 72 61 0 0
-0.1278 0.0165 -0.2923 -0.595 0.545 0.590 85 75 63 0 0
-0.1283 0.0171 -0.2936 -0.517 0.559 0.649 89 79 66 0 0
-0.1374 0.0258 -0.3045 -0.641 0.469 0.608 228 205 161 0 0
-0.1380 0.0264 -0.3057 -0.641 0.469 0.608 225 207 165 0 0
-0.1441 0.0323 -0.3148 -0.731 0.393 0.558 141 124 97 0 0
-0.1444 0.0327 -0.3161 -0.588 0.706 0.394 67 51 27 0 0
-0.1449 0.0332 -0.3187 -0.718 0.648 0.256 82 67 45 0 0
-0.1453 0.0336 -0.3200 -0.433 0.828 0.357 82 66 45 0 0
-0.1457 0.0340 -0.3213 -0.433 0.828 0.357 79 63 41 0 0
-0.1467 0.0350 -0.3223 -0.445 0.680 0.582 83 68 45 0 0
-0.1480 0.0369 -0.3464 -0.396 0.881 -0.259 72 61 41 0 0
-0.1457 0.0351 -0.3608 -0.456 0.649 0.609 30 24 15 0 0
-0.1459 0.0353 -0.3622 -0.698 0.528 0.483 53 40 29 0 0
-0.1536 0.0429 -0.3764 -0.655 0.403 0.639 90 80 50 0 0
-0.1542 0.0434 -0.3776 -0.607 0.716 0.345 98 86 64 0 0
-0.1568 0.0462 -0.3868 -0.778 0.565 0.274 86 71 47 0 0
-0.1571 0.0464 -0.3881 -0.705 0.346 0.619 72 56 34 0 0
-0.1575 0.0468 -0.3894 -0.524 0.550 0.650 65 46 26 0 0
-0.1579 0.0473 -0.3907 -0.413 0.593 0.691 60 39 20 0 0
-0.1588 0.0481 -0.3918 -0.498 0.633 0.593 66 48 29 0 0
-0.1594 0.0487 -0.3930 -0.472 0.627 0.620 75 58 36 0 0
-0.1596 0.0489 -0.3944 -0.488 0.699 0.523 90 74 50 0 0
-0.1671 0.0564 -0.4115 -0.761 0.621 0.188 64 47 27 0 0
-0.1673 0.0566 -0.4129 -0.591 0.803 0.077 77 61 41 0 0
-0.1679 0.0572 -0.4156 -0.542 0.835 0.093 85 71 48 0 0
-0.1686 0.0579 -0.4183 -0.513 0.774 0.371 83 68 45 0 0
-0.1690 0.0583 -0.4196 -0.411 0.755 0.511 89 75 50 0 0
-0.1695 0.0589 -0.4208 -0.411 0.755 0.511 73 58 33 0 0
-0.1700 0.0594 -0.4220 -0.556 0.665 0.498 89 73 48 0 0
-0.1707 0.0601 -0.4231 -0.633 0.542 0.553 85 69 44 0 0
-0.1713 0.0607 -0.4243 -0.633 0.542 0.553 93 77 52 0 0
-0.1724 0.0618 -0.4267 -0.393 0.557 0.732 79 62 30 0 0
-0.1730 0.0623 -0.4279 -0.467 0.529 0.709 80 62 29 0 0
-0.1775 0.0672 -0.4499 -0.540 0.568 0.621 34 27 22 0 0
-0.1772 0.0669 -0.4517 -0.661 0.611 0.435 47 39 33 0 0
-0.1529 0.0464 -0.5350 -0.670 0.472 0.573 19 16 13 0 0
-0.1660 0.0601 -0.5889 -0.710 0.577 0.403 90 82 65 0 0
-0.1660 0.0602 -0.5907 -0.508 0.754 0.417 48 41 23 0 0
-0.1668 0.0610 -0.5954 -0.282 0.781 0.557 73 66 49 0 0
-0.1674 0.0616 -0.5966 -0.321 0.856 0.406 49 42 25 0 0
-0.1658 0.0604 -0.6050 -0.865 0.494 -0.085 65 55 40 0 0
-0.1653 0.0600 -0.6108 -0.540 0.829 0.147 76 68 54 0 0
-0.1644 0.0593 -0.6134 -0.536 0.830 -0.157 79 71 60 0 0
-0.1643 0.0592 -0.6153 -0.496 0.826 -0.267 76 68 57 0 0
-0.1574 0.0532 -0.6321 -0.752 0.659 -0.011 85 74 63 0 0
-0.1574 0.0532 -0.6340 -0.752 0.659 -0.011 60 51 40 0 0
-0.1563 0.0523 -0.6368 -0.423 0.861 -0.284 45 36 27 0 0
-0.1558 0.0519 -0.6390 -0.421 0.822 -0.383 39 32 25 0 0
-0.1483 0.0454 -0.6569 -0.600 0.703 0.383 17 13 11 0 0
-0.1613 0.0581 -0.6808 -0.652 0.702 0.286 30 25 19 0 0
-0.1613 0.0582 -0.6827 -0.655 0.708 0.264 29 24 19 0 0
-0.1616 0.0585 -0.6843 -0.655 0.708 0.264 21 18 13 0 0
-0.1620 0.0589 -0.6858 -0.736 0.667 0.115 20 16 13 0 0
-0.1618 0.0588 -0.6878 -0.776 0.540 0.326 28 24 21 0 0
-0.1829 0.0797 -0.7319 -0.360 0.472 0.805 86 73 54 0 0
-0.1825 0.0793 -0.7343 -0.664 0.746 0.051 91 78 61 0 0
-0.1783 0.0757 -0.7446 -0.858 0.506 -0.089 75 63 45 0 0
-0.1778 0.0753 -0.7471 -0.737 0.660 -0.146 73 62 44 0 0
-0.1758 0.0736 -0.7512 -0.468 0.849 -0.247 63 53 40 0 0
-0.1630 0.0625 -0.7853 -0.749 -0.431 0.502 26 18 11 0 0
-0.1702 0.0695 -0.7957 -0.389 0.746 0.541 46 37 20 0 0
-0.1718 0.0711 -0.7979 -0.548 0.555 0.626 86 71 50 0 0
-0.1730 0.0722 -0.8007 -0.794 0.471 0.384 69 55 36 0 0
-0.1734 0.0727 -0.8022 -0.794 0.471 0.384 67 54 35 0 0
-0.1844 0.0841 -0.8476 -0.797 0.598 0.080 135 120 84 0 0
-0.0300 -0.0741 -0.2336 -0.938 -0.141 0.317 95 80 57 0 0
-0.0315 -0.0724 -0.2469 -0.640 0.745 0.188 36 26 18 0 0
-0.1030 -0.0053 -0.2646 -0.318 0.758 0.569 150 134 112 0 0
-0.1179 0.0087 -0.2726 -0.841 0.408 0.355 77 64 49 0 0
-0.1193 0.0102 -0.2764 -0.667 0.432 0.607 48 33 19 0 0
-0.1196 0.0104 -0.2777 -0.611 0.541 0.577 71 58 45 0 0
-0.1221 0.0129 -0.2840 -0.482 0.774 0.411 68 58 43 0 0
-0.1226 0.0134 -0.2853 -0.496 0.679 0.542 61 52 37 0 0
-0.1233 0.0141 -0.2864 -0.570 0.555 0.606 76 67 54 0 0
-0.1241 0.0149 -0.2876 -0.578 0.461 0.673 80 69 57 0 0
-0.1249 0.0157 -0.2887 -0.631 0.345 0.694 102 91 80 0 0
-0.1257 0.0165 -0.2899 -0.631 0.345 0.694 98 88 77 0 0
-0.1266 0.0174 -0.2924 -0.878 0.250 0.409 106 97 81 0 0
-0.1269 0.0177 -0.2937 -0.845 0.385 0.372 101 92 77 0 0
-0.1277 0.0185 -0.2949 -0.670 0.432 0.604 90 81 67 0 0
-0.1284 0.0191 -0.2961 -0.670 0.432 0.604 87 77 66 0 0
-0.1431 0.0333 -0.3147 -0.777 0.551 0.304 73 59 36 0 0
-0.1434 0.0337 -0.3160 -0.699 0.665 0.264 63 48 32 0 0
-0.1436 0.0338 -0.3174 -0.805 0.518 0.290 54 42 29 0 0
-0.1444 0.0347 -0.3200 -0.855 0.378 0.354 50 40 30 0 0
-0.1447 0.0350 -0.3212 -0.855 0.378 0.354 58 48 36 0 0
-0.1470 0.0378 -0.3450 -0.308 0.951 0.004 88 76 59 0 0
-0.1466 0.0375 -0.3466 -0.432 0.888 -0.158 69 58 48 0 0
-0.1459 0.0373 -0.3647 -0.850 0.484 0.206 65 51 38 0 0
-0.1463 0.0378 -0.3660 -0.866 0.377 0.328 75 62 45 0 0
-0.1514 0.0428 -0.3770 -0.744 0.397 0.537 88 78 48 0 0
-0.1556 0.0470 -0.3869 -0.778 0.456 0.432 76 58 36 0 0
-0.1560 0.0474 -0.3882 -0.788 0.423 0.447 66 46 27 0 0
-0.1565 0.0479 -0.3894 -0.549 0.551 0.629 74 52 34 0 0
-0.1587 0.0501 -0.3943 -0.891 0.257 0.375 75 60 36 0 0
-0.1591 0.0505 -0.3956 -0.905 0.273 0.325 81 63 38 0 0
-0.1595 0.0508 -0.3969 -0.913 0.297 0.281 79 63 37 0 0
-0.1602 0.0515 -0.3980 -0.796 0.322 0.513 87 74 48 0 0
-0.1662 0.0575 -0.4114 -0.710 0.665 0.232 60 43 24 0 0
-0.1670 0.0584 -0.4155 -0.492 0.855 0.163 84 71 49 0 0
-0.1684 0.0597 -0.4193 -0.362 0.810 0.460 83 69 43 0 0
-0.1682 0.0597 -0.4209 -0.411 0.755 0.511 86 71 43 0 0
-0.1697 0.0611 -0.4232 -0.499 0.544 0.674 77 59 33 0 0
-0.1705 0.0618 -0.4242 -0.520 0.610 0.598 79 63 38 0 0
-0.1741 0.0657 -0.4405 -0.620 0.761 0.190 49 32 14 0 0
-0.1741 0.0657 -0.4436 -0.618 0.772 0.149 49 36 26 0 0
-0.1755 0.0672 -0.4490 -0.454 0.746 0.487 28 21 14 0 0
-0.1759 0.0676 -0.4518 -0.511 0.736 0.443 31 23 17 0 0
-0.1765 0.0682 -0.4530 -0.853 0.349 0.388 31 22 17 0 0
-0.1501 0.0458 -0.5329 -0.875 0.292 0.386 36 32 31 0 0
-0.1524 0.0485 -0.5500 -0.829 0.471 0.302 25 21 20 0 0
-0.1624 0.0587 -0.5839 -0.597 0.554 0.580 83 75 64 0 0
-0.1647 0.0609 -0.5874 -0.902 0.418 0.104 108 98 82 0 0
-0.1644 0.0607 -0.5894 -0.742 0.589 0.321 96 87 69 0 0
-0.1647 0.0610 -0.5909 -0.587 0.739 0.332 61 51 35 0 0
-0.1653 0.0617 -0.5957 -0.282 0.781 0.557 73 65 51 0 0
-0.1650 0.0615 -0.5995 -0.826 0.469 0.312 96 84 68 0 0
-0.1547 0.0530 -0.6372 -0.395 0.861 -0.321 37 29 22 0 0
-0.1542 0.0526 -0.6395 -0.402 0.829 -0.388 34 27 19 0 0
-0.1471 0.0465 -0.6570 -0.726 0.437 0.531 16 12 10 0 0
-0.1596 0.0585 -0.6719 -0.484 0.790 0.375 29 20 11 0 0
-0.1598 0.0588 -0.6754 -0.800 0.463 0.383 38 31 20 0 0
-0.1598 0.0588 -0.6774 -0.851 0.453 0.265 37 30 20 0 0
-0.1602 0.0593 -0.6808 -0.825 0.449 0.344 43 35 29 0 0
-0.1604 0.0595 -0.6824 -0.669 0.697 0.257 37 30 24 0 0
-0.1607 0.0599 -0.6879 -0.645 0.691 0.326 28 23 20 0 0
-0.1815 0.0803 -0.7225 -0.772 0.617 0.151 66 49 30 0 0
-0.1807 0.0797 -0.7292 -0.478 0.775 0.413 95 82 63 0 0
-0.1778 0.0774 -0.7440 -0.766 0.611 -0.202 69 58 40 0 0
-0.1774 0.0771 -0.7464 -0.766 0.611 -0.202 73 64 47 0 0
-0.1770 0.0768 -0.7488 -0.678 0.661 -0.323 63 54 41 0 0
-0.1605 0.0622 -0.7766 -0.309 0.889 -0.338 72 61 43 0 0
-0.1685 0.0701 -0.7943 -0.417 0.574 0.705 25 19 12 0 0
-0.1701 0.0717 -0.7965 -0.628 0.718 0.301 63 50 36 0 0
-0.1800 0.0819 -0.8326 -0.687 0.677 0.264 124 107 74 0 0
-0.1798 0.0818 -0.8349 -0.570 0.706 0.421 107 96 66 0 0
-0.1805 0.0824 -0.8362 -0.808 0.450 0.380 104 94 69 0 0
-0.0324 -0.0707 -0.2015 -0.939 0.189 0.288 125 111 78 0 0
-0.0353 -0.0678 -0.2097 -0.937 0.252 0.244 106 91 61 0 0
-0.0967 -0.0096 -0.2519 -0.680 0.065 0.731 127 111 93 0 0
-0.0974 -0.0089 -0.2531 -0.844 0.027 0.535 125 110 89 0 0
-0.1172 0.0100 -0.2725 -0.829 0.346 0.440 78 63 50 0 0
-0.1184 0.0112 -0.2764 -0.674 0.601 0.430 64 50 35 0 0
-0.1191 0.0119 -0.2790 -0.785 0.447 0.429 77 64 50 0 0
-0.1193 0.0122 -0.2803 -0.511 0.710 0.486 59 45 34 0 0
-0.1201 0.0130 -0.2815 -0.753 0.370 0.545 81 69 58 0 0
-0.1220 0.0148 -0.2851 -0.726 0.393 0.564 85 73 57 0 0
-0.1225 0.0153 -0.2863 -0.674 0.429 0.602 102 91 80 0 0
-0.1231 0.0160 -0.2875 -0.674 0.429 0.602 98 87 75 0 0
-0.1238 0.0166 -0.2887 -0.674 0.429 0.602 104 94 78 0 0
-0.1246 0.0174 -0.2899 -0.763 0.309 0.568 95 84 73 0 0
-0.1260 0.0187 -0.2922 -0.772 0.310 0.556 99 88 73 0 0
-0.1262 0.0190 -0.2936 -0.845 0.385 0.372 99 88 71 0 0
-0.1274 0.0201 -0.2946 -0.681 0.431 0.592 99 88 72 0 0
-0.1281 0.0208 -0.2958 -0.750 0.216 0.626 103 91 77 0 0
-0.1285 0.0212 -0.2970 -0.621 0.404 0.672 103 92 75 0 0
-0.1422 0.0344 -0.3147 -0.699 0.665 0.264 67 55 41 0 0
-0.1424 0.0347 -0.3160 -0.699 0.665 0.264 44 33 23 0 0
-0.1428 0.0350 -0.3173 -0.805 0.518 0.290 24 16 9 0 0
-0.1452 0.0381 -0.3468 -0.432 0.888 -0.158 43 34 28 0 0
-0.1433 0.0367 -0.3580 -0.658 0.705 0.265 31 24 18 0 0
-0.1440 0.0374 -0.3606 -0.732 0.639 0.234 29 19 14 0 0
-0.1452 0.0386 -0.3646 -0.734 0.500 0.459 44 30 20 0 0
-0.1457 0.0391 -0.3658 -0.849 0.344 0.400 81 66 52 0 0
-0.1479 0.0412 -0.3692 -0.578 0.646 0.499 124 106 78 0 0
-0.1484 0.0417 -0.3705 -0.521 0.754 0.400 127 107 75 0 0
-0.1507 0.0440 -0.3768 -0.744 0.397 0.537 114 100 74 0 0
-0.1554 0.0488 -0.3894 -0.497 0.788 0.363 72 50 32 0 0
-0.1564 0.0498 -0.3919 -0.456 0.525 0.719 67 47 27 0 0
-0.1569 0.0503 -0.3932 -0.604 0.640 0.475 72 54 31 0 0
-0.1574 0.0508 -0.3944 -0.604 0.640 0.475 76 58 35 0 0
-0.1581 0.0515 -0.3971 -0.714 0.595 0.369 80 63 37 0 0
-0.1633 0.0567 -0.4109 -0.479 0.766 0.429 54 38 21 0 0
-0.1655 0.0588 -0.4112 -0.691 0.707 0.149 60 46 29 0 0
-0.1657 0.0590 -0.4126 -0.610 0.793 0.007 53 39 22 0 0
-0.1658 0.0592 -0.4141 -0.587 0.782 0.210 69 56 37 0 0
-0.1662 0.0596 -0.4154 -0.127 0.970 0.206 85 73 52 0 0
-0.1678 0.0612 -0.4206 -0.435 0.862 0.260 81 63 34 0 0
-0.1682 0.0616 -0.4219 -0.348 0.745 0.568 116 99 68 0 0
-0.1689 0.0622 -0.4230 -0.348 0.745 0.568 90 72 44 0 0
-0.1695 0.0628 -0.4242 -0.348 0.745 0.568 77 59 34 0 0
-0.1698 0.0633 -0.4302 -0.775 0.600 0.196 73 56 34 0 0
-0.1746 0.0684 -0.4520 -0.704 0.447 0.552 37 28 18 0 0
-0.1752 0.0689 -0.4532 -0.704 0.447 0.552 53 44 35 0 0
-0.1761 0.0699 -0.4542 -0.788 0.194 0.584 39 33 25 0 0
-0.1478 0.0457 -0.5286 -0.819 0.472 0.327 24 20 17 0 0
-0.1482 0.0461 -0.5300 -0.819 0.472 0.327 31 27 24 0 0
-0.1486 0.0464 -0.5315 -0.819 0.472 0.327 29 25 23 0 0
-0.1496 0.0475 -0.5324 -0.522 0.495 0.695 17 13 12 0 0
-0.1492 0.0471 -0.5344 -0.397 0.724 0.564 30 26 25 0 0
-0.1498 0.0478 -0.5357 -0.438 0.647 0.624 36 32 31 0 0
-0.1488 0.0469 -0.5399 -0.790 0.498 0.357 19 15 14 0 0
-0.1500 0.0481 -0.5424 -0.769 0.318 0.555 28 24 23 0 0
-0.1596 0.0580 -0.5801 -0.763 0.637 0.109 76 68 55 0 0
-0.1627 0.0611 -0.5864 -0.623 0.582 0.523 71 57 40 0 0
-0.1641 0.0628 -0.5993 -0.881 0.383 0.279 75 65 52 0 0
-0.1449 0.0465 -0.6542 -0.526 0.735 0.428 18 13 10 0 0
-0.1456 0.0472 -0.6554 -0.740 0.479 0.473 16 11 9 0 0
-0.1462 0.0478 -0.6568 -0.726 0.437 0.531 17 13 10 0 0
-0.1567 0.0578 -0.6679 -0.585 0.614 0.530 47 37 28 0 0
-0.1578 0.0590 -0.6706 -0.717 0.469 0.515 54 45 36 0 0
-0.1670 0.0685 -0.7074 -0.923 0.078 0.378 62 54 48 0 0
-0.1730 0.0743 -0.7129 -0.443 0.638 0.630 100 87 75 0 0
-0.1798 0.0810 -0.7290 -0.628 0.679 0.380 89 76 57 0 0
-0.1802 0.0815 -0.7305 -0.628 0.679 0.380 88 75 56 0 0
-0.1774 0.0791 -0.7413 -0.941 0.299 -0.158 86 75 53 0 0
-0.1771 0.0789 -0.7435 -0.832 0.554 0.018 68 57 37 0 0
-0.1770 0.0789 -0.7456 -0.778 0.602 -0.177 74 64 47 0 0
-0.1769 0.0788 -0.7477 -0.632 0.651 -0.421 60 51 39 0 0
-0.1685 0.0724 -0.7950 -0.644 0.695 0.321 29 20 11 0 0
-0.1689 0.0728 -0.7966 -0.644 0.695 0.321 41 30 20 0 0
-0.0326 -0.0685 -0.1997 -0.881 0.258 0.396 118 103 72 0 0
-0.0331 -0.0680 -0.2011 -0.773 0.511 0.377 130 115 83 0 0
-0.0334 -0.0677 -0.2025 -0.656 0.671 0.347 136 122 86 0 0
-0.0340 -0.0671 -0.2038 -0.731 0.677 -0.085 129 116 81 0 0
-0.0344 -0.0667 -0.2052 -0.643 0.765 0.033 135 122 86 0 0
-0.0343 -0.0667 -0.2082 -0.838 0.522 0.162 87 73 46 0 0
-0.0346 -0.0664 -0.2096 -0.728 0.681 -0.078 101 87 60 0 0
-0.0991 -0.0053 -0.2565 -0.830 0.460 0.316 54 46 34 0 0
-0.1154 0.0102 -0.2713 -0.583 0.471 0.662 70 59 45 0 0
-0.1214 0.0162 -0.2849 -0.760 0.272 0.591 97 84 62 0 0
-0.1227 0.0175 -0.2873 -0.643 0.372 0.669 97 84 70 0 0
-0.1233 0.0180 -0.2886 -0.705 0.401 0.585 99 87 72 0 0
-0.1237 0.0185 -0.2898 -0.712 0.392 0.583 69 58 42 0 0
-0.1244 0.0192 -0.2910 -0.566 0.366 0.738 89 79 64 0 0
-0.1253 0.0200 -0.2921 -0.681 0.431 0.592 145 135 120 0 0
-0.1260 0.0207 -0.2933 -0.843 0.319 0.433 102 90 73 0 0
-0.1334 0.0279 -0.3034 -0.563 0.509 0.651 180 156 122 0 0
-0.1348 0.0292 -0.3057 -0.498 0.595 0.631 214 195 156 0 0
-0.1393 0.0336 -0.3125 -0.477 0.625 0.618 61 47 25 0 0
-0.1447 0.0389 -0.3218 -0.631 0.540 0.556 14 9 7 0 0
-0.1439 0.0388 -0.3440 -0.188 0.982 0.002 37 31 25 0 0
-0.1439 0.0388 -0.3454 -0.188 0.982 0.002 31 25 20 0 0
-0.1438 0.0387 -0.3469 -0.316 0.924 -0.214 31 25 21 0 0
-0.1433 0.0383 -0.3487 -0.480 0.755 -0.447 47 39 36 0 0
-0.1419 0.0372 -0.3552 -0.710 0.653 0.264 23 15 12 0 0
-0.1417 0.0371 -0.3583 -0.809 0.581 0.084 35 26 20 0 0
-0.1444 0.0399 -0.3659 -0.873 0.234 0.427 75 60 43 0 0
-0.1474 0.0428 -0.3704 -0.654 0.670 0.352 117 100 69 0 0
-0.1492 0.0446 -0.3740 -0.681 0.604 0.414 150 134 98 0 0
-0.1494 0.0448 -0.3754 -0.845 0.411 0.342 92 74 43 0 0
-0.1498 0.0451 -0.3768 -0.845 0.411 0.342 107 92 66 0 0
-0.1557 0.0510 -0.3903 -0.678 0.497 0.542 71 50 31 0 0
-0.1555 0.0509 -0.3919 -0.550 0.456 0.700 71 52 32 0 0
-0.1568 0.0521 -0.3927 -0.757 0.565 0.330 75 57 35 0 0
-0.1569 0.0523 -0.3942 -0.769 0.476 0.427 74 56 35 0 0
-0.1611 0.0564 -0.4055 -0.536 0.810 0.238 46 29 10 0 0
-0.1614 0.0568 -0.4069 -0.550 0.772 0.318 61 45 26 0 0
-0.1629 0.0583 -0.4106 -0.438 0.518 0.735 46 30 14 0 0
-0.1644 0.0597 -0.4128 -0.343 0.659 0.670 57 46 26 0 0
-0.1644 0.0598 -0.4143 -0.237 0.942 0.238 73 62 41 0 0
-0.1646 0.0600 -0.4157 -0.239 0.954 0.181 74 63 41 0 0
-0.1652 0.0606 -0.4169 -0.743 0.458 0.489 63 48 25 0 0
-0.1659 0.0613 -0.4180 -0.511 0.766 0.389 71 53 30 0 0
-0.1663 0.0617 -0.4193 -0.511 0.766 0.389 75 55 29 0 0
-0.1667 0.0621 -0.4206 -0.511 0.766 0.389 93 75 45 0 0
-0.1669 0.0624 -0.4220 -0.348 0.745 0.568 103 88 58 0 0
-0.1680 0.0635 -0.4260 -0.569 0.436 0.697 79 61 39 0 0
-0.1712 0.0667 -0.4349 -0.434 0.824 0.364 79 64 43 0 0
-0.1719 0.0674 -0.4391 -0.452 0.888 0.087 60 45 24 0 0
-0.1753 0.0710 -0.4525 -0.678 0.433 0.594 70 60 43 0 0
-0.1759 0.0716 -0.4537 -0.678 0.433 0.594 80 69 54 0 0
-0.1766 0.0723 -0.4548 -0.633 0.265 0.727 71 58 44 0 0
-0.1509 0.0496 -0.4940 -0.597 0.192 -0.779 12 10 8 0 0
-0.1486 0.0488 -0.5409 -0.769 0.318 0.555 20 16 15 0 0
-0.1494 0.0496 -0.5438 -0.749 0.577 0.325 21 17 16 0 0
-0.1584 0.0588 -0.5714 -0.560 0.740 0.372 56 50 42 0 0
-0.1585 0.0591 -0.5766 -0.810 0.584 0.050 51 42 35 0 0
-0.1586 0.0592 -0.5783 -0.810 0.584 0.050 83 76 66 0 0
-0.1586 0.0592 -0.5800 -0.763 0.637 0.109 79 71 60 0 0
-0.1605 0.0611 -0.5856 -0.782 0.266 0.564 69 61 45 0 0
-0.1616 0.0622 -0.5864 -0.715 0.541 0.443 82 69 51 0 0
-0.1621 0.0627 -0.5877 -0.715 0.541 0.443 92 80 61 0 0
-0.1626 0.0632 -0.5891 -0.707 0.549 0.446 91 80 61 0 0
-0.1619 0.0628 -0.5949 -0.381 0.899 0.217 79 69 55 0 0
-0.1629 0.0637 -0.5959 -0.463 0.713 0.527 40 30 23 0 0
-0.1629 0.0637 -0.5977 -0.447 0.854 0.268 58 49 41 0 0
-0.1601 0.0614 -0.6071 -0.084 0.984 -0.160 72 62 49 0 0
-0.1537 0.0571 -0.6640 -0.837 0.122 0.534 64 54 44 0 0
-0.1545 0.0579 -0.6651 -0.561 0.378 0.737 54 44 35 0 0
-0.1554 0.0588 -0.6681 -0.745 0.438 0.502 44 35 26 0 0
-0.1559 0.0594 -0.6694 -0.526 0.746 0.409 61 53 43 0 0
-0.1574 0.0608 -0.6737 -0.669 0.698 0.254 57 49 38 0 0
-0.1588 0.0622 -0.6743 -0.663 0.396 0.635 74 65 53 0 0
-0.1670 0.0706 -0.7063 -0.978 0.184 0.100 55 47 41 0 0
-0.1708 0.0744 -0.7139 -0.874 0.275 0.400 98 86 70 0 0
-0.1780 0.0816 -0.7297 -0.717 0.494 0.493 89 76 57 0 0
-0.1789 0.0824 -0.7307 -0.760 0.538 0.364 86 73 54 0 0
-0.1792 0.0828 -0.7362 -0.408 0.907 -0.105 89 77 55 0 0
-0.1781 0.0820 -0.7393 -0.546 0.780 -0.307 96 85 64 0 0
-0.1768 0.0808 -0.7427 -0.862 0.502 0.077 77 66 47 0 0
-0.1590 0.0654 -0.7777 -0.500 0.624 0.600 58 48 34 0 0
-0.1588 0.0653 -0.7800 -0.694 0.402 0.598 39 31 21 0 0
-0.1673 0.0734 -0.7910 -0.730 0.520 0.443 24 16 11 0 0
-0.0222 -0.0767 -0.1781 -0.544 0.104 0.833 158 145 109 0 0
-0.0234 -0.0756 -0.1794 -0.666 0.058 0.743 159 145 104 0 0
-0.0360 -0.0630 -0.2105 -0.768 0.565 0.302 105 91 65 0 0
-0.0982 -0.0042 -0.2565 -0.765 0.530 0.365 42 30 22 0 0
-0.1120 0.0090 -0.2692 -0.606 0.527 0.595 147 129 99 0 0
-0.1127 0.0097 -0.2704 -0.630 0.457 0.628 76 61 42 0 0
-0.1142 0.0111 -0.2713 -0.435 0.705 0.560 72 62 50 0 0
-0.1172 0.0141 -0.2774 -0.766 0.460 0.448 76 63 50 0 0
-0.1199 0.0167 -0.2837 -0.710 0.385 0.590 114 96 68 0 0
-0.1228 0.0195 -0.2883 -0.650 0.478 0.591 93 78 57 0 0
-0.1234 0.0202 -0.2895 -0.650 0.478 0.591 76 61 40 0 0
-0.1241 0.0208 -0.2907 -0.622 0.478 0.621 107 93 71 0 0
-0.1250 0.0217 -0.2918 -0.845 0.371 0.385 181 167 142 0 0
-0.1254 0.0221 -0.2931 -0.845 0.371 0.385 142 128 103 0 0
-0.1258 0.0225 -0.2944 -0.752 0.376 0.542 47 37 21 0 0
-0.1271 0.0238 -0.2968 -0.644 0.370 0.670 97 85 69 0 0
-0.1289 0.0255 -0.2990 -0.539 0.324 0.778 93 76 55 0 0
-0.1318 0.0283 -0.3022 -0.360 0.754 0.550 163 140 105 0 0
-0.1355 0.0318 -0.3079 -0.509 0.566 0.649 161 139 101 0 0
-0.1419 0.0387 -0.3385 -0.242 0.970 -0.014 32 27 26 0 0
-0.1419 0.0387 -0.3400 -0.278 0.959 0.054 33 29 27 0 0
-0.1420 0.0389 -0.3414 -0.330 0.944 0.021 28 23 22 0 0
-0.1426 0.0394 -0.3426 -0.511 0.842 -0.171 26 23 20 0 0
-0.1424 0.0393 -0.3442 -0.526 0.846 0.085 45 41 38 0 0
-0.1425 0.0394 -0.3456 -0.519 0.854 0.044 30 25 23 0 0
-0.1423 0.0393 -0.3471 -0.433 0.888 -0.155 26 20 17 0 0
-0.1421 0.0391 -0.3487 -0.433 0.888 -0.155 30 22 19 0 0
-0.1408 0.0381 -0.3552 -0.605 0.570 0.556 26 18 15 0 0
-0.1432 0.0406 -0.3630 -0.501 0.807 0.313 80 65 51 0 0
-0.1440 0.0414 -0.3656 -0.409 0.770 0.490 83 67 48 0 0
-0.1449 0.0423 -0.3682 -0.492 0.667 0.560 91 75 53 0 0
-0.1479 0.0453 -0.3727 -0.659 0.677 0.327 105 88 58 0 0
-0.1483 0.0456 -0.3740 -0.659 0.677 0.327 116 99 67 0 0
-0.1486 0.0459 -0.3753 -0.659 0.677 0.327 104 87 58 0 0
-0.1489 0.0463 -0.3767 -0.659 0.677 0.327 99 82 57 0 0
-0.1534 0.0506 -0.3849 -0.479 0.782 0.399 64 46 25 0 0
-0.1536 0.0509 -0.3893 -0.724 0.575 0.380 73 53 33 0 0
-0.1541 0.0515 -0.3905 -0.816 0.312 0.486 70 51 31 0 0
-0.1612 0.0585 -0.4049 -0.200 0.974 0.105 54 39 22 0 0
-0.1601 0.0575 -0.4070 -0.740 0.665 0.105 49 34 18 0 0
-0.1627 0.0601 -0.4117 -0.422 0.546 0.724 50 37 18 0 0
-0.1640 0.0613 -0.4140 -0.668 0.520 0.533 69 57 35 0 0
-0.1638 0.0612 -0.4156 -0.729 0.238 0.641 62 49 27 0 0
-0.1641 0.0615 -0.4170 -0.866 0.196 0.460 54 37 15 0 0
-0.1655 0.0628 -0.4177 -0.627 0.778 -0.025 73 55 30 0 0
-0.1656 0.0630 -0.4192 -0.614 0.786 0.068 84 63 34 0 0
-0.1657 0.0631 -0.4206 -0.693 0.648 0.316 94 75 42 0 0
-0.1664 0.0639 -0.4248 -0.669 0.531 0.520 74 57 29 0 0
-0.1670 0.0645 -0.4260 -0.661 0.513 0.548 50 32 11 0 0
-0.1672 0.0647 -0.4274 -0.573 0.717 0.396 71 54 30 0 0
-0.1675 0.0650 -0.4288 -0.492 0.645 0.584 76 57 37 0 0
-0.1681 0.0656 -0.4300 -0.530 0.631 0.567 54 36 18 0 0
-0.1722 0.0699 -0.4492 -0.690 0.370 0.623 168 155 133 0 0
-0.1746 0.0723 -0.4523 -0.656 0.476 0.586 109 95 72 0 0
-0.1752 0.0729 -0.4534 -0.656 0.476 0.586 114 98 74 0 0
-0.1759 0.0735 -0.4546 -0.633 0.265 0.727 118 104 82 0 0
-0.1777 0.0754 -0.4596 -0.890 0.449 -0.078 84 73 53 0 0
-0.1501 0.0509 -0.4937 -0.671 0.043 -0.741 19 18 16 0 0
-0.1436 0.0456 -0.5182 -0.650 0.572 0.500 31 26 23 0 0
-0.1438 0.0458 -0.5198 -0.645 0.696 0.315 30 24 23 0 0
-0.1446 0.0466 -0.5209 -0.786 0.495 0.371 42 37 34 0 0
-0.1478 0.0499 -0.5322 -0.620 0.519 0.589 20 16 15 0 0
-0.1485 0.0506 -0.5334 -0.524 0.520 0.674 17 13 12 0 0
-0.1489 0.0510 -0.5348 -0.647 0.700 0.302 20 16 15 0 0
-0.1487 0.0513 -0.5486 -0.701 0.701 0.128 39 35 32 0 0
-0.1496 0.0522 -0.5549 -0.402 0.890 0.216 37 32 29 0 0
-0.1563 0.0588 -0.5688 -0.537 0.675 0.506 37 34 25 0 0
-0.1567 0.0592 -0.5703 -0.513 0.775 0.370 37 34 26 0 0
-0.1571 0.0596 -0.5717 -0.513 0.775 0.370 57 53 44 0 0
-0.1578 0.0604 -0.5763 -0.624 0.779 0.069 57 50 40 0 0
-0.1578 0.0605 -0.5781 -0.493 0.825 0.277 80 73 64 0 0
-0.1580 0.0607 -0.5797 -0.609 0.769 0.193 73 64 54 0 0
-0.1583 0.0610 -0.5812 -0.216 0.833 0.509 116 108 94 0 0
-0.1597 0.0625 -0.5853 -0.823 0.322 0.468 77 66 52 0 0
-0.1611 0.0638 -0.5859 -0.592 0.598 0.540 89 77 59 0 0
-0.1609 0.0639 -0.5931 -0.517 0.849 -0.106 64 56 37 0 0
-0.1605 0.0635 -0.5953 -0.381 0.899 0.217 72 63 49 0 0
-0.1616 0.0646 -0.5978 -0.206 0.882 0.425 60 51 44 0 0
-0.1601 0.0633 -0.6009 -0.162 0.967 -0.196 77 67 56 0 0
-0.1447 0.0506 -0.6524 -0.688 0.629 0.362 17 12 10 0 0
-0.1531 0.0587 -0.6635 -0.837 0.122 0.534 73 62 49 0 0
-0.1538 0.0594 -0.6647 -0.721 0.283 0.632 96 85 74 0 0
-0.1546 0.0602 -0.6659 -0.721 0.283 0.632 76 68 58 0 0
-0.1545 0.0601 -0.6679 -0.745 0.438 0.502 43 37 27 0 0
-0.1553 0.0610 -0.6690 -0.637 0.579 0.509 48 44 33 0 0
-0.1580 0.0636 -0.6740 -0.870 0.397 0.294 69 59 44 0 0
-0.1587 0.0642 -0.6753 -0.788 0.452 0.417 79 70 53 0 0
-0.1593 0.0648 -0.6766 -0.747 0.556 0.365 78 69 53 0 0
-0.1593 0.0649 -0.6784 -0.800 0.546 0.251 82 73 56 0 0
-0.1651 0.0711 -0.7051 -0.794 0.549 -0.260 56 48 40 0 0
-0.1656 0.0715 -0.7066 -0.810 0.455 0.369 72 65 57 0 0
-0.1699 0.0758 -0.7137 -0.943 0.245 0.225 68 55 44 0 0
-0.1763 0.0819 -0.7207 -0.663 0.701 0.263 69 53 37 0 0
-0.1770 0.0828 -0.7296 -0.717 0.494 0.493 75 62 43 0 0
-0.1778 0.0836 -0.7307 -0.524 0.670 0.526 90 77 58 0 0
-0.1769 0.0828 -0.7356 -0.448 0.891 -0.068 82 70 48 0 0
-0.1575 0.0661 -0.7761 -0.904 0.426 -0.029 66 57 40 0 0
-0.1648 0.0732 -0.7885 -0.700 0.622 0.351 17 12 8 0 0
-0.1664 0.0748 -0.7908 -0.706 0.685 0.178 24 16 10 0 0
-0.1666 0.0750 -0.7926 -0.706 0.685 0.178 28 19 13 0 0
-0.1820 0.0908 -0.8449 -0.631 0.760 0.155 122 107 74 0 0
-0.0970 -0.0034 -0.2551 -0.683 0.465 0.563 62 49 31 0 0
-0.0973 -0.0030 -0.2564 -0.765 0.530 0.365 77 65 46 0 0
-0.1092 0.0082 -0.2655 -0.686 0.694 0.218 238 226 181 0 0
-0.1111 0.0101 -0.2692 -0.606 0.527 0.595 111 94 70 0 0
-0.1118 0.0108 -0.2703 -0.630 0.457 0.628 82 66 51 0 0
-0.1130 0.0119 -0.2714 -0.435 0.705 0.560 67 54 44 0 0
-0.1149 0.0138 -0.2764 -0.536 0.634 0.558 94 81 65 0 0
-0.1172 0.0161 -0.2814 -0.734 0.435 0.521 128 110 81 0 0
-0.1198 0.0185 -0.2833 -0.589 0.488 0.645 160 141 107 0 0
-0.1199 0.0186 -0.2847 -0.743 0.380 0.551 93 77 54 0 0
-0.1214 0.0201 -0.2870 -0.841 0.425 0.335 185 171 133 0 0
-0.1222 0.0209 -0.2882 -0.722 0.499 0.479 134 119 87 0 0
-0.1226 0.0213 -0.2895 -0.795 0.494 0.352 90 74 46 0 0
-0.1233 0.0220 -0.2906 -0.575 0.614 0.541 140 121 93 0 0
-0.1242 0.0229 -0.2917 -0.851 0.406 0.332 186 168 133 0 0
-0.1250 0.0236 -0.2929 -0.696 0.439 0.568 141 126 92 0 0
-0.1254 0.0241 -0.2941 -0.751 0.395 0.528 66 55 35 0 0
-0.1264 0.0250 -0.2952 -0.814 0.430 0.391 39 28 17 0 0
-0.1267 0.0253 -0.2965 -0.644 0.473 0.601 64 53 38 0 0
-0.1273 0.0258 -0.2978 -0.624 0.619 0.478 107 93 78 0 0
-0.1364 0.0348 -0.3143 -0.509 0.797 0.324 50 38 27 0 0
-0.1379 0.0363 -0.3180 -0.601 0.604 0.523 17 13 7 0 0
-0.1385 0.0369 -0.3192 -0.555 0.733 0.393 12 9 5 0 0
-0.1386 0.0370 -0.3221 -0.379 0.801 0.463 11 10 7 0 0
-0.1394 0.0378 -0.3232 -0.782 0.596 0.181 14 9 7 0 0
-0.1400 0.0384 -0.3258 -0.720 0.630 0.291 15 9 7 0 0
-0.1402 0.0387 -0.3272 -0.720 0.630 0.291 14 8 8 0 0
-0.1403 0.0388 -0.3286 -0.660 0.700 0.273 14 8 8 0 0
-0.1403 0.0391 -0.3388 -0.242 0.970 -0.014 26 21 18 0 0
-0.1403 0.0391 -0.3403 -0.278 0.959 0.054 26 21 18 0 0
-0.1405 0.0394 -0.3416 -0.330 0.944 0.021 25 20 16 0 0
-0.1405 0.0394 -0.3431 -0.330 0.944 0.021 19 15 12 0 0
-0.1404 0.0394 -0.3446 -0.226 0.973 0.043 23 17 15 0 0
-0.1404 0.0394 -0.3461 -0.226 0.973 0.043 23 16 14 0 0
-0.1398 0.0391 -0.3552 -0.605 0.570 0.556 25 16 13 0 0
-0.1403 0.0396 -0.3565 -0.780 0.491 0.388 28 18 14 0 0
-0.1430 0.0424 -0.3656 -0.484 0.727 0.486 75 59 36 0 0
-0.1442 0.0436 -0.3665 -0.400 0.571 0.717 155 139 117 0 0
-0.1448 0.0443 -0.3707 -0.461 0.847 0.264 135 114 84 0 0
-0.1469 0.0463 -0.3727 -0.659 0.677 0.327 124 103 74 0 0
-0.1473 0.0466 -0.3740 -0.836 0.488 0.252 114 97 71 0 0
-0.1473 0.0467 -0.3755 -0.806 0.568 0.167 175 159 135 0 0
-0.1508 0.0501 -0.3827 -0.456 0.626 0.633 50 30 15 0 0
-0.1514 0.0508 -0.3839 -0.456 0.626 0.633 53 35 20 0 0
-0.1516 0.0510 -0.3853 -0.680 0.635 0.367 65 47 27 0 0
-0.1526 0.0520 -0.3878 -0.526 0.734 0.430 63 43 24 0 0
-0.1530 0.0524 -0.3891 -0.578 0.662 0.478 62 43 24 0 0
-0.1535 0.0529 -0.3903 -0.816 0.312 0.486 76 59 39 0 0
-0.1576 0.0568 -0.3957 -0.064 0.894 0.444 84 65 43 0 0
-0.1627 0.0621 -0.4141 -0.251 0.675 0.693 75 58 35 0 0
-0.1628 0.0623 -0.4156 -0.616 0.325 0.718 69 51 29 0 0
-0.1636 0.0630 -0.4167 -0.831 0.302 0.468 58 38 16 0 0
-0.1645 0.0639 -0.4192 -0.675 0.737 -0.024 84 63 32 0 0
-0.1647 0.0642 -0.4206 -0.693 0.648 0.316 86 65 30 0 0
-0.1652 0.0648 -0.4249 -0.823 0.339 0.456 92 73 41 0 0
-0.1659 0.0654 -0.4261 -0.636 0.626 0.451 61 44 19 0 0
-0.1661 0.0656 -0.4274 -0.573 0.717 0.396 74 58 32 0 0
-0.1664 0.0659 -0.4288 -0.492 0.645 0.584 61 44 20 0 0
-0.1670 0.0665 -0.4300 -0.530 0.631 0.567 71 54 33 0 0
-0.1415 0.0455 -0.5122 -0.794 0.421 0.439 20 18 16 0 0
-0.1420 0.0460 -0.5135 -0.794 0.421 0.439 28 25 21 0 0
-0.1417 0.0459 -0.5154 -0.619 0.637 0.461 53 49 39 0 0
-0.1422 0.0464 -0.5167 -0.619 0.637 0.461 60 56 48 0 0
-0.1426 0.0467 -0.5182 -0.650 0.572 0.500 28 23 19 0 0
-0.1428 0.0470 -0.5197 -0.694 0.623 0.361 41 36 33 0 0
-0.1431 0.0473 -0.5212 -0.737 0.624 0.262 38 33 30 0 0
-0.1444 0.0486 -0.5219 -0.872 0.194 0.450 23 18 15 0 0
-0.1462 0.0504 -0.5275 -0.835 0.392 0.387 20 16 13 0 0
-0.1465 0.0507 -0.5290 -0.847 0.488 0.211 21 17 15 0 0
-0.1465 0.0507 -0.5306 -0.716 0.662 0.224 24 20 19 0 0
-0.1468 0.0511 -0.5321 -0.575 0.581 0.576 17 13 12 0 0
-0.1476 0.0522 -0.5452 -0.817 0.575 -0.035 30 27 25 0 0
-0.1481 0.0528 -0.5500 -0.522 0.836 0.167 31 27 24 0 0
-0.1483 0.0530 -0.5516 -0.481 0.860 0.168 19 15 12 0 0
-0.1493 0.0541 -0.5560 -0.356 0.934 -0.027 30 26 23 0 0
-0.1519 0.0567 -0.5644 -0.071 0.777 0.625 28 24 21 0 0
-0.1549 0.0597 -0.5690 -0.408 0.794 0.451 34 31 24 0 0
-0.1554 0.0602 -0.5704 -0.600 0.730 0.327 34 31 25 0 0
-0.1565 0.0614 -0.5783 -0.621 0.746 0.239 65 58 49 0 0
-0.1567 0.0617 -0.5798 -0.621 0.746 0.239 72 64 54 0 0
-0.1581 0.0629 -0.5805 -0.452 0.724 0.522 106 98 87 0 0
-0.1587 0.0635 -0.5818 -0.452 0.724 0.522 81 72 60 0 0
-0.1595 0.0643 -0.5846 -0.650 0.608 0.456 83 73 59 0 0
-0.1600 0.0648 -0.5859 -0.592 0.598 0.540 87 77 60 0 0
-0.1610 0.0658 -0.5869 -0.282 0.789 0.545 82 71 56 0 0
-0.1588 0.0640 -0.5939 -0.312 0.950 -0.028 63 53 37 0 0
-0.1586 0.0639 -0.5959 -0.154 0.928 0.340 50 41 28 0 0
-0.1515 0.0583 -0.6270 -0.627 0.728 -0.278 55 45 33 0 0
-0.1434 0.0515 -0.6488 -0.758 0.621 0.199 17 12 10 0 0
-0.1436 0.0518 -0.6524 -0.717 0.454 0.529 18 13 11 0 0
-0.1460 0.0542 -0.6577 -0.577 0.122 0.807 21 21 18 0 0
-0.1489 0.0569 -0.6588 -0.556 0.347 0.755 35 29 25 0 0
-0.1498 0.0577 -0.6599 -0.709 0.103 0.698 57 49 40 0 0
-0.1583 0.0661 -0.6765 -0.747 0.556 0.365 80 72 54 0 0
-0.1584 0.0662 -0.6783 -0.743 0.652 0.152 75 67 49 0 0
-0.1648 0.0728 -0.6986 -0.880 0.386 -0.277 46 40 32 0 0
-0.1654 0.0735 -0.7057 -0.721 0.682 0.121 61 54 46 0 0
-0.1682 0.0762 -0.7086 -0.895 -0.165 0.415 65 57 48 0 0
-0.1594 0.0700 -0.7708 -0.794 0.454 -0.405 45 38 25 0 0
-0.1562 0.0672 -0.7763 -0.815 0.228 0.532 70 60 44 0 0
-0.1675 0.0782 -0.7964 -0.840 0.226 0.493 56 45 30 0 0
-0.1682 0.0789 -0.7976 -0.722 0.317 0.615 66 54 38 0 0
-0.1687 0.0794 -0.7991 -0.510 0.335 0.792 73 62 48 0 0
-0.1696 0.0802 -0.8002 -0.684 0.510 0.522 74 63 51 0 0
-0.0225 -0.0722 -0.1791 -0.364 0.326 0.872 161 146 120 0 0
-0.0335 -0.0610 -0.2164 -0.994 0.069 0.081 82 69 47 0 0
-0.0336 -0.0609 -0.2179 -0.995 -0.059 0.082 81 70 50 0 0
-0.0953 -0.0030 -0.2524 -0.508 0.591 0.627 85 69 46 0 0
-0.0977 -0.0008 -0.2545 -0.641 0.494 0.587 137 124 97 0 0
-0.0973 -0.0010 -0.2561 -0.854 0.412 0.318 113 101 72 0 0
-0.1054 0.0066 -0.2650 -0.126 0.620 0.775 246 235 194 0 0
-0.1069 0.0080 -0.2659 -0.252 0.706 0.662 244 234 181 0 0
-0.1087 0.0098 -0.2667 -0.441 0.347 0.828 203 184 132 0 0
-0.1188 0.0196 -0.2833 -0.589 0.488 0.645 161 145 108 0 0
-0.1204 0.0211 -0.2856 -0.536 0.547 0.643 202 184 150 0 0
-0.1207 0.0214 -0.2869 -0.841 0.425 0.335 192 175 130 0 0
-0.1215 0.0221 -0.2881 -0.584 0.656 0.478 148 132 91 0 0
-0.1220 0.0227 -0.2893 -0.747 0.456 0.484 105 89 55 0 0
-0.1228 0.0234 -0.2905 -0.627 0.474 0.618 185 168 139 0 0
-0.1231 0.0238 -0.2918 -0.841 0.516 0.163 162 145 114 0 0
-0.1242 0.0248 -0.2928 -0.696 0.439 0.568 118 104 72 0 0
-0.1247 0.0253 -0.2940 -0.751 0.395 0.528 83 70 46 0 0
-0.1249 0.0255 -0.2954 -0.392 0.693 0.605 47 36 19 0 0
-0.1258 0.0264 -0.2965 -0.624 0.619 0.478 102 94 74 0 0
-0.1263 0.0268 -0.2978 -0.624 0.619 0.478 138 127 105 0 0
-0.1351 0.0355 -0.3144 -0.748 0.642 0.166 42 32 22 0 0
-0.1370 0.0374 -0.3194 -0.498 0.635 0.590 11 9 6 0 0
-0.1371 0.0376 -0.3223 -0.530 0.611 0.588 11 9 7 0 0
-0.1375 0.0380 -0.3236 -0.417 0.747 0.518 11 9 8 0 0
-0.1387 0.0395 -0.3361 -0.316 0.907 0.277 16 12 11 0 0
-0.1392 0.0405 -0.3550 -0.722 0.534 0.439 24 16 13 0 0
-0.1395 0.0409 -0.3563 -0.869 0.385 0.309 19 11 8 0 0
-0.1402 0.0415 -0.3575 -0.805 0.545 0.233 35 26 21 0 0
-0.1407 0.0420 -0.3588 -0.564 0.708 0.425 53 44 36 0 0
-0.1418 0.0433 -0.3657 -0.470 0.775 0.422 76 61 38 0 0
-0.1423 0.0438 -0.3669 -0.369 0.739 0.563 112 97 74 0 0
-0.1437 0.0451 -0.3693 -0.753 0.497 0.431 92 69 47 0 0
-0.1441 0.0455 -0.3705 -0.832 0.500 0.242 124 102 74 0 0
-0.1458 0.0472 -0.3727 -0.691 0.478 0.542 129 109 77 0 0
-0.1465 0.0479 -0.3754 -0.743 0.654 0.138 149 134 107 0 0
-0.1489 0.0503 -0.3832 -0.632 0.548 0.547 53 35 20 0 0
-0.1505 0.0519 -0.3854 -0.455 0.577 0.678 68 51 33 0 0
-0.1501 0.0516 -0.3870 -0.743 0.559 0.369 65 48 30 0 0
-0.1515 0.0529 -0.3878 -0.501 0.736 0.456 52 33 18 0 0
-0.1520 0.0534 -0.3891 -0.578 0.662 0.478 49 30 14 0 0
-0.1535 0.0548 -0.3928 -0.524 0.122 0.843 49 33 17 0 0
-0.1547 0.0560 -0.3937 -0.134 0.889 0.439 60 43 27 0 0
-0.1641 0.0657 -0.4249 -0.750 0.530 0.396 103 84 55 0 0
-0.1646 0.0661 -0.4262 -0.536 0.714 0.451 65 48 24 0 0
-0.1650 0.0666 -0.4275 -0.573 0.717 0.396 66 50 26 0 0
-0.1655 0.0670 -0.4288 -0.435 0.733 0.523 73 57 33 0 0
-0.1660 0.0675 -0.4300 -0.441 0.621 0.649 63 48 24 0 0
-0.1772 0.0790 -0.4649 -0.813 0.530 -0.242 105 94 73 0 0
-0.1771 0.0789 -0.4665 -0.925 0.380 0.013 59 49 31 0 0
-0.1404 0.0463 -0.5021 -0.815 0.348 0.464 23 22 17 0 0
-0.1415 0.0473 -0.5048 -0.765 0.643 0.032 57 53 50 0 0
-0.1408 0.0469 -0.5119 -0.839 0.336 0.428 15 11 10 0 0
-0.1416 0.0478 -0.5147 -0.857 0.267 0.440 45 41 33 0 0
-0.1411 0.0474 -0.5167 -0.619 0.637 0.461 46 41 37 0 0
-0.1416 0.0479 -0.5181 -0.619 0.637 0.461 18 12 11 0 0
-0.1419 0.0482 -0.5196 -0.655 0.699 0.286 34 29 26 0 0
-0.1422 0.0485 -0.5211 -0.655 0.699 0.286 32 28 25 0 0
-0.1425 0.0488 -0.5226 -0.655 0.699 0.286 26 22 19 0 0
-0.1433 0.0496 -0.5237 -0.161 0.470 0.868 21 17 14 0 0
-0.1440 0.0503 -0.5249 -0.781 0.535 0.322 22 18 16 0 0
-0.1445 0.0508 -0.5262 -0.828 0.554 0.088 18 14 13 0 0
-0.1438 0.0503 -0.5284 -0.735 0.667 0.121 16 12 11 0 0
-0.1440 0.0504 -0.5300 -0.735 0.667 0.121 17 13 12 0 0
-0.1455 0.0519 -0.5323 -0.788 0.540 0.295 15 11 10 0 0
-0.1454 0.0519 -0.5341 -0.689 0.560 0.460 15 11 10 0 0
-0.1461 0.0526 -0.5353 -0.580 0.775 0.250 17 13 11 0 0
-0.1468 0.0535 -0.5433 -0.760 0.646 0.067 25 24 23 0 0
-0.1469 0.0536 -0.5449 -0.646 0.764 -0.013 39 38 35 0 0
-0.1471 0.0538 -0.5465 -0.686 0.725 0.054 40 38 34 0 0
-0.1475 0.0547 -0.5600 -0.068 0.800 0.596 19 15 14 0 0
-0.1477 0.0549 -0.5616 -0.346 0.640 0.686 21 17 16 0 0
-0.1483 0.0555 -0.5629 -0.358 0.770 0.527 24 20 19 0 0
-0.1498 0.0569 -0.5635 -0.356 0.903 0.240 25 21 20 0 0
-0.1502 0.0573 -0.5649 -0.190 0.630 0.753 31 27 26 0 0
-0.1511 0.0581 -0.5659 -0.171 0.593 0.786 27 23 22 0 0
-0.1540 0.0609 -0.5689 -0.362 0.683 0.635 50 46 42 0 0
-0.1544 0.0613 -0.5703 -0.456 0.798 0.394 33 29 26 0 0
-0.1552 0.0620 -0.5715 -0.532 0.694 0.485 26 24 20 0 0
-0.1552 0.0622 -0.5732 -0.581 0.765 0.278 29 28 24 0 0
-0.1560 0.0631 -0.5813 -0.787 0.548 0.283 44 37 28 0 0
-0.1563 0.0634 -0.5828 -0.612 0.650 0.451 39 30 21 0 0
-0.1574 0.0645 -0.5854 -0.591 0.591 0.548 62 54 44 0 0
-0.1575 0.0648 -0.5888 -0.305 0.881 0.361 57 48 39 0 0
-0.1574 0.0648 -0.5925 -0.494 0.862 -0.117 67 57 46 0 0
-0.1410 0.0514 -0.6481 -0.806 0.507 0.306 19 14 11 0 0
-0.1424 0.0527 -0.6487 -0.784 0.586 0.205 19 14 11 0 0
-0.1435 0.0540 -0.6552 -0.616 0.418 0.668 22 18 15 0 0
-0.1480 0.0582 -0.6587 -0.642 0.152 0.751 47 38 33 0 0
-0.1530 0.0629 -0.6635 -0.934 0.146 0.327 106 94 77 0 0
-0.1574 0.0674 -0.6763 -0.788 0.452 0.417 69 62 45 0 0
-0.1578 0.0678 -0.6777 -0.807 0.451 0.382 70 62 45 0 0
-0.1644 0.0746 -0.6998 -0.621 0.779 -0.092 75 65 56 0 0
-0.1646 0.0749 -0.7054 -0.661 0.693 0.287 60 54 46 0 0
-0.1753 0.0855 -0.7291 -0.852 0.297 0.431 53 40 23 0 0
-0.1760 0.0861 -0.7303 -0.792 0.402 0.459 66 53 36 0 0
-0.1758 0.0861 -0.7324 -0.931 0.305 0.200 81 68 49 0 0
-0.1596 0.0723 -0.7694 -0.799 0.382 -0.465 39 31 20 0 0
-0.1579 0.0712 -0.7833 -0.806 0.427 0.410 34 24 21 0 0
-0.1674 0.0804 -0.7973 -0.692 0.322 0.646 62 54 38 0 0
-0.1692 0.0823 -0.8034 -0.747 0.661 0.070 78 63 43 0 0
-0.0344 -0.0581 -0.2144 -0.803 0.574 -0.159 99 86 62 0 0
-0.0342 -0.0583 -0.2159 -0.935 0.355 0.012 82 69 49 0 0
-0.0343 -0.0581 -0.2174 -0.976 0.147 0.160 73 62 40 0 0
-0.0962 -0.0002 -0.2546 -0.790 0.476 0.387 133 117 86 0 0
-0.0973 0.0009 -0.2572 -0.759 0.635 0.147 63 45 27 0 0
-0.1084 0.0114 -0.2694 -0.281 0.731 0.622 139 123 108 0 0
-0.1104 0.0134 -0.2715 -0.543 0.691 0.477 220 205 176 0 0
-0.1112 0.0142 -0.2727 -0.861 0.371 0.348 196 176 136 0 0
-0.1177 0.0205 -0.2833 -0.456 0.587 0.669 180 165 132 0 0
-0.1183 0.0211 -0.2845 -0.722 0.272 0.636 125 106 79 0 0
-0.1192 0.0219 -0.2856 -0.468 0.636 0.614 214 196 162 0 0
-0.1199 0.0225 -0.2868 -0.814 0.541 0.212 191 176 134 0 0
-0.1202 0.0229 -0.2881 -0.804 0.366 0.469 123 107 70 0 0
-0.1223 0.0250 -0.2931 -0.595 0.699 0.396 80 69 48 0 0
-0.1342 0.0366 -0.3144 -0.748 0.642 0.166 40 30 21 0 0
-0.1344 0.0371 -0.3244 -0.724 0.512 0.462 14 10 9 0 0
-0.1360 0.0390 -0.3383 -0.648 0.758 0.079 21 17 15 0 0
-0.1361 0.0391 -0.3397 -0.610 0.787 0.092 29 25 22 0 0
-0.1379 0.0412 -0.3537 -0.549 0.779 0.301 39 30 22 0 0
-0.1378 0.0412 -0.3552 -0.703 0.353 0.618 25 18 13 0 0
-0.1387 0.0420 -0.3563 -0.608 0.733 0.305 21 12 10 0 0
-0.1400 0.0435 -0.3616 -0.624 0.769 0.139 69 53 40 0 0
-0.1402 0.0437 -0.3630 -0.556 0.814 0.169 60 43 28 0 0
-0.1407 0.0442 -0.3642 -0.499 0.754 0.426 72 56 37 0 0
-0.1411 0.0446 -0.3655 -0.455 0.536 0.711 91 75 52 0 0
-0.1418 0.0453 -0.3667 -0.512 0.547 0.662 102 86 63 0 0
-0.1424 0.0458 -0.3679 -0.760 0.452 0.466 152 136 112 0 0
-0.1428 0.0463 -0.3692 -0.751 0.480 0.453 120 103 79 0 0
-0.1434 0.0468 -0.3704 -0.789 0.496 0.363 108 87 61 0 0
-0.1456 0.0490 -0.3753 -0.665 0.508 0.547 103 88 57 0 0
-0.1463 0.0496 -0.3765 -0.439 0.856 0.274 99 83 55 0 0
-0.1461 0.0495 -0.3780 -0.442 0.891 0.107 60 38 17 0 0
-0.1482 0.0516 -0.3830 -0.456 0.653 0.605 54 36 20 0 0
-0.1489 0.0523 -0.3841 -0.375 0.642 0.669 67 50 35 0 0
-0.1504 0.0538 -0.3864 -0.364 0.689 0.627 94 77 59 0 0
-0.1508 0.0541 -0.3877 -0.529 0.613 0.587 62 43 27 0 0
-0.1511 0.0545 -0.3890 -0.641 0.528 0.557 52 32 15 0 0
-0.1520 0.0553 -0.3901 -0.463 0.864 0.195 71 49 29 0 0
-0.1532 0.0565 -0.3940 -0.243 0.875 0.419 50 33 15 0 0
-0.1634 0.0669 -0.4248 -0.685 0.672 0.283 84 67 43 0 0
-0.1635 0.0671 -0.4262 -0.422 0.751 0.508 64 48 27 0 0
-0.1640 0.0675 -0.4275 -0.496 0.782 0.377 62 47 25 0 0
-0.1644 0.0680 -0.4288 -0.364 0.839 0.405 50 34 13 0 0
-0.1648 0.0684 -0.4301 -0.435 0.733 0.523 67 52 30 0 0
-0.1650 0.0686 -0.4315 -0.610 0.777 0.152 103 88 66 0 0
-0.1722 0.0759 -0.4519 -0.780 0.397 0.484 134 117 96 0 0
-0.1728 0.0764 -0.4531 -0.756 0.352 0.552 133 115 90 0 0
-0.1763 0.0801 -0.4664 -0.714 0.691 0.111 103 89 65 0 0
-0.1391 0.0471 -0.5006 -0.826 0.509 0.240 42 41 38 0 0
-0.1397 0.0476 -0.5019 -0.777 0.458 0.432 11 10 7 0 0
-0.1402 0.0486 -0.5167 -0.428 0.571 0.701 18 14 12 0 0
-0.1410 0.0493 -0.5178 -0.428 0.571 0.701 15 11 10 0 0
-0.1418 0.0501 -0.5189 -0.428 0.571 0.701 22 18 15 0 0
-0.1423 0.0507 -0.5202 -0.517 0.625 0.585 28 24 21 0 0
-0.1432 0.0515 -0.5213 -0.536 0.739 0.408 19 15 12 0 0
-0.1435 0.0519 -0.5228 -0.506 0.752 0.422 19 15 12 0 0
-0.1437 0.0521 -0.5260 -0.664 0.725 0.185 17 13 12 0 0
-0.1439 0.0524 -0.5276 -0.664 0.725 0.185 16 12 11 0 0
-0.1458 0.0546 -0.5432 -0.739 0.671 0.064 36 32 30 0 0
-0.1462 0.0550 -0.5447 -0.815 0.578 -0.045 40 36 33 0 0
-0.1461 0.0550 -0.5464 -0.741 0.645 0.188 28 24 21 0 0
-0.1453 0.0544 -0.5505 -0.305 0.948 0.092 14 10 7 0 0
-0.1450 0.0544 -0.5576 -0.562 0.771 0.299 36 32 29 0 0
-0.1453 0.0546 -0.5592 -0.390 0.505 0.770 15 11 9 0 0
-0.1456 0.0550 -0.5606 -0.347 0.618 0.706 15 11 10 0 0
-0.1464 0.0558 -0.5618 -0.469 0.632 0.616 16 12 11 0 0
-0.1465 0.0559 -0.5634 -0.530 0.751 0.394 15 11 10 0 0
-0.1531 0.0622 -0.5705 -0.456 0.798 0.394 38 34 31 0 0
-0.1540 0.0630 -0.5716 -0.503 0.760 0.411 20 16 14 0 0
-0.1546 0.0638 -0.5780 -0.695 0.631 0.344 22 17 14 0 0
-0.1556 0.0649 -0.5825 -0.797 0.471 0.378 37 31 26 0 0
-0.1566 0.0658 -0.5834 -0.436 0.755 0.489 47 40 36 0 0
-0.1568 0.0660 -0.5851 -0.885 0.308 0.350 54 46 42 0 0
-0.1566 0.0660 -0.5887 -0.621 0.784 0.004 50 42 38 0 0
-0.1505 0.0614 -0.6205 -0.658 0.704 0.266 59 52 35 0 0
-0.1505 0.0615 -0.6224 -0.717 0.696 -0.030 49 40 30 0 0
-0.1480 0.0594 -0.6281 -0.405 0.807 -0.430 37 28 19 0 0
-0.1379 0.0507 -0.6461 -0.837 0.494 0.236 20 16 12 0 0
-0.1385 0.0513 -0.6474 -0.728 0.672 0.138 19 15 12 0 0
-0.1524 0.0644 -0.6612 -0.668 0.256 0.699 118 105 86 0 0
-0.1526 0.0647 -0.6628 -0.768 0.564 0.304 119 108 88 0 0
-0.1548 0.0669 -0.6702 -0.669 0.531 0.519 65 58 46 0 0
-0.1554 0.0675 -0.6715 -0.669 0.531 0.519 56 47 35 0 0
-0.1555 0.0677 -0.6732 -0.761 0.573 0.303 111 101 88 0 0
-0.1560 0.0682 -0.6747 -0.832 0.421 0.362 74 66 54 0 0
-0.1618 0.0743 -0.6994 -0.536 0.806 0.250 44 35 29 0 0
-0.1610 0.0737 -0.7020 -0.802 0.295 0.520 75 65 56 0 0
-0.1745 0.0869 -0.7288 -0.840 0.489 0.236 66 53 36 0 0
-0.1747 0.0871 -0.7305 -0.704 0.691 0.161 72 59 42 0 0
-0.1603 0.0758 -0.7876 -0.681 0.637 0.361 32 25 17 0 0
-0.0259 -0.0650 -0.1780 -0.831 0.041 0.555 157 143 105 0 0
-0.0865 -0.0074 -0.2458 -0.868 0.484 0.108 34 27 19 0 0
-0.0954 0.0011 -0.2545 -0.790 0.476 0.387 88 71 43 0 0
-0.0958 0.0015 -0.2559 -0.790 0.476 0.387 73 56 35 0 0
-0.1093 0.0143 -0.2715 -0.694 0.482 0.535 196 181 150 0 0
-0.1101 0.0151 -0.2727 -0.731 0.364 0.577 165 144 104 0 0
-0.1156 0.0204 -0.2808 -0.707 0.306 0.638 181 162 128 0 0
-0.1158 0.0206 -0.2822 -0.329 0.627 0.706 155 138 108 0 0
-0.1175 0.0223 -0.2844 -0.212 0.682 0.700 142 123 92 0 0
-0.1184 0.0231 -0.2855 -0.212 0.682 0.700 129 114 85 0 0
-0.1190 0.0237 -0.2868 -0.348 0.788 0.508 97 85 59 0 0
-0.1197 0.0245 -0.2922 -0.363 0.926 0.104 54 45 33 0 0
-0.1338 0.0382 -0.3185 -0.628 0.376 0.681 109 95 72 0 0
-0.1348 0.0397 -0.3369 -0.712 0.667 0.219 11 7 6 0 0
-0.1350 0.0400 -0.3383 -0.712 0.667 0.219 11 7 5 0 0
-0.1352 0.0402 -0.3397 -0.712 0.667 0.219 22 18 15 0 0
-0.1355 0.0406 -0.3410 -0.660 0.648 0.381 22 18 15 0 0
-0.1362 0.0416 -0.3539 -0.593 0.501 0.630 35 26 19 0 0
-0.1371 0.0425 -0.3550 -0.703 0.353 0.618 30 23 17 0 0
-0.1376 0.0430 -0.3563 -0.727 0.516 0.453 20 12 7 0 0
-0.1382 0.0436 -0.3575 -0.498 0.867 0.004 22 14 8 0 0
-0.1383 0.0437 -0.3589 -0.501 0.861 0.084 26 17 14 0 0
-0.1400 0.0455 -0.3656 -0.352 0.633 0.690 120 105 78 0 0
-0.1412 0.0467 -0.3679 -0.566 0.521 0.639 161 146 121 0 0
-0.1420 0.0474 -0.3691 -0.690 0.492 0.531 146 130 107 0 0
-0.1426 0.0480 -0.3703 -0.687 0.539 0.488 118 98 74 0 0
-0.1431 0.0485 -0.3715 -0.587 0.627 0.513 107 85 61 0 0
-0.1437 0.0491 -0.3727 -0.587 0.627 0.513 112 91 66 0 0
-0.1447 0.0501 -0.3767 -0.392 0.911 0.129 66 50 25 0 0
-0.1485 0.0539 -0.3853 -0.446 0.558 0.700 78 61 44 0 0
-0.1495 0.0549 -0.3878 -0.538 0.663 0.521 57 38 22 0 0
-0.1502 0.0556 -0.3890 -0.641 0.528 0.557 65 46 27 0 0
-0.1557 0.0612 -0.4057 -0.630 0.767 0.120 66 47 27 0 0
-0.1558 0.0613 -0.4071 -0.350 0.822 0.449 80 61 39 0 0
-0.1622 0.0677 -0.4249 -0.573 0.621 0.534 70 53 33 0 0
-0.1631 0.0693 -0.4460 -0.302 0.802 0.516 70 60 48 0 0
-0.1707 0.0764 -0.4506 -0.521 0.305 0.797 148 136 116 0 0
-0.1715 0.0772 -0.4517 -0.740 0.383 0.553 154 142 125 0 0
-0.1725 0.0781 -0.4526 -0.797 0.343 0.497 187 175 159 0 0
-0.1726 0.0782 -0.4541 -0.497 0.519 0.696 84 76 58 0 0
-0.1726 0.0787 -0.4697 -0.377 0.867 -0.325 89 78 48 0 0
-0.1383 0.0484 -0.5005 -0.826 0.509 0.240 33 32 30 0 0
-0.1396 0.0499 -0.5113 -0.560 0.822 0.104 17 13 12 0 0
-0.1399 0.0503 -0.5127 -0.733 0.614 0.293 17 14 11 0 0
-0.1404 0.0507 -0.5141 -0.857 0.267 0.440 20 18 15 0 0
-0.1410 0.0514 -0.5153 -0.840 0.498 0.217 15 13 13 0 0
-0.1413 0.0517 -0.5168 -0.759 0.580 0.296 12 11 10 0 0
-0.1417 0.0521 -0.5182 -0.684 0.479 0.551 17 16 11 0 0
-0.1424 0.0528 -0.5194 -0.704 0.468 0.534 32 28 25 0 0
-0.1430 0.0534 -0.5224 -0.873 0.351 0.339 21 17 14 0 0
-0.1433 0.0537 -0.5239 -0.832 0.320 0.453 20 16 14 0 0
-0.1432 0.0537 -0.5256 -0.919 0.299 0.258 19 15 14 0 0
-0.1440 0.0547 -0.5335 -0.784 0.600 0.160 24 20 19 0 0
-0.1441 0.0548 -0.5352 -0.838 0.545 -0.016 27 23 21 0 0
-0.1442 0.0550 -0.5368 -0.706 0.709 -0.004 27 23 20 0 0
-0.1442 0.0551 -0.5385 -0.706 0.709 -0.004 22 18 15 0 0
-0.1443 0.0553 -0.5453 -0.565 0.823 -0.063 50 45 41 0 0
-0.1439 0.0552 -0.5490 -0.644 0.763 0.059 19 15 12 0 0
-0.1446 0.0558 -0.5502 -0.589 0.765 0.260 18 14 11 0 0
-0.1437 0.0551 -0.5526 -0.824 0.562 -0.077 24 20 17 0 0
-0.1452 0.0568 -0.5636 -0.879 0.348 0.325 16 12 11 0 0
-0.1535 0.0646 -0.5711 -0.607 0.698 0.381 21 16 15 0 0
-0.1536 0.0648 -0.5728 -0.745 0.656 0.120 20 14 15 0 0
-0.1553 0.0667 -0.5836 -0.436 0.755 0.489 30 25 21 0 0
-0.1548 0.0664 -0.5893 -0.314 0.935 0.164 51 44 39 0 0
-0.1550 0.0666 -0.5909 -0.331 0.933 -0.138 54 47 40 0 0
-0.1473 0.0607 -0.6223 -0.153 0.983 -0.103 51 43 31 0 0
-0.1375 0.0525 -0.6454 -0.514 0.840 0.175 19 15 11 0 0
-0.1377 0.0527 -0.6471 -0.418 0.870 0.263 20 16 13 0 0
-0.1435 0.0584 -0.6569 -0.123 0.918 0.378 32 28 24 0 0
-0.1500 0.0644 -0.6605 -0.494 0.588 0.640 105 92 72 0 0
-0.1507 0.0651 -0.6616 -0.635 0.487 0.600 105 93 71 0 0
-0.1512 0.0656 -0.6631 -0.735 0.505 0.452 100 89 70 0 0
-0.1532 0.0676 -0.6687 -0.846 0.506 0.170 64 57 45 0 0
-0.1598 0.0740 -0.6775 -0.685 0.354 0.637 39 31 23 0 0
-0.1606 0.0750 -0.6881 -0.894 0.442 -0.073 31 26 22 0 0
-0.1605 0.0749 -0.6901 -0.888 0.454 -0.074 26 22 19 0 0
-0.1605 0.0753 -0.6996 -0.536 0.806 0.250 36 29 22 0 0
-0.1648 0.0795 -0.7067 -0.441 0.098 0.892 57 51 41 0 0
-0.1660 0.0806 -0.7075 -0.576 0.317 0.753 77 69 50 0 0
-0.1739 0.0887 -0.7341 -0.844 0.528 -0.095 89 77 55 0 0
-0.1551 0.0730 -0.7799 -0.830 0.372 0.415 48 38 28 0 0
-0.1556 0.0735 -0.7813 -0.852 0.463 0.245 46 38 27 0 0
-0.1593 0.0771 -0.7874 -0.639 0.645 0.419 39 32 24 0 0
-0.1601 0.0779 -0.7886 -0.590 0.518 0.619 40 33 25 0 0
-0.1642 0.0817 -0.7922 -0.823 0.484 0.296 56 46 34 0 0
-0.0886 -0.0035 -0.2477 -0.343 0.397 0.851 90 80 63 0 0
-0.0917 -0.0006 -0.2496 -0.678 0.489 0.549 186 171 139 0 0
-0.0948 0.0024 -0.2530 -0.748 0.532 0.396 107 91 59 0 0
-0.0950 0.0026 -0.2543 -0.847 0.427 0.316 84 66 39 0 0
-0.1070 0.0141 -0.2705 -0.418 0.621 0.663 166 145 118 0 0
-0.1075 0.0146 -0.2718 -0.523 0.582 0.622 159 139 105 0 0
-0.1082 0.0153 -0.2730 -0.523 0.582 0.622 150 130 86 0 0
-0.1097 0.0167 -0.2739 -0.616 0.502 0.607 178 152 104 0 0
-0.1288 0.0353 -0.3099 -0.675 0.587 0.447 171 156 129 0 0
-0.1367 0.0441 -0.3562 -0.727 0.516 0.453 33 24 15 0 0
-0.1378 0.0454 -0.3631 -0.524 0.748 0.408 84 71 54 0 0
-0.1380 0.0456 -0.3645 -0.504 0.705 0.499 74 60 36 0 0
-0.1392 0.0467 -0.3655 -0.406 0.626 0.665 126 111 83 0 0
-0.1399 0.0474 -0.3681 -0.706 0.483 0.518 156 140 115 0 0
-0.1404 0.0479 -0.3693 -0.727 0.517 0.451 143 125 106 0 0
-0.1416 0.0491 -0.3702 -0.571 0.664 0.482 136 118 95 0 0
-0.1421 0.0495 -0.3715 -0.502 0.752 0.428 78 59 34 0 0
-0.1425 0.0499 -0.3728 -0.518 0.795 0.315 73 55 27 0 0
-0.1484 0.0559 -0.3878 -0.514 0.664 0.544 57 37 18 0 0
-0.1612 0.0687 -0.4249 -0.667 0.538 0.515 56 44 21 0 0
-0.1610 0.0687 -0.4265 -0.398 0.799 0.451 60 45 26 0 0
-0.1613 0.0695 -0.4449 -0.590 0.629 0.506 52 40 27 0 0
-0.1618 0.0700 -0.4462 -0.719 0.516 0.466 57 45 32 0 0
-0.1632 0.0713 -0.4468 -0.759 0.604 0.245 56 44 31 0 0
-0.1669 0.0748 -0.4492 -0.212 0.287 0.934 133 120 107 0 0
-0.1689 0.0766 -0.4496 -0.369 0.702 0.610 140 127 113 0 0
-0.1698 0.0775 -0.4505 -0.205 0.883 0.422 170 159 140 0 0
-0.1701 0.0778 -0.4519 -0.380 0.834 0.400 156 146 125 0 0
-0.1381 0.0504 -0.5048 -0.660 0.748 0.068 16 12 9 0 0
-0.1382 0.0507 -0.5098 -0.441 0.779 0.445 53 49 48 0 0
-0.1385 0.0510 -0.5130 -0.686 0.714 0.141 16 12 11 0 0
-0.1444 0.0569 -0.5274 -0.956 0.203 0.211 25 21 18 0 0
-0.1429 0.0556 -0.5301 -0.751 0.639 0.166 25 21 18 0 0
-0.1430 0.0563 -0.5471 -0.691 0.722 -0.036 22 19 16 0 0
-0.1426 0.0560 -0.5492 -0.704 0.638 0.312 19 17 13 0 0
-0.1430 0.0565 -0.5506 -0.774 0.434 0.461 17 16 12 0 0
-0.1515 0.0650 -0.5753 -0.588 0.600 0.542 26 19 16 0 0
-0.1526 0.0660 -0.5762 -0.716 0.650 0.256 25 19 15 0 0
-0.1522 0.0658 -0.5782 -0.657 0.713 0.245 25 22 17 0 0
-0.1546 0.0682 -0.5850 -0.581 0.812 0.058 50 42 39 0 0
-0.1543 0.0680 -0.5888 -0.623 0.782 0.000 43 38 34 0 0
-0.1427 0.0587 -0.6271 0.160 0.984 -0.084 41 31 25 0 0
-0.1425 0.0587 -0.6291 -0.003 0.966 -0.260 36 26 21 0 0
-0.1362 0.0534 -0.6456 -0.514 0.840 0.175 18 14 11 0 0
-0.1407 0.0579 -0.6566 -0.274 0.766 0.582 25 21 18 0 0
-0.1488 0.0654 -0.6605 -0.494 0.588 0.640 88 77 57 0 0
-0.1495 0.0661 -0.6617 -0.494 0.588 0.640 88 77 56 0 0
-0.1499 0.0665 -0.6633 -0.599 0.704 0.382 90 81 63 0 0
-0.1576 0.0747 -0.6956 -0.680 0.728 -0.089 19 16 13 0 0
-0.1574 0.0746 -0.6976 -0.574 0.765 0.291 24 21 18 0 0
-0.1578 0.0749 -0.6992 -0.646 0.742 0.177 22 18 15 0 0
-0.1745 0.0907 -0.7169 -0.817 0.577 -0.006 86 79 57 0 0
-0.1728 0.0898 -0.7321 -0.938 0.343 0.045 98 85 68 0 0
-0.1732 0.0902 -0.7336 -0.879 0.467 -0.097 95 82 62 0 0
-0.1541 0.0745 -0.7837 -0.587 0.180 0.790 42 33 23 0 0
-0.1582 0.0783 -0.7874 -0.639 0.645 0.419 35 29 20 0 0
-0.1590 0.0791 -0.7885 -0.649 0.338 0.682 42 35 25 0 0
-0.1624 0.0823 -0.7909 -0.307 0.643 0.702 52 43 31 0 0
-0.1643 0.0844 -0.8030 -0.354 0.904 0.239 91 76 51 0 0
-0.1645 0.0846 -0.8048 -0.530 0.848 0.016 80 66 42 0 0
-0.1635 0.0838 -0.8080 -0.463 0.881 -0.098 67 55 34 0 0
-0.1723 0.0926 -0.8288 -0.921 0.363 0.140 115 102 71 0 0
-0.1763 0.0971 -0.8533 -0.840 0.541 0.055 107 92 65 0 0
-0.0214 -0.0651 -0.1769 -0.762 0.504 0.405 136 121 94 0 0
-0.0302 -0.0568 -0.1839 -0.683 0.652 0.329 133 119 83 0 0
-0.0310 -0.0561 -0.1852 -0.497 0.482 0.721 128 112 78 0 0
-0.0331 -0.0541 -0.1877 -0.252 0.438 0.863 146 130 91 0 0
-0.0344 -0.0528 -0.1889 -0.323 0.391 0.862 149 133 90 0 0
-0.0366 -0.0508 -0.1913 -0.713 0.451 0.537 164 146 106 0 0
-0.0336 -0.0533 -0.1977 -0.917 0.362 -0.169 120 106 69 0 0
-0.0335 -0.0533 -0.1992 -0.777 0.488 0.398 118 106 73 0 0
-0.0329 -0.0538 -0.2008 -0.318 0.591 0.742 104 90 64 0 0
-0.0628 -0.0252 -0.2387 -0.070 -0.113 0.991 144 128 103 0 0
-0.0854 -0.0046 -0.2426 -0.849 0.343 0.403 48 40 24 0 0
