ply
format ascii 1.0
element vertex 828
property float x
property float y
property float z
property float nx
property float ny
property float nz
property uchar diffuse_red
property uchar diffuse_green
property uchar diffuse_blue
property uchar class
property uchar detection
end_header
-0.0855 -0.0003 -0.2478 -0.603 -0.645 0.470 148 137 123 0 0
-0.1020 -0.0128 -0.2644 -0.401 -0.530 0.747 96 87 72 0 0
-0.1113 -0.0204 -0.2685 -0.625 -0.380 0.682 132 115 88 0 0
-0.1135 -0.0211 -0.2794 -0.528 -0.486 0.697 117 103 87 0 0
-0.1245 -0.0291 -0.2930 -0.706 -0.680 0.199 102 87 64 0 0
-0.1244 -0.0289 -0.2945 -0.645 -0.565 0.515 88 73 49 0 0
-0.1250 -0.0293 -0.2958 -0.674 -0.641 0.366 72 58 33 0 0
-0.1255 -0.0295 -0.2971 -0.674 -0.641 0.366 100 86 60 0 0
-0.1256 -0.0294 -0.2985 -0.602 -0.660 0.449 130 116 91 0 0
-0.1261 -0.0298 -0.2998 -0.644 -0.590 0.487 107 91 67 0 0
-0.1263 -0.0298 -0.3012 -0.530 -0.633 0.565 179 163 139 0 0
-0.1268 -0.0301 -0.3025 -0.546 -0.512 0.663 131 118 94 0 0
-0.1279 -0.0309 -0.3036 -0.637 -0.519 0.570 89 76 56 0 0
-0.1276 -0.0305 -0.3052 -0.722 -0.404 0.561 68 55 40 0 0
-0.1277 -0.0304 -0.3067 -0.794 -0.408 0.451 45 33 18 0 0
-0.1337 -0.0339 -0.3222 -0.542 -0.643 0.541 90 83 67 0 0
-0.1348 -0.0347 -0.3232 -0.828 -0.343 0.445 59 52 37 0 0
-0.1404 -0.0381 -0.3360 -0.603 -0.431 0.671 127 110 83 0 0
-0.1412 -0.0387 -0.3371 -0.484 -0.508 0.713 96 83 64 0 0
-0.1442 -0.0413 -0.3372 -0.572 -0.653 0.497 61 51 40 0 0
-0.1447 -0.0414 -0.3400 -0.621 -0.715 0.322 40 31 21 0 0
-0.1451 -0.0416 -0.3414 -0.621 -0.715 0.322 44 35 25 0 0
-0.1413 -0.0318 -0.3989 -0.530 -0.833 0.160 84 68 45 0 0
-0.1416 -0.0317 -0.4020 -0.582 -0.780 0.229 94 79 53 0 0
-0.1420 -0.0317 -0.4051 -0.679 -0.704 0.208 104 87 59 0 0
-0.1410 -0.0285 -0.4256 -0.537 -0.749 0.388 103 89 62 0 0
-0.1465 -0.0267 -0.4842 -0.288 -0.688 0.666 24 20 16 0 0
-0.1517 -0.0300 -0.4948 -0.647 -0.386 0.657 24 19 13 0 0
-0.2138 -0.0830 -0.5043 -0.724 -0.674 0.146 98 84 55 0 0
-0.2141 -0.0831 -0.5058 -0.642 -0.747 0.170 118 106 81 0 0
-0.2255 -0.0899 -0.5330 -0.879 -0.376 0.295 81 64 44 0 0
-0.2281 -0.0918 -0.5360 -0.328 -0.833 0.445 87 74 55 0 0
-0.2283 -0.0918 -0.5376 -0.611 -0.691 0.387 102 88 63 0 0
-0.2288 -0.0921 -0.5390 -0.668 -0.616 0.418 102 89 59 0 0
-0.2270 -0.0895 -0.5476 -0.677 -0.735 0.041 134 118 82 0 0
-0.2283 -0.0906 -0.5482 -0.459 -0.613 0.643 139 124 83 0 0
-0.2287 -0.0908 -0.5496 -0.846 -0.506 0.165 134 117 74 0 0
-0.2286 -0.0895 -0.5605 -0.189 -0.938 -0.291 107 95 67 0 0
-0.2139 -0.0743 -0.5812 -0.966 0.202 0.162 55 47 41 0 0
-0.2155 -0.0753 -0.5853 -0.751 -0.645 0.140 86 81 68 0 0
-0.2158 -0.0753 -0.5870 -0.751 -0.645 0.140 101 91 74 0 0
-0.2167 -0.0758 -0.5898 -0.831 -0.421 0.363 78 65 47 0 0
-0.2173 -0.0762 -0.5911 -0.851 -0.507 0.135 51 37 20 0 0
-0.2189 -0.0773 -0.5934 -0.629 -0.530 0.569 46 33 17 0 0
-0.2177 -0.0640 -0.7016 -0.872 -0.203 0.445 91 78 55 0 0
-0.2181 -0.0642 -0.7033 -0.922 -0.314 0.225 86 74 45 0 0
-0.2190 -0.0649 -0.7043 -0.915 -0.382 0.125 141 125 87 0 0
-0.2192 -0.0646 -0.7083 -0.746 -0.549 0.378 91 76 45 0 0
-0.2194 -0.0644 -0.7123 -0.578 -0.794 0.188 89 75 48 0 0
-0.2302 -0.0730 -0.7189 -0.513 -0.857 0.046 146 126 85 0 0
-0.2298 -0.0723 -0.7215 -0.635 -0.528 0.565 140 121 82 0 0
-0.2038 -0.0425 -0.7854 -0.860 -0.297 0.414 75 63 44 0 0
-0.2039 -0.0424 -0.7875 -0.536 -0.497 0.683 55 44 28 0 0
-0.2048 -0.0430 -0.7887 -0.511 -0.419 0.750 35 27 14 0 0
-0.2056 -0.0436 -0.7900 -0.669 -0.122 0.733 26 18 9 0 0
-0.2193 -0.0545 -0.7981 -0.774 -0.368 0.514 45 36 26 0 0
-0.2330 -0.0649 -0.8123 -0.874 -0.484 0.044 82 68 37 0 0
-0.2277 -0.0589 -0.8241 -0.915 -0.224 0.337 183 170 118 0 0
-0.2334 -0.0637 -0.8257 -0.843 -0.092 0.530 184 173 127 0 0
-0.2389 -0.0640 -0.8655 -0.885 0.101 0.454 128 124 122 0 0
-0.2396 -0.0644 -0.8669 -0.655 0.054 0.754 146 142 141 0 0
-0.2406 -0.0652 -0.8679 -0.392 0.086 0.916 160 156 157 0 0
-0.0881 -0.0004 -0.2501 -0.310 0.052 0.949 170 153 129 0 0
-0.0905 -0.0024 -0.2508 -0.396 0.002 0.918 136 122 103 0 0
-0.1021 -0.0111 -0.2631 -0.832 0.135 0.538 58 51 33 0 0
-0.1031 -0.0119 -0.2642 -0.038 -0.696 0.717 109 99 83 0 0
-0.1051 -0.0135 -0.2650 -0.248 -0.859 0.449 140 124 106 0 0
-0.1200 -0.0241 -0.2861 -0.671 -0.447 0.591 149 129 95 0 0
-0.1206 -0.0245 -0.2874 -0.782 -0.583 0.220 130 112 85 0 0
-0.1261 -0.0284 -0.2956 -0.480 -0.807 0.343 73 59 35 0 0
-0.1266 -0.0287 -0.2969 -0.538 -0.716 0.444 96 81 57 0 0
-0.1290 -0.0298 -0.3049 -0.448 -0.622 0.642 73 60 45 0 0
-0.1294 -0.0300 -0.3062 -0.580 -0.552 0.599 60 49 32 0 0
-0.1350 -0.0330 -0.3234 -0.702 -0.673 0.233 78 69 55 0 0
-0.1413 -0.0316 -0.3831 -0.719 -0.671 0.183 75 54 34 0 0
-0.1425 -0.0305 -0.4019 -0.711 -0.681 0.173 88 73 45 0 0
-0.1428 -0.0306 -0.4034 -0.711 -0.681 0.173 98 82 52 0 0
-0.1431 -0.0307 -0.4049 -0.711 -0.681 0.173 106 89 61 0 0
-0.1440 -0.0312 -0.4076 -0.748 -0.607 0.269 87 70 44 0 0
-0.1416 -0.0272 -0.4240 -0.885 -0.368 0.285 105 91 64 0 0
-0.1414 -0.0269 -0.4258 -0.752 -0.634 0.182 108 94 67 0 0
-0.1508 -0.0281 -0.4871 -0.734 -0.674 0.078 62 54 46 0 0
-0.1511 -0.0281 -0.4887 -0.659 -0.746 0.095 52 42 33 0 0
-0.1522 -0.0283 -0.4951 -0.699 -0.516 0.496 25 19 15 0 0
-0.2151 -0.0821 -0.5056 -0.776 -0.564 0.282 107 92 72 0 0
-0.2155 -0.0823 -0.5070 -0.767 -0.526 0.366 87 72 49 0 0
-0.2162 -0.0827 -0.5082 -0.405 -0.764 0.502 126 112 84 0 0
-0.2254 -0.0897 -0.5179 -0.465 -0.835 0.293 112 99 73 0 0
-0.2289 -0.0908 -0.5342 -0.525 -0.760 0.384 77 62 41 0 0
-0.2289 -0.0900 -0.5413 -0.841 -0.532 0.100 108 95 62 0 0
-0.2293 -0.0896 -0.5480 -0.560 -0.693 0.454 136 121 82 0 0
-0.2296 -0.0897 -0.5495 -0.563 -0.800 0.208 160 146 105 0 0
-0.2309 -0.0905 -0.5520 -0.528 -0.674 0.516 175 159 115 0 0
-0.2149 -0.0729 -0.5848 -0.986 -0.124 0.112 54 51 46 0 0
-0.2159 -0.0736 -0.5857 -0.847 -0.531 0.041 65 58 48 0 0
-0.2171 -0.0741 -0.5903 -0.647 -0.593 0.479 107 95 72 0 0
-0.2181 -0.0749 -0.5912 -0.632 -0.620 0.465 96 81 58 0 0
-0.2188 -0.0751 -0.5943 -0.439 -0.814 0.380 55 40 24 0 0
-0.2250 -0.0793 -0.6054 -0.898 -0.406 0.168 90 74 44 0 0
-0.2228 -0.0743 -0.6325 -0.931 -0.365 -0.026 127 112 81 0 0
-0.1998 -0.0492 -0.6762 -0.733 0.005 0.681 89 79 67 0 0
-0.2062 -0.0537 -0.6860 -0.922 -0.373 0.104 124 110 82 0 0
-0.2063 -0.0536 -0.6880 -0.637 -0.499 0.588 125 109 84 0 0
-0.2071 -0.0541 -0.6892 -0.424 -0.475 0.771 118 103 78 0 0
-0.2183 -0.0624 -0.7020 -0.907 0.029 0.421 64 51 40 0 0
-0.2189 -0.0628 -0.7034 -0.934 -0.231 0.273 70 56 36 0 0
-0.2198 -0.0635 -0.7045 -0.974 -0.210 0.088 144 128 97 0 0
-0.2200 -0.0634 -0.7063 -0.974 -0.210 0.088 151 135 99 0 0
-0.2208 -0.0637 -0.7097 -0.828 -0.308 0.468 87 75 49 0 0
-0.2213 -0.0640 -0.7112 -0.874 -0.388 0.292 84 73 46 0 0
-0.2230 -0.0650 -0.7156 -0.454 -0.555 0.697 103 88 55 0 0
-0.2261 -0.0674 -0.7184 -0.813 -0.141 0.565 110 92 61 0 0
-0.2054 -0.0412 -0.7892 -0.591 -0.379 0.712 70 61 44 0 0
-0.2058 -0.0414 -0.7910 -0.578 -0.602 0.551 46 37 22 0 0
-0.2069 -0.0423 -0.7918 -0.794 -0.206 0.572 32 23 13 0 0
-0.2079 -0.0430 -0.7929 -0.817 -0.029 0.576 23 16 11 0 0
-0.2199 -0.0528 -0.7985 -0.787 -0.206 0.582 35 26 20 0 0
-0.2196 -0.0520 -0.8034 -0.890 -0.359 0.280 44 34 22 0 0
-0.2201 -0.0522 -0.8051 -0.890 -0.359 0.280 66 55 39 0 0
-0.2274 -0.0568 -0.8210 -0.724 -0.634 0.272 129 112 75 0 0
-0.2278 -0.0570 -0.8228 -0.764 -0.510 0.395 153 134 91 0 0
-0.2284 -0.0573 -0.8243 -0.844 -0.377 0.381 185 168 120 0 0
-0.2383 -0.0612 -0.8654 -0.923 0.064 0.380 120 116 112 0 0
-0.2395 -0.0622 -0.8661 -0.876 0.071 0.477 139 135 134 0 0
-0.2414 -0.0636 -0.8681 -0.165 0.035 0.986 165 161 162 0 0
-0.0882 0.0015 -0.2503 -0.315 0.077 0.946 179 162 137 0 0
-0.0907 -0.0007 -0.2510 -0.299 -0.070 0.952 169 155 133 0 0
-0.1013 -0.0086 -0.2621 -0.790 -0.089 0.607 75 63 48 0 0
-0.1024 -0.0095 -0.2632 -0.554 -0.169 0.815 76 68 50 0 0
-0.1080 -0.0141 -0.2657 -0.247 -0.884 0.397 214 192 158 0 0
-0.1087 -0.0145 -0.2669 -0.240 -0.818 0.522 180 162 126 0 0
-0.1127 -0.0172 -0.2743 -0.858 -0.425 0.288 36 26 18 0 0
-0.1128 -0.0167 -0.2787 -0.657 -0.559 0.507 68 60 47 0 0
-0.1141 -0.0178 -0.2797 -0.507 -0.620 0.599 135 123 100 0 0
-0.1207 -0.0228 -0.2861 -0.335 -0.755 0.563 146 127 93 0 0
-0.1270 -0.0273 -0.2955 -0.785 -0.477 0.395 85 70 49 0 0
-0.1275 -0.0275 -0.2968 -0.696 -0.489 0.526 97 82 59 0 0
-0.1280 -0.0278 -0.2981 -0.785 -0.477 0.395 90 75 50 0 0
-0.1308 -0.0287 -0.3119 -0.698 -0.610 0.376 65 52 35 0 0
-0.1313 -0.0290 -0.3133 -0.698 -0.610 0.376 88 75 61 0 0
-0.1320 -0.0294 -0.3145 -0.609 -0.561 0.561 88 77 61 0 0
-0.1372 -0.0322 -0.3304 -0.692 -0.429 0.580 75 63 54 0 0
-0.1461 -0.0392 -0.3369 -0.605 -0.717 0.347 41 30 23 0 0
-0.1477 -0.0394 -0.3470 -0.801 -0.583 0.137 20 14 8 0 0
-0.1472 -0.0380 -0.3550 -0.860 -0.254 0.442 33 22 14 0 0
-0.1459 -0.0363 -0.3603 -0.678 -0.702 -0.219 71 62 46 0 0
-0.1399 -0.0285 -0.3826 -0.736 -0.624 0.261 88 66 43 0 0
-0.1401 -0.0279 -0.3890 -0.662 -0.693 0.284 51 33 14 0 0
-0.1407 -0.0283 -0.3903 -0.772 -0.571 0.278 49 30 13 0 0
-0.1416 -0.0290 -0.3914 -0.673 -0.519 0.527 62 43 24 0 0
-0.1441 -0.0296 -0.4047 -0.591 -0.794 0.142 87 70 42 0 0
-0.1510 -0.0266 -0.4840 -0.372 -0.908 0.192 27 22 17 0 0
-0.1520 -0.0271 -0.4869 -0.792 -0.609 -0.048 84 78 74 0 0
-0.1562 -0.0294 -0.4982 -0.635 -0.269 0.724 70 64 58 0 0
-0.2126 -0.0793 -0.4945 -0.437 -0.303 0.847 147 138 108 0 0
-0.2144 -0.0806 -0.4965 -0.778 -0.398 0.486 153 140 108 0 0
-0.2299 -0.0898 -0.5340 -0.634 -0.379 0.675 79 65 40 0 0
-0.2304 -0.0886 -0.5478 -0.483 -0.725 0.491 136 121 84 0 0
-0.2308 -0.0888 -0.5492 -0.563 -0.800 0.208 139 127 85 0 0
-0.2319 -0.0895 -0.5518 -0.341 -0.735 0.586 160 145 106 0 0
-0.2167 -0.0721 -0.5877 -0.405 -0.792 0.457 80 75 56 0 0
-0.2174 -0.0726 -0.5888 -0.648 -0.760 0.040 100 93 70 0 0
-0.2176 -0.0726 -0.5905 -0.585 -0.325 0.743 104 93 66 0 0
-0.2189 -0.0736 -0.5912 -0.750 -0.381 0.540 109 94 68 0 0
-0.2196 -0.0741 -0.5924 -0.539 -0.719 0.439 92 76 54 0 0
-0.2203 -0.0745 -0.5937 -0.773 -0.237 0.589 99 83 64 0 0
-0.2255 -0.0777 -0.6057 -0.969 -0.238 0.067 89 73 42 0 0
-0.1995 -0.0467 -0.6775 -0.532 -0.135 0.836 105 93 79 0 0
-0.2069 -0.0522 -0.6862 -0.857 -0.469 0.213 71 59 37 0 0
-0.2072 -0.0523 -0.6879 -0.637 -0.499 0.588 95 81 58 0 0
-0.2080 -0.0528 -0.6892 -0.537 -0.401 0.742 116 102 78 0 0
-0.2107 -0.0548 -0.6925 -0.456 -0.649 0.609 75 61 37 0 0
-0.2117 -0.0556 -0.6935 -0.610 -0.619 0.495 69 56 32 0 0
-0.2195 -0.0611 -0.7038 -0.940 -0.198 0.279 76 64 40 0 0
-0.2199 -0.0613 -0.7054 -0.940 -0.198 0.279 76 63 36 0 0
-0.2264 -0.0655 -0.7190 -0.760 -0.337 0.556 103 87 57 0 0
-0.2310 -0.0684 -0.7286 -0.807 -0.342 0.482 153 133 86 0 0
-0.2062 -0.0397 -0.7894 -0.614 -0.274 0.740 94 82 64 0 0
-0.2069 -0.0401 -0.7908 -0.578 -0.602 0.551 83 72 51 0 0
-0.2069 -0.0398 -0.7931 -0.515 -0.851 0.103 58 49 30 0 0
-0.2091 -0.0416 -0.7950 -0.726 -0.442 0.527 29 22 13 0 0
-0.2204 -0.0505 -0.8036 -0.924 -0.309 0.223 38 29 18 0 0
-0.2208 -0.0506 -0.8054 -0.890 -0.359 0.280 49 41 27 0 0
-0.2258 -0.0536 -0.8174 -0.730 -0.343 0.591 79 68 40 0 0
-0.2274 -0.0548 -0.8199 -0.785 -0.510 0.352 113 100 65 0 0
-0.2288 -0.0556 -0.8228 -0.801 -0.345 0.490 172 150 106 0 0
-0.2294 -0.0560 -0.8243 -0.847 -0.450 0.282 165 146 105 0 0
-0.2302 -0.0565 -0.8256 -0.666 -0.667 0.334 138 126 86 0 0
-0.2371 -0.0579 -0.8659 -0.941 0.133 0.311 111 107 101 0 0
-0.0869 0.0045 -0.2495 -0.380 0.014 0.925 161 149 126 0 0
-0.0890 0.0027 -0.2502 -0.374 -0.052 0.926 170 152 125 0 0
-0.1026 -0.0078 -0.2619 -0.278 -0.105 0.955 140 128 110 0 0
-0.1058 -0.0106 -0.2623 -0.349 -0.395 0.850 115 104 84 0 0
-0.1072 -0.0118 -0.2632 -0.665 -0.348 0.661 143 130 109 0 0
-0.1089 -0.0131 -0.2641 -0.600 -0.735 0.316 180 164 136 0 0
-0.1094 -0.0134 -0.2654 -0.404 -0.703 0.586 218 198 161 0 0
-0.1102 -0.0140 -0.2666 -0.404 -0.703 0.586 209 192 156 0 0
-0.1130 -0.0157 -0.2730 -0.771 -0.636 -0.015 45 36 24 0 0
-0.1132 -0.0157 -0.2744 -0.841 -0.476 0.256 32 24 17 0 0
-0.1132 -0.0154 -0.2773 -0.768 -0.165 0.619 36 31 22 0 0
-0.1134 -0.0153 -0.2787 -0.497 -0.429 0.755 77 69 57 0 0
-0.1315 -0.0274 -0.3119 -0.617 -0.564 0.549 60 46 32 0 0
-0.1322 -0.0278 -0.3132 -0.698 -0.610 0.376 82 69 56 0 0
-0.1328 -0.0282 -0.3144 -0.636 -0.585 0.504 100 89 75 0 0
-0.1355 -0.0304 -0.3162 -0.798 -0.600 0.054 157 141 119 0 0
-0.1376 -0.0306 -0.3305 -0.784 -0.299 0.544 87 74 61 0 0
-0.1477 -0.0366 -0.3551 -0.886 -0.250 0.390 42 32 23 0 0
-0.1407 -0.0269 -0.3858 -0.357 -0.828 0.433 73 54 29 0 0
-0.1454 -0.0288 -0.4044 -0.597 -0.785 0.164 93 76 48 0 0
-0.1455 -0.0260 -0.4293 -0.397 -0.909 0.127 96 82 58 0 0
-0.1458 -0.0261 -0.4308 -0.397 -0.909 0.127 99 85 59 0 0
-0.1461 -0.0262 -0.4324 -0.408 -0.912 0.031 98 84 58 0 0
-0.1569 -0.0280 -0.4983 -0.635 -0.269 0.724 73 66 61 0 0
-0.1846 -0.0528 -0.4939 0.432 -0.096 0.897 51 38 30 0 0
-0.2134 -0.0783 -0.4927 -0.486 -0.163 0.858 117 102 69 0 0
-0.2174 -0.0803 -0.5050 -0.629 -0.749 0.208 80 63 43 0 0
-0.2179 -0.0806 -0.5063 -0.563 -0.756 0.333 99 84 58 0 0
-0.2282 -0.0886 -0.5152 -0.487 -0.757 0.435 92 77 58 0 0
-0.2258 -0.0757 -0.6081 -0.978 -0.159 0.136 107 93 60 0 0
-0.2072 -0.0507 -0.6827 -0.909 -0.317 0.272 95 82 64 0 0
-0.2076 -0.0509 -0.6844 -0.874 -0.425 0.235 57 45 28 0 0
-0.2080 -0.0510 -0.6860 -0.874 -0.425 0.235 58 47 27 0 0
-0.2148 -0.0559 -0.6953 -0.776 -0.479 0.410 77 67 45 0 0
-0.2208 -0.0598 -0.7074 -0.923 -0.185 0.338 57 45 22 0 0
-0.2323 -0.0670 -0.7324 -0.774 -0.628 0.080 122 108 76 0 0
-0.2080 -0.0389 -0.7906 -0.578 -0.602 0.551 98 85 66 0 0
-0.2109 -0.0405 -0.7985 -0.511 -0.600 0.615 33 27 13 0 0
-0.2190 -0.0476 -0.7997 -0.652 -0.569 0.500 31 22 13 0 0
-0.2201 -0.0481 -0.8029 -0.863 -0.350 0.364 31 22 13 0 0
-0.2207 -0.0484 -0.8045 -0.863 -0.350 0.364 33 25 15 0 0
-0.2213 -0.0488 -0.8060 -0.874 -0.387 0.293 35 28 17 0 0
-0.2218 -0.0490 -0.8077 -0.874 -0.387 0.293 48 36 22 0 0
-0.2222 -0.0492 -0.8094 -0.874 -0.387 0.293 63 48 32 0 0
-0.2262 -0.0520 -0.8158 -0.753 -0.284 0.593 96 83 53 0 0
-0.2268 -0.0523 -0.8174 -0.823 -0.302 0.481 96 84 53 0 0
-0.2274 -0.0527 -0.8188 -0.775 -0.490 0.399 105 93 62 0 0
-0.2283 -0.0533 -0.8200 -0.642 -0.730 0.235 111 99 64 0 0
-0.2288 -0.0536 -0.8217 -0.629 -0.660 0.411 124 108 67 0 0
-0.2307 -0.0550 -0.8238 -0.363 -0.835 0.414 114 99 63 0 0
-0.2314 -0.0554 -0.8253 -0.363 -0.835 0.414 98 86 54 0 0
-0.2409 -0.0628 -0.8334 -0.950 0.071 0.303 127 115 84 0 0
-0.2376 -0.0560 -0.8666 -0.960 0.137 0.243 124 122 116 0 0
-0.0882 0.0053 -0.2492 -0.668 0.299 0.682 178 168 150 0 0
-0.0895 0.0042 -0.2503 -0.615 0.213 0.759 171 156 130 0 0
-0.0915 0.0026 -0.2511 -0.764 0.109 0.636 144 129 102 0 0
-0.1064 -0.0092 -0.2623 -0.624 -0.122 0.772 144 131 112 0 0
-0.1086 -0.0110 -0.2630 -0.912 -0.004 0.410 166 150 125 0 0
-0.1094 -0.0117 -0.2641 -0.909 -0.411 -0.063 163 147 119 0 0
-0.1108 -0.0124 -0.2681 -0.590 -0.710 0.384 152 136 104 0 0
-0.1136 -0.0138 -0.2774 -0.768 -0.165 0.619 40 34 29 0 0
-0.1144 -0.0143 -0.2786 -0.640 -0.248 0.727 70 60 52 0 0
-0.1220 -0.0201 -0.2861 -0.844 -0.124 0.521 86 74 55 0 0
-0.1229 -0.0208 -0.2872 -0.806 -0.236 0.543 79 67 46 0 0
-0.1236 -0.0213 -0.2885 -0.519 -0.684 0.513 89 78 57 0 0
-0.1243 -0.0217 -0.2897 -0.819 -0.325 0.472 88 78 60 0 0
-0.1248 -0.0221 -0.2909 -0.819 -0.325 0.472 85 76 60 0 0
-0.1254 -0.0225 -0.2922 -0.751 -0.465 0.468 85 77 59 0 0
-0.1248 -0.0217 -0.2939 -0.579 -0.634 0.512 77 69 52 0 0
-0.1253 -0.0220 -0.2952 -0.653 -0.616 0.442 52 44 30 0 0
-0.1274 -0.0234 -0.2989 -0.870 -0.397 0.293 62 55 40 0 0
-0.1321 -0.0260 -0.3120 -0.677 -0.380 0.630 88 76 63 0 0
-0.1329 -0.0266 -0.3131 -0.708 -0.285 0.646 84 72 59 0 0
-0.1335 -0.0270 -0.3144 -0.706 -0.320 0.632 117 108 93 0 0
-0.1350 -0.0280 -0.3168 -0.834 -0.425 0.352 155 139 117 0 0
-0.1387 -0.0296 -0.3304 -0.710 -0.520 0.474 96 83 68 0 0
-0.1451 -0.0346 -0.3366 -0.602 -0.784 0.148 75 62 44 0 0
-0.1455 -0.0348 -0.3379 -0.643 -0.754 0.133 61 49 35 0 0
-0.1475 -0.0341 -0.3586 -0.890 -0.373 -0.262 66 57 41 0 0
-0.1462 -0.0325 -0.3625 -0.834 -0.318 -0.451 58 47 36 0 0
-0.1447 -0.0287 -0.3840 -0.607 -0.772 0.187 81 63 38 0 0
-0.1452 -0.0287 -0.3870 -0.629 -0.772 0.087 54 36 21 0 0
-0.1459 -0.0278 -0.3996 -0.695 -0.691 0.200 77 59 38 0 0
-0.1457 -0.0275 -0.4014 -0.608 -0.769 0.196 73 55 35 0 0
-0.1472 -0.0281 -0.4071 -0.614 -0.755 0.232 88 71 45 0 0
-0.1545 -0.0247 -0.4916 -0.800 -0.534 0.273 48 38 32 0 0
-0.1576 -0.0266 -0.4984 -0.635 -0.269 0.724 74 66 63 0 0
-0.1864 -0.0526 -0.4931 0.384 0.085 0.919 58 45 37 0 0
-0.2169 -0.0790 -0.4957 -0.698 -0.545 0.465 156 140 106 0 0
-0.2190 -0.0805 -0.4992 -0.468 -0.706 0.532 179 164 126 0 0
-0.2282 -0.0874 -0.5090 -0.740 -0.666 0.090 92 78 60 0 0
-0.2278 -0.0868 -0.5110 -0.778 -0.603 -0.175 98 83 63 0 0
-0.2283 -0.0871 -0.5124 -0.329 -0.697 0.638 90 75 53 0 0
-0.2287 -0.0873 -0.5137 -0.472 -0.611 0.635 81 66 44 0 0
-0.2319 -0.0870 -0.5407 -0.792 -0.608 0.058 92 75 46 0 0
-0.2334 -0.0874 -0.5483 -0.310 -0.843 0.439 150 133 91 0 0
-0.2080 -0.0495 -0.6808 -0.961 -0.101 0.256 118 103 79 0 0
-0.2083 -0.0496 -0.6825 -0.888 -0.338 0.311 111 98 75 0 0
-0.2084 -0.0494 -0.6845 -0.874 -0.425 0.235 76 63 44 0 0
-0.2088 -0.0496 -0.6861 -0.835 -0.328 0.442 50 37 19 0 0
-0.2144 -0.0538 -0.6926 -0.497 -0.594 0.632 143 128 98 0 0
-0.2161 -0.0550 -0.6949 -0.694 -0.488 0.530 77 64 38 0 0
-0.2090 -0.0376 -0.7905 -0.644 -0.507 0.573 99 84 64 0 0
-0.2135 -0.0406 -0.7987 -0.346 -0.651 0.675 54 43 25 0 0
-0.2144 -0.0413 -0.7998 -0.346 -0.651 0.675 48 38 23 0 0
-0.2228 -0.0478 -0.8075 -0.918 -0.271 0.290 42 29 19 0 0
-0.2229 -0.0476 -0.8097 -0.860 -0.464 0.212 48 32 20 0 0
-0.2232 -0.0476 -0.8117 -0.707 -0.664 0.244 57 41 24 0 0
-0.2243 -0.0485 -0.8126 -0.553 -0.488 0.675 73 57 34 0 0
-0.2249 -0.0488 -0.8142 -0.515 -0.735 0.441 74 58 32 0 0
-0.2260 -0.0497 -0.8150 -0.579 -0.434 0.690 84 69 41 0 0
-0.2270 -0.0504 -0.8161 -0.888 -0.225 0.401 85 72 43 0 0
-0.2274 -0.0506 -0.8178 -0.859 -0.095 0.503 90 81 51 0 0
-0.2288 -0.0515 -0.8206 -0.741 -0.396 0.543 99 85 52 0 0
-0.2308 -0.0530 -0.8227 -0.776 -0.372 0.509 99 87 53 0 0
-0.2318 -0.0537 -0.8237 -0.666 -0.465 0.583 100 87 54 0 0
-0.2322 -0.0539 -0.8255 -0.842 -0.275 0.464 91 77 49 0 0
-0.2377 -0.0538 -0.8678 -0.949 0.173 0.263 135 134 130 0 0
-0.0891 0.0066 -0.2506 -0.615 0.213 0.759 149 140 120 0 0
-0.0928 0.0035 -0.2524 -0.650 0.098 0.754 148 133 108 0 0
-0.0942 0.0024 -0.2534 -0.846 0.002 0.533 126 110 87 0 0
-0.0949 0.0020 -0.2546 -0.945 -0.249 0.213 122 108 85 0 0
-0.0971 0.0008 -0.2613 -0.673 0.298 0.677 92 80 59 0 0
-0.1067 -0.0076 -0.2624 -0.713 0.218 0.666 150 135 116 0 0
-0.1082 -0.0088 -0.2633 -0.777 0.249 0.578 158 140 114 0 0
-0.1093 -0.0096 -0.2644 -0.984 0.062 0.169 153 136 110 0 0
-0.1227 -0.0189 -0.2861 -0.549 -0.445 0.707 78 67 54 0 0
-0.1237 -0.0196 -0.2872 -0.554 -0.517 0.653 86 74 58 0 0
-0.1251 -0.0208 -0.2881 -0.322 -0.646 0.692 119 109 88 0 0
-0.1248 -0.0203 -0.2897 -0.790 -0.428 0.439 54 46 24 0 0
-0.1254 -0.0207 -0.2910 -0.740 -0.633 0.226 40 33 15 0 0
-0.1263 -0.0209 -0.2951 -0.653 -0.616 0.442 49 42 32 0 0
-0.1279 -0.0218 -0.3004 -0.678 -0.706 0.207 66 56 47 0 0
-0.1296 -0.0228 -0.3042 -0.766 -0.272 0.583 35 27 15 0 0
-0.1342 -0.0257 -0.3144 -0.671 -0.442 0.595 117 109 96 0 0
-0.1350 -0.0262 -0.3156 -0.671 -0.442 0.595 136 126 109 0 0
-0.1380 -0.0272 -0.3295 -0.700 -0.593 0.398 66 55 42 0 0
-0.1396 -0.0285 -0.3303 -0.768 -0.621 0.156 113 99 82 0 0
-0.1465 -0.0338 -0.3377 -0.644 -0.747 0.166 79 63 45 0 0
-0.1481 -0.0327 -0.3587 -0.896 -0.331 -0.297 69 55 43 0 0
-0.1448 -0.0284 -0.3699 -0.801 -0.578 0.155 62 46 30 0 0
-0.1433 -0.0253 -0.3852 -0.598 -0.703 0.385 70 52 28 0 0
-0.1461 -0.0277 -0.3853 -0.725 -0.624 0.293 83 64 46 0 0
-0.1465 -0.0279 -0.3867 -0.664 -0.641 0.385 45 27 14 0 0
-0.1468 -0.0267 -0.3995 -0.771 -0.607 0.191 89 71 49 0 0
-0.1468 -0.0265 -0.4012 -0.673 -0.676 0.300 79 61 41 0 0
-0.1483 -0.0271 -0.4069 -0.614 -0.755 0.232 95 77 54 0 0
-0.1513 -0.0253 -0.4454 -0.894 -0.444 0.066 33 26 17 0 0
-0.1802 -0.0447 -0.4966 0.410 0.065 0.910 68 55 47 0 0
-0.2186 -0.0785 -0.4968 -0.687 -0.726 0.029 88 72 43 0 0
-0.2294 -0.0862 -0.5121 -0.329 -0.697 0.638 100 84 63 0 0
-0.2343 -0.0865 -0.5464 -0.354 -0.853 0.385 138 122 89 0 0
-0.2350 -0.0867 -0.5494 -0.269 -0.654 0.707 154 135 95 0 0
-0.2356 -0.0871 -0.5507 -0.304 -0.787 0.537 150 132 93 0 0
-0.2356 -0.0869 -0.5524 -0.689 -0.724 0.043 148 132 93 0 0
-0.2146 -0.0573 -0.6463 -0.966 0.212 -0.145 67 59 50 0 0
-0.2088 -0.0476 -0.6850 -0.827 -0.084 0.555 117 102 79 0 0
-0.2095 -0.0481 -0.6863 -0.835 -0.328 0.442 81 67 43 0 0
-0.2099 -0.0482 -0.6880 -0.785 -0.191 0.590 53 38 21 0 0
-0.2159 -0.0529 -0.6939 -0.707 -0.574 0.414 134 118 86 0 0
-0.2167 -0.0534 -0.6952 -0.599 -0.607 0.521 108 92 64 0 0
-0.2212 -0.0562 -0.7048 -0.680 -0.432 0.593 89 75 46 0 0
-0.2242 -0.0583 -0.7099 -0.709 -0.605 0.361 110 96 66 0 0
-0.2251 -0.0587 -0.7131 -0.836 -0.522 0.168 158 137 94 0 0
-0.2254 -0.0587 -0.7149 -0.836 -0.522 0.168 171 150 110 0 0
-0.2260 -0.0591 -0.7163 -0.811 -0.358 0.462 113 97 63 0 0
-0.2078 -0.0345 -0.7887 -0.655 -0.013 0.756 48 42 33 0 0
-0.2101 -0.0363 -0.7904 -0.593 -0.601 0.536 75 63 44 0 0
-0.2219 -0.0450 -0.8054 -0.899 -0.057 0.435 39 29 14 0 0
-0.2231 -0.0459 -0.8061 -0.870 -0.377 0.319 39 29 15 0 0
-0.2235 -0.0461 -0.8080 -0.918 -0.271 0.290 46 32 18 0 0
-0.2238 -0.0461 -0.8099 -0.860 -0.464 0.212 53 37 21 0 0
-0.2243 -0.0464 -0.8115 -0.707 -0.664 0.244 62 46 27 0 0
-0.2254 -0.0472 -0.8125 -0.390 -0.696 0.603 73 57 33 0 0
-0.2254 -0.0469 -0.8148 -0.668 -0.708 0.230 77 60 33 0 0
-0.2266 -0.0479 -0.8155 -0.921 -0.287 0.265 85 68 39 0 0
-0.2299 -0.0502 -0.8205 -0.882 -0.184 0.433 105 90 59 0 0
-0.2512 -0.0632 -0.8692 0.110 -0.189 0.976 190 188 189 0 0
-0.0898 0.0081 -0.2521 -0.343 0.225 0.912 163 152 136 0 0
-0.0953 0.0035 -0.2547 -0.945 -0.249 0.213 133 119 93 0 0
-0.1142 -0.0106 -0.2762 -0.864 -0.139 0.484 44 35 30 0 0
-0.1157 -0.0116 -0.2786 -0.667 -0.153 0.729 100 89 77 0 0
-0.1174 -0.0131 -0.2794 -0.808 -0.230 0.543 192 178 159 0 0
-0.1183 -0.0137 -0.2806 -0.751 -0.144 0.645 236 223 198 0 0
-0.1191 -0.0143 -0.2818 -0.595 -0.248 0.765 175 163 138 0 0
-0.1236 -0.0177 -0.2860 -0.588 -0.431 0.684 85 72 59 0 0
-0.1245 -0.0184 -0.2871 -0.588 -0.431 0.684 101 88 69 0 0
-0.1250 -0.0187 -0.2884 -0.539 -0.624 0.566 155 143 119 0 0
-0.1258 -0.0192 -0.2896 -0.650 -0.564 0.508 108 97 71 0 0
-0.1263 -0.0195 -0.2909 -0.744 -0.581 0.330 81 71 48 0 0
-0.1272 -0.0199 -0.2950 -0.500 -0.750 0.432 60 53 41 0 0
-0.1279 -0.0203 -0.2962 -0.408 -0.636 0.654 58 50 39 0 0
-0.1306 -0.0219 -0.3026 -0.542 -0.676 0.499 49 40 28 0 0
-0.1390 -0.0262 -0.3293 -0.651 -0.641 0.408 72 60 44 0 0
-0.1425 -0.0291 -0.3308 -0.577 -0.539 0.613 218 206 186 0 0
-0.1475 -0.0329 -0.3361 -0.811 -0.465 0.356 97 78 62 0 0
-0.1478 -0.0330 -0.3375 -0.697 -0.687 0.205 93 76 58 0 0
-0.1487 -0.0333 -0.3417 -0.548 -0.826 0.131 47 35 23 0 0
-0.1489 -0.0333 -0.3431 -0.537 -0.713 0.451 42 32 23 0 0
-0.1495 -0.0336 -0.3444 -0.537 -0.713 0.451 29 21 15 0 0
-0.1508 -0.0338 -0.3530 -0.525 -0.829 0.193 45 35 25 0 0
-0.1503 -0.0331 -0.3548 -0.800 -0.552 0.236 50 40 30 0 0
-0.1505 -0.0332 -0.3563 -0.891 -0.422 0.168 56 45 34 0 0
-0.1443 -0.0242 -0.3850 -0.762 -0.597 0.251 69 50 28 0 0
-0.1473 -0.0269 -0.3850 -0.795 -0.453 0.403 117 98 79 0 0
-0.1473 -0.0267 -0.3866 -0.743 -0.568 0.355 74 56 41 0 0
-0.1477 -0.0256 -0.3994 -0.771 -0.607 0.191 59 41 18 0 0
-0.1482 -0.0256 -0.4025 -0.744 -0.626 0.234 71 53 33 0 0
-0.1507 -0.0253 -0.4242 -0.781 -0.578 0.237 84 69 49 0 0
-0.1511 -0.0254 -0.4257 -0.781 -0.578 0.237 60 45 22 0 0
-0.1504 -0.0235 -0.4362 -0.548 -0.805 0.227 94 79 54 0 0
-0.1508 -0.0237 -0.4377 -0.548 -0.805 0.227 89 74 51 0 0
-0.1511 -0.0238 -0.4392 -0.620 -0.716 0.321 83 69 49 0 0
-0.1332 -0.0039 -0.4734 -0.880 -0.167 0.444 28 24 21 0 0
-0.1323 -0.0028 -0.4758 -0.612 -0.408 0.678 23 18 17 0 0
-0.1821 -0.0444 -0.4958 0.405 0.079 0.911 68 57 49 0 0
-0.2328 -0.0869 -0.5151 -0.799 -0.391 0.457 133 120 103 0 0
-0.2348 -0.0877 -0.5238 -0.677 -0.714 0.179 90 78 61 0 0
-0.2362 -0.0859 -0.5490 -0.848 -0.305 0.434 143 125 95 0 0
-0.2367 -0.0862 -0.5503 -0.848 -0.305 0.434 145 128 95 0 0
-0.2162 -0.0575 -0.6396 -0.917 0.301 -0.262 66 59 47 0 0
-0.2145 -0.0555 -0.6433 -0.929 0.294 -0.226 60 53 44 0 0
-0.2142 -0.0550 -0.6456 -0.959 0.228 -0.170 50 44 38 0 0
-0.2057 -0.0430 -0.6831 -0.854 -0.001 0.520 116 100 77 0 0
-0.2099 -0.0462 -0.6869 -0.739 -0.283 0.611 121 106 77 0 0
-0.2175 -0.0520 -0.6952 -0.630 -0.401 0.665 110 96 67 0 0
-0.2184 -0.0526 -0.6964 -0.630 -0.401 0.665 84 71 48 0 0
-0.2203 -0.0539 -0.7005 -0.819 -0.419 0.392 58 45 29 0 0
-0.2213 -0.0544 -0.7036 -0.694 -0.581 0.425 45 31 14 0 0
-0.2231 -0.0557 -0.7058 -0.791 -0.414 0.449 101 86 60 0 0
-0.2225 -0.0433 -0.8058 -0.865 -0.128 0.486 63 51 28 0 0
-0.2236 -0.0441 -0.8067 -0.918 -0.271 0.290 60 48 26 0 0
-0.2241 -0.0443 -0.8084 -0.943 -0.198 0.266 64 51 27 0 0
-0.2247 -0.0446 -0.8100 -0.913 -0.363 0.188 71 57 30 0 0
-0.2250 -0.0447 -0.8118 -0.913 -0.363 0.188 75 61 34 0 0
-0.2259 -0.0453 -0.8131 -0.907 -0.318 0.276 79 64 36 0 0
-0.2263 -0.0455 -0.8148 -0.905 -0.332 0.267 91 75 45 0 0
-0.1146 -0.0088 -0.2778 -0.450 -0.714 0.537 66 59 48 0 0
-0.1161 -0.0100 -0.2787 -0.667 -0.153 0.729 122 112 94 0 0
-0.1179 -0.0115 -0.2795 -0.808 -0.230 0.543 207 194 167 0 0
-0.1247 -0.0167 -0.2873 -0.657 -0.557 0.508 174 160 131 0 0
-0.1255 -0.0172 -0.2885 -0.657 -0.581 0.480 199 186 159 0 0
-0.1260 -0.0175 -0.2898 -0.877 -0.276 0.393 118 105 79 0 0
-0.1265 -0.0178 -0.2911 -0.877 -0.276 0.393 89 74 48 0 0
-0.1275 -0.0183 -0.2937 -0.694 -0.394 0.602 76 65 46 0 0
-0.1286 -0.0192 -0.2947 -0.661 -0.465 0.589 109 100 79 0 0
-0.1311 -0.0205 -0.3027 -0.751 -0.352 0.559 56 44 32 0 0
-0.1366 -0.0238 -0.3155 -0.397 -0.613 0.683 116 105 88 0 0
-0.1386 -0.0253 -0.3176 -0.335 -0.844 0.420 60 50 39 0 0
-0.1396 -0.0250 -0.3278 -0.600 -0.550 0.581 94 85 71 0 0
-0.1479 -0.0315 -0.3347 -0.602 -0.607 0.519 70 54 35 0 0
-0.1502 -0.0318 -0.3490 -0.634 -0.772 -0.053 32 23 16 0 0
-0.1502 -0.0317 -0.3506 -0.766 -0.642 -0.035 32 24 15 0 0
-0.1464 -0.0258 -0.3714 -0.808 -0.482 0.338 62 45 27 0 0
-0.1480 -0.0256 -0.3850 -0.795 -0.453 0.403 92 72 50 0 0
-0.1485 -0.0259 -0.3864 -0.795 -0.453 0.403 76 56 37 0 0
-0.1488 -0.0246 -0.3992 -0.662 -0.714 0.229 70 52 30 0 0
-0.1501 -0.0240 -0.4134 -0.674 -0.631 0.385 93 77 54 0 0
-0.1516 -0.0226 -0.4360 -0.738 -0.533 0.414 102 86 60 0 0
-0.1522 -0.0230 -0.4373 -0.761 -0.372 0.532 84 70 45 0 0
-0.1623 -0.0246 -0.4985 -0.652 -0.502 0.568 60 57 53 0 0
-0.1618 -0.0239 -0.5007 -0.759 -0.016 0.651 80 74 69 0 0
-0.1621 -0.0240 -0.5022 -0.803 -0.359 0.477 88 78 70 0 0
-0.1902 -0.0501 -0.4921 0.427 0.068 0.902 59 46 37 0 0
-0.2328 -0.0853 -0.5123 -0.672 -0.707 0.220 66 50 32 0 0
-0.2331 -0.0855 -0.5138 -0.672 -0.707 0.220 105 89 72 0 0
-0.2335 -0.0857 -0.5151 -0.719 -0.627 0.300 137 124 107 0 0
-0.2374 -0.0853 -0.5469 -0.460 -0.816 0.351 119 103 77 0 0
-0.2364 -0.0839 -0.5514 -0.554 -0.810 0.189 141 124 94 0 0
-0.2162 -0.0611 -0.5920 -0.926 -0.283 0.252 37 30 19 0 0
-0.2171 -0.0618 -0.5930 -0.820 -0.560 -0.117 45 37 27 0 0
-0.2171 -0.0615 -0.5950 -0.749 -0.651 -0.125 73 65 53 0 0
-0.2189 -0.0587 -0.6318 -0.909 0.312 -0.278 59 53 40 0 0
-0.2120 -0.0457 -0.6897 -0.795 -0.273 0.541 97 83 55 0 0
-0.2221 -0.0536 -0.6975 -0.935 -0.219 0.280 129 115 93 0 0
-0.2225 -0.0538 -0.6991 -0.935 -0.219 0.280 107 92 72 0 0
-0.2242 -0.0545 -0.7056 -0.714 -0.558 0.424 114 100 74 0 0
-0.2245 -0.0546 -0.7073 -0.879 -0.470 -0.076 117 102 72 0 0
-0.2247 -0.0545 -0.7093 -0.873 -0.486 0.048 125 110 80 0 0
-0.2241 -0.0420 -0.8096 -0.972 -0.035 0.232 104 89 57 0 0
-0.2249 -0.0425 -0.8109 -0.988 -0.038 0.147 109 94 61 0 0
-0.2370 -0.0452 -0.8779 0.080 -0.423 0.903 172 170 171 0 0
-0.1132 -0.0067 -0.2696 -0.810 -0.378 0.448 86 69 47 0 0
-0.1140 -0.0073 -0.2708 -0.757 -0.231 0.611 80 65 46 0 0
-0.1165 -0.0088 -0.2758 -0.842 -0.247 0.481 74 64 57 0 0
-0.1159 -0.0081 -0.2775 -0.470 -0.795 0.383 84 77 62 0 0
-0.1182 -0.0099 -0.2796 -0.687 -0.362 0.631 212 198 166 0 0
-0.1259 -0.0158 -0.2871 -0.406 -0.704 0.582 168 152 118 0 0
-0.1268 -0.0165 -0.2882 -0.513 -0.557 0.653 133 119 91 0 0
-0.1267 -0.0162 -0.2898 -0.789 -0.264 0.554 94 79 56 0 0
-0.1288 -0.0176 -0.2934 -0.550 -0.504 0.666 100 83 59 0 0
-0.1306 -0.0190 -0.2956 -0.769 -0.318 0.555 189 175 144 0 0
-0.1370 -0.0222 -0.3156 -0.362 -0.598 0.715 164 153 131 0 0
-0.1399 -0.0233 -0.3280 -0.569 -0.520 0.637 85 73 60 0 0
-0.1419 -0.0248 -0.3302 -0.782 -0.488 0.388 222 210 182 0 0
-0.1503 -0.0311 -0.3400 -0.747 -0.590 0.305 81 65 50 0 0
-0.1506 -0.0312 -0.3414 -0.606 -0.753 0.256 80 63 45 0 0
-0.1509 -0.0313 -0.3428 -0.582 -0.764 0.277 71 56 39 0 0
-0.1511 -0.0306 -0.3505 -0.766 -0.642 -0.035 31 24 16 0 0
-0.1489 -0.0265 -0.3674 -0.753 -0.610 0.245 46 29 16 0 0
-0.1488 -0.0243 -0.3850 -0.795 -0.453 0.403 87 69 46 0 0
-0.1493 -0.0246 -0.3864 -0.795 -0.453 0.403 82 62 41 0 0
-0.1508 -0.0248 -0.3953 -0.630 -0.613 0.477 52 34 16 0 0
-0.1517 -0.0255 -0.3964 -0.661 -0.618 0.424 69 51 32 0 0
-0.1524 -0.0256 -0.4009 -0.812 -0.532 0.242 58 39 23 0 0
-0.1532 -0.0233 -0.4253 -0.670 -0.681 0.295 97 81 59 0 0
-0.1537 -0.0236 -0.4267 -0.643 -0.686 0.340 86 70 47 0 0
-0.1524 -0.0214 -0.4359 -0.738 -0.533 0.414 91 75 48 0 0
-0.1530 -0.0217 -0.4373 -0.738 -0.533 0.414 61 47 25 0 0
-0.1535 -0.0219 -0.4387 -0.575 -0.728 0.373 73 60 43 0 0
-0.1520 -0.0197 -0.4465 -0.855 -0.459 0.240 42 34 24 0 0
-0.1331 0.0001 -0.4710 -0.959 0.231 -0.166 30 25 22 0 0
-0.1436 -0.0080 -0.4818 -0.629 -0.096 0.772 11 10 8 0 0
-0.1450 -0.0086 -0.4863 -0.955 -0.224 0.192 21 17 15 0 0
-0.1627 -0.0224 -0.5024 -0.810 -0.271 0.520 82 72 64 0 0
-0.1926 -0.0504 -0.4909 0.441 0.047 0.896 64 52 43 0 0
-0.2027 -0.0600 -0.4851 0.401 -0.170 0.900 75 63 51 0 0
-0.2280 -0.0807 -0.4997 -0.447 -0.761 0.471 67 53 35 0 0
-0.2344 -0.0845 -0.5151 -0.615 -0.725 0.310 124 108 90 0 0
-0.2390 -0.0842 -0.5515 -0.910 -0.404 0.097 142 126 90 0 0
-0.2183 -0.0604 -0.5966 -0.964 0.126 0.232 21 17 8 0 0
-0.2196 -0.0613 -0.5991 -0.963 -0.185 0.198 72 67 57 0 0
-0.2068 -0.0396 -0.6838 -0.388 -0.268 0.882 99 85 61 0 0
-0.2127 -0.0441 -0.6899 -0.917 -0.215 0.336 134 115 80 0 0
-0.2214 -0.0512 -0.6950 -0.853 -0.341 0.396 80 70 51 0 0
-0.2034 -0.0240 -0.7883 -0.584 0.071 0.808 19 18 11 0 0
-0.2430 -0.0506 -0.8586 -0.756 0.324 0.569 141 139 138 0 0
-0.0999 0.0064 -0.2642 -0.383 0.213 0.899 155 140 114 0 0
-0.1026 0.0041 -0.2647 -0.613 0.169 0.772 167 150 122 0 0
-0.1047 0.0023 -0.2655 -0.526 -0.045 0.849 153 137 104 0 0
-0.1257 -0.0139 -0.2859 -0.437 -0.626 0.646 196 178 145 0 0
-0.1270 -0.0149 -0.2869 -0.445 -0.625 0.641 156 139 110 0 0
-0.1326 -0.0185 -0.2981 -0.740 -0.322 0.590 87 75 49 0 0
-0.1354 -0.0193 -0.3120 -0.452 -0.375 0.810 125 117 102 0 0
-0.1371 -0.0206 -0.3143 -0.309 -0.541 0.782 148 137 119 0 0
-0.1416 -0.0229 -0.3276 -0.732 -0.247 0.635 99 84 69 0 0
-0.1460 -0.0263 -0.3317 -0.482 -0.623 0.616 222 211 181 0 0
-0.1468 -0.0270 -0.3328 -0.341 -0.736 0.585 171 156 121 0 0
-0.1489 -0.0287 -0.3334 -0.707 -0.556 0.436 156 137 102 0 0
-0.1506 -0.0298 -0.3371 -0.768 -0.537 0.349 47 37 26 0 0
-0.1512 -0.0301 -0.3384 -0.774 -0.486 0.406 46 36 25 0 0
-0.1513 -0.0301 -0.3399 -0.606 -0.753 0.256 45 34 21 0 0
-0.1517 -0.0303 -0.3412 -0.606 -0.753 0.256 67 54 37 0 0
-0.1521 -0.0295 -0.3503 -0.826 -0.560 0.070 39 31 21 0 0
-0.1493 -0.0251 -0.3659 -0.715 -0.678 0.171 46 28 15 0 0
-0.1498 -0.0253 -0.3673 -0.753 -0.610 0.245 40 23 12 0 0
-0.1475 -0.0216 -0.3813 -0.685 -0.658 0.313 78 59 41 0 0
-0.1495 -0.0230 -0.3850 -0.795 -0.453 0.403 86 68 44 0 0
-0.1500 -0.0233 -0.3864 -0.795 -0.453 0.403 73 54 33 0 0
-0.1518 -0.0238 -0.3951 -0.640 -0.619 0.456 67 50 29 0 0
-0.1527 -0.0244 -0.3963 -0.661 -0.618 0.424 73 56 33 0 0
-0.1532 -0.0243 -0.4009 -0.812 -0.532 0.242 61 42 24 0 0
-0.1528 -0.0224 -0.4143 -0.697 -0.706 0.128 54 38 20 0 0
-0.1541 -0.0223 -0.4236 -0.590 -0.789 0.174 85 67 47 0 0
-0.1543 -0.0223 -0.4251 -0.602 -0.752 0.267 74 57 35 0 0
-0.1546 -0.0224 -0.4266 -0.595 -0.673 0.439 86 70 46 0 0
-0.1551 -0.0227 -0.4280 -0.602 -0.720 0.345 82 66 40 0 0
-0.1507 -0.0162 -0.4495 -0.332 -0.938 -0.097 37 30 22 0 0
-0.1477 -0.0093 -0.4832 -0.414 -0.716 0.562 16 12 11 0 0
-0.1456 -0.0071 -0.4864 -0.818 -0.572 0.061 19 15 13 0 0
-0.2275 -0.0786 -0.4973 -0.466 -0.595 0.654 66 47 26 0 0
-0.2290 -0.0798 -0.4995 -0.601 -0.718 0.351 60 43 23 0 0
-0.2305 -0.0801 -0.5069 -0.471 -0.791 0.391 47 36 30 0 0
-0.2391 -0.0862 -0.5203 -0.677 -0.672 0.301 43 29 15 0 0
-0.2406 -0.0864 -0.5296 -0.479 -0.786 0.390 82 67 43 0 0
-0.2394 -0.0826 -0.5519 -0.625 -0.778 -0.064 141 126 94 0 0
-0.2194 -0.0589 -0.6001 -0.951 0.182 0.252 14 13 10 0 0
-0.1866 -0.0183 -0.6934 0.274 0.249 0.929 76 68 58 0 0
-0.1980 -0.0294 -0.6857 -0.201 0.239 0.950 91 79 62 0 0
-0.2142 -0.0432 -0.6914 -0.802 -0.070 0.593 124 105 70 0 0
-0.2159 -0.0444 -0.6937 -0.694 -0.268 0.669 62 47 26 0 0
-0.2025 -0.0209 -0.7883 -0.577 -0.067 0.814 65 57 42 0 0
-0.2022 -0.0203 -0.7911 -0.484 -0.831 0.273 46 39 29 0 0
-0.2042 -0.0221 -0.7909 -0.738 -0.170 0.653 24 22 15 0 0
-0.2051 -0.0227 -0.7921 -0.738 -0.170 0.653 15 13 8 0 0
-0.2409 -0.0466 -0.8581 -0.755 0.266 0.599 130 128 124 0 0
-0.2419 -0.0474 -0.8591 -0.755 0.266 0.599 142 139 140 0 0
-0.2462 -0.0504 -0.8651 -0.374 0.473 0.798 173 171 172 0 0
-0.0956 0.0116 -0.2584 -0.916 0.347 0.200 178 179 180 0 0
-0.1131 -0.0026 -0.2701 -0.686 -0.455 0.568 83 68 42 0 0
-0.1136 -0.0029 -0.2714 -0.690 -0.644 0.331 81 67 45 0 0
-0.1154 -0.0044 -0.2722 -0.797 -0.264 0.543 54 43 29 0 0
-0.1196 -0.0073 -0.2796 -0.690 -0.373 0.620 160 143 115 0 0
-0.1202 -0.0076 -0.2809 -0.645 -0.358 0.675 200 180 143 0 0
-0.1211 -0.0083 -0.2820 -0.661 -0.129 0.739 190 167 126 0 0
-0.1317 -0.0161 -0.2957 -0.820 -0.284 0.497 91 79 52 0 0
-0.1327 -0.0157 -0.3059 -0.790 -0.393 0.470 27 21 17 0 0
-0.1352 -0.0172 -0.3124 -0.608 -0.335 0.720 147 139 123 0 0
-0.1362 -0.0179 -0.3135 -0.608 -0.335 0.720 141 130 113 0 0
-0.1526 -0.0292 -0.3411 -0.763 -0.582 0.281 50 40 29 0 0
-0.1451 -0.0191 -0.3685 -0.699 -0.704 0.126 47 30 16 0 0
-0.1481 -0.0204 -0.3797 -0.691 -0.687 0.223 72 55 37 0 0
-0.1482 -0.0202 -0.3813 -0.724 -0.686 0.070 62 44 27 0 0
-0.1489 -0.0208 -0.3825 -0.814 -0.547 0.197 91 74 57 0 0
-0.1488 -0.0192 -0.3940 -0.679 -0.553 0.483 79 64 41 0 0
-0.1494 -0.0196 -0.3953 -0.679 -0.553 0.483 61 44 23 0 0
-0.1508 -0.0205 -0.3978 -0.785 -0.510 0.350 61 43 23 0 0
-0.1510 -0.0205 -0.3993 -0.689 -0.471 0.551 58 40 19 0 0
-0.1512 -0.0205 -0.4008 -0.596 -0.671 0.441 72 54 33 0 0
-0.1538 -0.0212 -0.4142 -0.745 -0.611 0.270 55 39 22 0 0
-0.1540 -0.0210 -0.4174 -0.799 -0.200 0.567 51 33 18 0 0
-0.1557 -0.0214 -0.4264 -0.575 -0.689 0.441 77 61 38 0 0
-0.1562 -0.0217 -0.4278 -0.602 -0.720 0.345 67 51 28 0 0
-0.1565 -0.0218 -0.4293 -0.670 -0.728 0.148 104 88 63 0 0
-0.1566 -0.0209 -0.4377 -0.768 -0.553 0.323 93 80 58 0 0
-0.1524 -0.0157 -0.4490 -0.332 -0.938 -0.097 26 21 15 0 0
-0.1530 -0.0158 -0.4520 -0.390 -0.919 0.061 13 9 8 0 0
-0.1433 -0.0031 -0.4849 -0.879 -0.400 0.259 12 11 9 0 0
-0.1464 -0.0055 -0.4882 -0.765 -0.130 0.631 18 16 14 0 0
-0.1562 -0.0135 -0.4939 -0.596 -0.539 0.595 106 99 92 0 0
-0.1570 -0.0141 -0.4952 -0.596 -0.539 0.595 112 105 100 0 0
-0.1578 -0.0147 -0.4963 -0.604 -0.472 0.642 71 65 61 0 0
-0.1584 -0.0151 -0.4977 -0.861 -0.364 0.355 27 22 20 0 0
-0.1596 -0.0156 -0.5022 -0.850 -0.374 0.371 25 20 17 0 0
-0.2246 -0.0747 -0.4934 -0.727 -0.618 0.298 133 118 87 0 0
-0.2250 -0.0748 -0.4948 -0.727 -0.618 0.298 135 118 88 0 0
-0.2258 -0.0754 -0.4958 -0.787 -0.578 0.213 113 96 70 0 0
-0.2309 -0.0786 -0.5071 -0.585 -0.647 0.489 47 37 26 0 0
-0.2328 -0.0803 -0.5073 -0.538 -0.667 0.516 43 34 24 0 0
-0.2354 -0.0822 -0.5103 -0.596 -0.471 0.650 100 86 71 0 0
-0.2357 -0.0823 -0.5118 -0.802 -0.468 0.372 61 47 32 0 0
-0.2401 -0.0852 -0.5202 -0.798 -0.426 0.425 56 43 28 0 0
-0.2416 -0.0854 -0.5294 -0.608 -0.737 0.295 70 53 33 0 0
-0.2407 -0.0819 -0.5514 -0.658 -0.750 -0.063 141 128 100 0 0
-0.1998 -0.0287 -0.6868 -0.263 0.008 0.965 99 88 66 0 0
-0.2268 -0.0497 -0.7120 -0.581 -0.479 0.658 175 159 123 0 0
-0.2032 -0.0192 -0.7887 -0.517 -0.852 0.080 96 87 70 0 0
-0.2035 -0.0192 -0.7906 -0.517 -0.852 0.080 94 85 72 0 0
-0.2048 -0.0204 -0.7913 -0.811 -0.149 0.566 65 58 49 0 0
-0.2057 -0.0209 -0.7926 -0.811 -0.149 0.566 35 31 23 0 0
-0.1146 -0.0020 -0.2698 -0.230 -0.542 0.808 140 124 97 0 0
-0.1152 -0.0025 -0.2711 -0.352 -0.826 0.441 107 92 68 0 0
-0.1158 -0.0028 -0.2723 -0.715 -0.568 0.408 70 59 43 0 0
-0.1320 -0.0144 -0.2959 -0.755 -0.544 0.368 90 77 54 0 0
-0.1325 -0.0147 -0.2972 -0.755 -0.544 0.368 113 98 80 0 0
-0.1329 -0.0149 -0.2985 -0.755 -0.544 0.368 83 68 48 0 0
-0.1334 -0.0152 -0.2998 -0.755 -0.544 0.368 66 52 39 0 0
-0.1333 -0.0143 -0.3059 -0.790 -0.393 0.470 20 14 9 0 0
-0.1301 -0.0111 -0.3088 -0.690 -0.375 0.619 36 29 20 0 0
-0.1349 -0.0151 -0.3113 -0.716 -0.565 0.410 120 110 97 0 0
-0.1358 -0.0158 -0.3124 -0.638 -0.253 0.727 144 135 120 0 0
-0.1448 -0.0170 -0.3674 -0.545 -0.634 0.548 51 35 20 0 0
-0.1461 -0.0180 -0.3684 -0.699 -0.704 0.126 46 30 15 0 0
-0.1488 -0.0191 -0.3797 -0.433 -0.773 0.464 50 33 18 0 0
-0.1516 -0.0193 -0.3977 -0.785 -0.510 0.350 59 41 22 0 0
-0.1517 -0.0192 -0.3993 -0.596 -0.671 0.441 63 45 26 0 0
-0.1522 -0.0195 -0.4007 -0.555 -0.654 0.514 66 48 28 0 0
-0.1566 -0.0204 -0.4246 -0.538 -0.812 0.227 66 50 28 0 0
-0.1575 -0.0196 -0.4376 -0.768 -0.553 0.323 96 81 58 0 0
-0.1572 -0.0189 -0.4412 -0.611 -0.699 -0.371 40 30 18 0 0
-0.1540 -0.0152 -0.4484 -0.763 -0.620 -0.181 27 19 11 0 0
-0.1549 -0.0156 -0.4513 -0.887 -0.358 0.292 13 9 6 0 0
-0.1449 -0.0025 -0.4844 -0.350 -0.850 0.394 8 7 5 0 0
-0.1468 -0.0038 -0.4885 -0.683 -0.336 0.648 15 14 12 0 0
-0.1521 -0.0081 -0.4920 -0.702 0.034 0.711 13 11 11 0 0
-0.1566 -0.0118 -0.4942 -0.717 -0.150 0.680 75 68 60 0 0
-0.1603 -0.0141 -0.5023 -0.850 -0.374 0.371 37 33 29 0 0
-0.1609 -0.0145 -0.5037 -0.648 -0.488 0.584 54 49 43 0 0
-0.1659 -0.0187 -0.5055 -0.687 0.052 0.725 72 62 52 0 0
-0.2083 -0.0593 -0.4843 -0.078 0.140 0.987 66 55 43 0 0
-0.2112 -0.0620 -0.4838 -0.321 0.195 0.927 104 93 75 0 0
-0.2255 -0.0735 -0.4933 -0.799 -0.496 0.340 119 105 72 0 0
-0.2320 -0.0782 -0.5034 -0.482 -0.699 0.528 49 34 16 0 0
-0.2327 -0.0786 -0.5046 -0.640 -0.615 0.461 65 52 36 0 0
-0.2333 -0.0790 -0.5058 -0.631 -0.484 0.607 53 41 28 0 0
-0.2340 -0.0795 -0.5069 -0.631 -0.484 0.607 61 52 41 0 0
-0.2350 -0.0800 -0.5096 -0.669 -0.692 0.272 84 72 59 0 0
-0.2364 -0.0810 -0.5118 -0.813 -0.481 0.330 58 45 27 0 0
-0.2370 -0.0809 -0.5166 -0.762 -0.416 0.496 126 113 95 0 0
-0.2234 -0.0428 -0.7256 -0.871 -0.289 -0.398 131 114 83 0 0
-0.2223 -0.0407 -0.7355 -0.469 0.235 0.851 107 93 70 0 0
-0.2024 -0.0162 -0.7886 -0.692 0.272 0.668 66 56 42 0 0
-0.2049 -0.0183 -0.7901 -0.517 -0.852 0.080 105 96 79 0 0
-0.2052 -0.0183 -0.7920 -0.532 -0.844 0.062 96 85 69 0 0
-0.2063 -0.0192 -0.7930 -0.811 -0.149 0.566 73 64 50 0 0
-0.2074 -0.0200 -0.7940 -0.795 0.067 0.602 50 42 31 0 0
-0.0979 0.0143 -0.2656 -0.338 0.107 0.935 141 126 105 0 0
-0.1169 -0.0021 -0.2707 -0.691 -0.177 0.701 168 154 125 0 0
-0.1161 -0.0012 -0.2725 -0.687 -0.397 0.609 82 69 51 0 0
-0.1175 -0.0021 -0.2749 -0.594 -0.427 0.682 59 49 35 0 0
-0.1219 -0.0053 -0.2807 -0.648 -0.665 0.372 87 77 62 0 0
-0.1217 -0.0050 -0.2823 -0.747 -0.482 0.459 131 119 96 0 0
-0.1328 -0.0132 -0.2958 -0.755 -0.544 0.368 152 136 111 0 0
-0.1332 -0.0133 -0.2972 -0.794 -0.519 0.316 134 120 96 0 0
-0.1325 -0.0121 -0.3020 -0.964 -0.239 -0.118 48 37 28 0 0
-0.1324 -0.0119 -0.3035 -0.986 -0.131 0.105 25 17 13 0 0
-0.1310 -0.0100 -0.3087 -0.584 -0.184 0.791 65 56 45 0 0
-0.1322 -0.0110 -0.3097 -0.261 -0.269 0.927 72 64 49 0 0
-0.1371 -0.0150 -0.3122 -0.604 -0.474 0.641 147 138 124 0 0
-0.1377 -0.0154 -0.3134 -0.510 -0.547 0.664 116 105 90 0 0
-0.1484 -0.0235 -0.3254 -0.640 -0.378 0.669 164 150 122 0 0
-0.1504 -0.0250 -0.3275 -0.556 -0.355 0.751 214 198 164 0 0
-0.1502 -0.0247 -0.3291 -0.526 -0.546 0.652 178 163 130 0 0
-0.1503 -0.0246 -0.3306 -0.739 -0.580 0.344 95 80 58 0 0
-0.1498 -0.0182 -0.3780 -0.819 -0.527 0.228 51 35 19 0 0
-0.1512 -0.0191 -0.3805 -0.542 -0.835 0.090 52 36 23 0 0
-0.1525 -0.0181 -0.3976 -0.555 -0.751 0.358 84 65 47 0 0
-0.1527 -0.0181 -0.3992 -0.483 -0.784 0.390 68 50 31 0 0
-0.1532 -0.0184 -0.4006 -0.574 -0.691 0.438 73 55 35 0 0
-0.1536 -0.0186 -0.4019 -0.638 -0.701 0.318 81 63 41 0 0
-0.1559 -0.0200 -0.4072 -0.626 -0.749 0.220 59 42 24 0 0
-0.1576 -0.0195 -0.4228 -0.590 -0.789 0.174 61 46 25 0 0
-0.1579 -0.0196 -0.4243 -0.590 -0.789 0.174 64 48 25 0 0
-0.1582 -0.0197 -0.4258 -0.671 -0.732 0.115 72 56 32 0 0
-0.1584 -0.0197 -0.4274 -0.701 -0.703 0.116 83 67 42 0 0
-0.1555 -0.0145 -0.4480 -0.783 -0.597 -0.174 46 36 22 0 0
-0.1557 -0.0143 -0.4512 -0.807 -0.455 0.375 19 14 8 0 0
-0.1481 -0.0029 -0.4881 -0.808 0.000 0.589 14 13 11 0 0
-0.1613 -0.0127 -0.5040 -0.797 -0.208 0.567 43 38 33 0 0
-0.1618 -0.0129 -0.5055 -0.490 -0.174 0.854 58 51 44 0 0
-0.2120 -0.0607 -0.4838 -0.376 0.133 0.917 87 77 64 0 0
-0.2137 -0.0622 -0.4842 -0.320 0.180 0.930 106 93 75 0 0
-0.2193 -0.0667 -0.4885 -0.690 -0.633 0.350 181 164 131 0 0
-0.2323 -0.0769 -0.5004 -0.809 -0.474 0.348 74 59 37 0 0
-0.2327 -0.0770 -0.5018 -0.742 -0.457 0.491 96 81 57 0 0
-0.2332 -0.0773 -0.5031 -0.695 -0.520 0.497 68 53 30 0 0
-0.2361 -0.0792 -0.5093 -0.558 -0.740 0.376 70 58 41 0 0
-0.2383 -0.0800 -0.5179 -0.577 -0.728 0.371 147 134 111 0 0
-0.2431 -0.0834 -0.5259 -0.500 -0.543 0.674 63 49 30 0 0
-0.2437 -0.0837 -0.5272 -0.604 -0.546 0.580 49 35 16 0 0
-0.2443 -0.0842 -0.5283 -0.604 -0.546 0.580 77 64 43 0 0
-0.2466 -0.0842 -0.5440 -0.865 -0.463 0.195 98 83 58 0 0
-0.1961 -0.0206 -0.6906 -0.053 0.520 0.853 87 76 58 0 0
-0.2063 -0.0306 -0.6840 -0.589 0.155 0.793 91 78 54 0 0
-0.2055 -0.0292 -0.6890 -0.484 0.162 0.860 106 93 69 0 0
-0.2041 -0.0153 -0.7900 -0.785 0.067 0.616 53 45 31 0 0
-0.2050 -0.0160 -0.7912 -0.785 0.067 0.616 80 70 53 0 0
-0.2060 -0.0167 -0.7923 -0.817 0.069 0.573 97 85 67 0 0
-0.2069 -0.0173 -0.7935 -0.817 0.069 0.573 96 83 66 0 0
-0.2094 -0.0192 -0.7973 -0.866 0.066 0.496 48 36 23 0 0
-0.2223 -0.0279 -0.8205 -0.940 -0.340 -0.023 83 73 55 0 0
-0.2220 -0.0272 -0.8234 -0.888 -0.382 0.257 72 60 41 0 0
-0.2227 -0.0277 -0.8248 -0.898 -0.303 0.319 64 53 36 0 0
-0.2231 -0.0277 -0.8267 -0.855 -0.262 0.448 62 51 34 0 0
-0.2236 -0.0281 -0.8283 -0.906 -0.024 0.422 59 50 31 0 0
-0.2404 -0.0390 -0.8605 -0.209 -0.001 0.978 151 148 149 0 0
-0.2445 -0.0429 -0.8596 -0.361 -0.021 0.932 163 161 162 0 0
-0.0963 0.0177 -0.2649 -0.210 -0.104 0.972 142 138 130 0 0
-0.0979 0.0163 -0.2658 -0.338 0.107 0.935 128 118 104 0 0
-0.1004 0.0142 -0.2664 -0.338 0.107 0.935 133 119 97 0 0
-0.1164 0.0005 -0.2726 -0.821 -0.216 0.529 88 75 54 0 0
-0.1165 0.0007 -0.2741 -0.822 -0.339 0.457 79 67 46 0 0
-0.1206 -0.0023 -0.2800 -0.761 -0.367 0.534 34 25 15 0 0
-0.1342 -0.0122 -0.2985 -0.868 -0.406 0.285 122 111 89 0 0
-0.1297 -0.0069 -0.3081 -0.534 -0.112 0.838 34 25 16 0 0
-0.1403 -0.0157 -0.3141 -0.760 -0.251 0.600 116 104 90 0 0
-0.1427 -0.0165 -0.3253 -0.510 -0.580 0.635 98 86 73 0 0
-0.1513 -0.0235 -0.3305 -0.664 -0.673 0.325 143 128 101 0 0
-0.1530 -0.0182 -0.3848 -0.734 -0.656 0.173 58 43 26 0 0
-0.1533 -0.0183 -0.3862 -0.734 -0.656 0.173 60 44 29 0 0
-0.1533 -0.0169 -0.3976 -0.560 -0.768 0.310 66 48 28 0 0
-0.1538 -0.0171 -0.3990 -0.560 -0.768 0.310 72 53 34 0 0
-0.1543 -0.0174 -0.4003 -0.563 -0.651 0.509 66 48 27 0 0
-0.1547 -0.0176 -0.4018 -0.638 -0.701 0.318 76 58 36 0 0
-0.1554 -0.0181 -0.4030 -0.662 -0.649 0.376 68 51 30 0 0
-0.1566 -0.0178 -0.4139 -0.767 -0.590 0.253 57 40 24 0 0
-0.1597 -0.0187 -0.4287 -0.709 -0.689 0.148 95 79 53 0 0
-0.1575 -0.0143 -0.4472 -0.850 -0.503 -0.156 61 48 30 0 0
-0.1567 -0.0132 -0.4511 -0.805 -0.486 0.342 31 24 15 0 0
-0.1556 -0.0069 -0.4925 -0.814 -0.562 0.145 23 17 14 0 0
-0.1558 -0.0069 -0.4942 -0.384 -0.637 0.668 57 48 40 0 0
-0.1572 -0.0081 -0.4949 -0.716 -0.525 0.460 72 64 55 0 0
-0.1578 -0.0085 -0.4963 -0.822 -0.444 0.356 110 102 95 0 0
-0.1625 -0.0115 -0.5056 -0.860 -0.187 0.476 33 26 23 0 0
-0.1636 -0.0123 -0.5066 -0.602 -0.091 0.794 65 58 52 0 0
-0.2143 -0.0608 -0.4844 -0.104 0.019 0.994 111 99 81 0 0
-0.2370 -0.0781 -0.5092 -0.600 -0.549 0.582 83 72 51 0 0
-0.2377 -0.0786 -0.5103 -0.600 -0.549 0.582 65 52 33 0 0
-0.2422 -0.0807 -0.5256 -0.643 -0.469 0.605 45 32 10 0 0
-0.2462 -0.0825 -0.5397 -0.724 -0.655 0.217 117 101 76 0 0
-0.2469 -0.0827 -0.5426 -0.752 -0.651 0.108 73 56 33 0 0
-0.2467 -0.0824 -0.5445 -0.854 -0.520 -0.012 115 101 77 0 0
-0.1802 -0.0126 -0.6227 -0.937 -0.319 -0.144 80 69 56 0 0
-0.1959 -0.0181 -0.6917 -0.057 0.496 0.867 85 75 57 0 0
-0.2079 -0.0296 -0.6854 -0.603 0.191 0.774 90 78 56 0 0
-0.2060 -0.0275 -0.6894 -0.689 0.066 0.721 97 87 67 0 0
-0.2287 -0.0448 -0.7130 -0.946 -0.135 0.294 145 125 91 0 0
-0.2097 -0.0171 -0.7981 -0.866 0.066 0.496 70 57 38 0 0
-0.2108 -0.0177 -0.8014 -0.676 -0.620 0.399 57 44 29 0 0
-0.2225 -0.0259 -0.8192 -0.973 -0.230 -0.003 92 83 67 0 0
-0.2228 -0.0260 -0.8212 -0.905 -0.425 0.016 88 78 61 0 0
-0.2228 -0.0256 -0.8236 -0.880 -0.417 0.225 82 71 51 0 0
-0.2232 -0.0258 -0.8254 -0.814 -0.462 0.353 75 63 46 0 0
-0.2237 -0.0260 -0.8271 -0.804 -0.416 0.425 68 55 38 0 0
-0.2244 -0.0264 -0.8286 -0.804 -0.416 0.425 64 50 31 0 0
-0.2246 -0.0264 -0.8307 -0.833 -0.512 0.207 61 46 25 0 0
-0.2254 -0.0269 -0.8321 -0.908 0.093 0.410 62 47 25 0 0
-0.2393 -0.0357 -0.8610 -0.672 0.126 0.730 152 150 151 0 0
-0.1028 0.0141 -0.2673 -0.338 0.107 0.935 115 101 79 0 0
-0.1178 0.0014 -0.2738 -0.658 -0.402 0.637 123 107 86 0 0
-0.1183 0.0012 -0.2751 -0.832 -0.188 0.522 150 138 116 0 0
-0.1212 -0.0009 -0.2800 -0.845 -0.373 0.384 39 28 20 0 0
-0.1223 -0.0015 -0.2826 -0.772 -0.356 0.527 36 28 24 0 0
-0.1388 -0.0129 -0.3105 -0.608 -0.775 0.172 210 198 175 0 0
-0.1393 -0.0132 -0.3118 -0.349 -0.787 0.510 160 149 127 0 0
-0.1408 -0.0142 -0.3142 -0.665 -0.643 0.379 58 47 33 0 0
-0.1528 -0.0230 -0.3301 -0.585 -0.738 0.338 130 115 89 0 0
-0.1533 -0.0232 -0.3314 -0.585 -0.738 0.338 87 75 53 0 0
-0.1537 -0.0235 -0.3327 -0.585 -0.738 0.338 56 48 29 0 0
-0.1542 -0.0237 -0.3340 -0.585 -0.738 0.338 45 38 25 0 0
-0.1531 -0.0213 -0.3454 -0.571 -0.757 0.317 37 27 20 0 0
-0.1535 -0.0215 -0.3467 -0.500 -0.805 0.319 51 41 31 0 0
-0.1539 -0.0217 -0.3481 -0.528 -0.827 0.194 55 46 30 0 0
-0.1554 -0.0164 -0.4002 -0.563 -0.651 0.509 66 48 28 0 0
-0.1557 -0.0165 -0.4016 -0.638 -0.701 0.318 66 48 28 0 0
-0.1564 -0.0170 -0.4029 -0.662 -0.649 0.376 67 50 30 0 0
-0.1568 -0.0172 -0.4043 -0.794 -0.560 0.237 62 45 25 0 0
-0.1613 -0.0177 -0.4316 -0.703 -0.622 0.346 96 80 55 0 0
-0.1582 -0.0130 -0.4472 -0.996 -0.051 0.078 68 57 38 0 0
-0.1583 -0.0128 -0.4489 -0.969 -0.239 0.068 62 52 32 0 0
-0.1577 -0.0120 -0.4510 -0.571 -0.809 0.140 50 41 27 0 0
-0.1444 0.0056 -0.4955 -0.649 -0.741 -0.172 15 14 12 0 0
-0.1585 -0.0069 -0.4964 -0.854 -0.318 0.411 81 76 70 0 0
-0.1642 -0.0108 -0.5068 -0.943 -0.038 0.329 31 27 21 0 0
-0.2208 -0.0646 -0.4851 -0.838 -0.291 0.461 161 149 127 0 0
-0.2231 -0.0658 -0.4919 -0.535 -0.795 0.286 129 109 75 0 0
-0.2282 -0.0696 -0.4981 -0.649 -0.364 0.668 75 59 35 0 0
-0.2319 -0.0729 -0.4985 -0.746 -0.353 0.564 149 132 113 0 0
-0.2406 -0.0783 -0.5172 -0.565 -0.570 0.596 168 159 132 0 0
-0.2456 -0.0808 -0.5339 -0.618 -0.738 0.273 67 53 30 0 0
-0.2465 -0.0812 -0.5366 -0.757 -0.428 0.494 109 92 66 0 0
-0.2468 -0.0813 -0.5381 -0.696 -0.667 0.265 139 123 95 0 0
-0.2077 -0.0272 -0.6865 -0.553 0.039 0.833 91 78 53 0 0
-0.2062 -0.0253 -0.6903 -0.662 0.146 0.735 88 77 54 0 0
-0.2128 -0.0170 -0.8025 -0.417 -0.812 0.410 76 62 43 0 0
-0.2236 -0.0243 -0.8214 -0.905 -0.425 0.016 86 76 59 0 0
-0.2239 -0.0244 -0.8234 -0.848 -0.524 0.082 92 81 63 0 0
-0.2241 -0.0243 -0.8255 -0.814 -0.462 0.353 97 86 67 0 0
-0.2247 -0.0246 -0.8271 -0.814 -0.462 0.353 95 83 62 0 0
-0.2252 -0.0249 -0.8288 -0.814 -0.462 0.353 86 73 52 0 0
-0.2255 -0.0249 -0.8307 -0.833 -0.512 0.207 85 70 49 0 0
-0.2256 -0.0247 -0.8330 -0.900 -0.017 0.436 88 73 50 0 0
-0.1043 0.0147 -0.2670 -0.013 -0.700 0.714 131 123 111 0 0
-0.1054 0.0138 -0.2681 -0.022 -0.893 0.450 130 120 100 0 0
-0.1218 0.0005 -0.2800 -0.845 -0.373 0.384 38 28 18 0 0
-0.1223 0.0002 -0.2813 -0.845 -0.373 0.384 46 37 27 0 0
-0.1229 -0.0002 -0.2826 -0.772 -0.356 0.527 34 25 18 0 0
-0.1267 -0.0028 -0.2886 -0.848 -0.306 0.432 81 74 59 0 0
-0.1270 -0.0029 -0.2900 -0.901 -0.389 0.191 67 57 44 0 0
