ply
format ascii 1.0
element vertex 662
property float x
property float y
property float z
property uchar diffuse_red
property uchar diffuse_green
property uchar diffuse_blue
end_header
0.06511615108501137 0.12748644086135524 -0.3266924386477686 162 140 99
0.06541330380928934 0.12794032227173294 -0.32791801051919695 172 151 106
0.06487563520299847 0.12672200901284003 -0.3297376913382703 176 158 113
0.0662311073950841 0.12929579973030442 -0.3302097422761012 154 135 98
0.06676980154227193 0.1302337050119174 -0.33126135831880194 122 101 73
0.06702571017561537 0.1306050396007235 -0.3325155962267284 127 108 77
0.06621325900573079 0.12883487763395027 -0.3345455069149012 132 113 84
0.06711516186401195 0.13050083324415798 -0.3353333281902052 127 110 82
0.06781005220916636 0.1317521109886223 -0.3362686754723254 131 115 82
0.06861255368569619 0.13321946617569572 -0.33712208972450436 140 124 91
0.06897831224835693 0.13381112989377755 -0.3382951679329171 138 121 89
0.06952653402369342 0.13476888366265427 -0.3393322342516015 129 112 83
0.06990041809607146 0.13537698659411995 -0.34049786889784517 117 100 74
0.06995128039539426 0.13533686258503727 -0.3419055452547578 110 96 72
0.06992194339299679 0.13513557279658334 -0.34337560395983685 103 88 67
0.06917980756413712 0.1335030288377111 -0.3453882919619424 91 76 56
0.07032281008977025 0.13565499550406301 -0.34597326931709804 79 64 47
0.07066315153433436 0.13619556215628786 -0.3471663182494078 78 63 47
0.07036176447403993 0.13544713344890177 -0.34885242611293604 78 67 49
0.0710391874159394 0.13666470802290046 -0.34978713825367236 72 61 43
0.07111327640408237 0.136670219097536 -0.3511873273209438 66 53 36
0.07311968361607936 0.14055898843192383 -0.35108308082112877 62 49 33
0.07323700723245799 0.1406517497170801 -0.352445904769852 61 48 32
0.07333510987941572 0.1407057270027605 -0.3538252880902119 59 46 30
0.07324532443293125 0.14038174340184342 -0.3553547574582441 59 46 30
0.07327658455629679 0.14030091094131752 -0.35679106803770677 58 45 29
0.07366235712448427 0.14093298255322456 -0.3579466625830454 55 41 27
0.073623220865698 0.1407102394990076 -0.3594422492483468 53 39 26
0.07264226645628782 0.13859207647448127 -0.36169863041443917 51 37 24
0.07305233007023068 0.1392725407662147 -0.3628396189270701 53 39 26
0.07349760611777113 0.14002395381533703 -0.36395131582669726 55 40 27
0.07373289427167247 0.1403526859799445 -0.36523343071155934 57 42 29
0.07411103030005506 0.1409690101488652 -0.36639904575837434 54 39 26
0.07451831117913113 0.14164407818078353 -0.3675402076404374 56 41 28
0.0746290561969859 0.14172186542066967 -0.36892598223320217 48 35 21
0.07542507819705906 0.14318018567469581 -0.36974390751614367 46 33 20
0.07654051157951217 0.14528251688616212 -0.37029169597046174 47 34 20
0.07671740359965298 0.1454937908854749 -0.3716203246803128 48 36 23
0.0775510010032572 0.1470288017601868 -0.3723970204326138 50 36 25
0.07743989821188058 0.1466594444277079 -0.3739688480075233 54 39 25
0.07734458844696972 0.14632162178034006 -0.3755304495038921 58 43 28
0.07665169064923628 0.14477817174471075 -0.37760502317792327 51 37 24
0.0770655076446788 0.14546660968318 -0.37873871003073206 49 35 22
0.07709481181854326 0.14537927967816805 -0.38020264218104516 49 35 22
0.07818420808121027 0.14743109888486436 -0.38075226637883874 49 35 22
0.07818997694053101 0.14729623042631196 -0.3822369728915236 48 34 21
0.0777346100539489 0.1462301752829727 -0.38412616613242717 48 34 21
0.0778231244963537 0.14626175355433277 -0.38554484186059124 54 39 26
0.07785778075410107 0.14618439057272306 -0.3870126266596106 58 43 30
0.07815866069533986 0.14664457505059655 -0.3882473687657599 56 41 28
0.07832767929952351 0.14683834428431525 -0.38959923031032456 55 40 27
0.07850120674110116 0.14704111313296936 -0.3909482068712974 58 44 33
0.07866631165929179 0.1472267511754094 -0.39230582116426604 62 49 38
0.07875730380547809 0.14726245921927555 -0.3937312055374637 68 55 44
0.0787176661668296 0.1470338858960104 -0.39527621870980134 73 60 48
0.07861344415393615 0.14667444027573734 -0.3968825079372049 77 64 48
0.07828154205864624 0.14585417475295162 -0.39869926476214923 79 67 49
0.0781607957992285 0.1454605763026291 -0.40032802872655743 82 70 52
0.07805158390636277 0.14508998244306542 -0.4019495948494767 90 81 61
0.07795142815005877 0.1447373902541973 -0.40356612215642995 95 87 68
0.077511753906883 0.14369726158453267 -0.40550013960525255 83 76 60
0.0763160115753699 0.1411259144096873 -0.4081427457574201 65 57 44
0.0783727098694383 0.14438287486635537 -0.41545109762529203 114 111 104
0.07918770405082431 0.14588300107653415 -0.41621684685491495 121 119 111
0.07927621480503808 0.14591053334998091 -0.4176765890978628 129 125 114
0.07935200891386804 0.14591209704198468 -0.4191504287458065 133 129 118
0.029024996552438315 0.01292877037989204 -0.7821206046173245 133 125 110
-0.023350834263149947 -0.030086824751620417 -0.15745984634814128 182 179 177
-0.023178648457378895 -0.02988971055722263 -0.15882855928845693 180 176 172
-0.021805577948172564 -0.027334724232802317 -0.15990517614943475 180 175 169
-0.021665380814587215 -0.02720028555921685 -0.16128034386151072 172 166 159
-0.021627655335012524 -0.027267227929980972 -0.16268227239169195 167 160 151
-0.019166424653373447 -0.022573654403436116 -0.1634737617981529 158 151 139
-0.01932207631890675 -0.023020177686351333 -0.1649216790478788 148 140 126
-0.019822740571801823 -0.02414492077907302 -0.16646158325958688 147 138 118
-0.01903872739497897 -0.022745447582433416 -0.1676707809670679 164 154 127
-0.019073384800580222 -0.022954842091165807 -0.16909364034581736 163 153 121
-0.018473411302557308 -0.02191688765634639 -0.17034927202866829 167 157 124
-0.018088849280282267 -0.021302307509369803 -0.1716615571447638 155 143 110
-0.017841872115435344 -0.02095824997093658 -0.17301113205548968 141 126 99
-0.01617073561020362 -0.017813384480546916 -0.17396879032702364 139 123 98
-0.015751569823200105 -0.017130338905288763 -0.17526742697543496 151 136 105
-0.01468243130419792 -0.015168586204325353 -0.17638274252532404 150 134 103
-0.013191248449704221 -0.01237602122249215 -0.17737387717576275 157 142 109
-0.011408002200442836 -0.009008057072760325 -0.178274473798896 180 169 131
-0.00971511447919654 -0.005817092907563576 -0.17919290491602843 189 177 137
-0.00809966013502652 -0.0027777637110553977 -0.1801261549632921 190 178 140
-0.004457164237445403 0.003973919493667995 -0.18324450830111677 145 129 94
-0.0042485364032426795 0.004245011343125278 -0.18458008371491463 137 123 87
-0.004109147055576655 0.0043796360914958934 -0.18593771463683076 126 112 78
-0.004077239117132297 0.0043023874793206435 -0.18732988872218576 117 103 74
-0.003747863936649949 0.004811108217488647 -0.18863061044550838 113 97 71
-0.0029984063679543843 0.0061477055875205425 -0.1897984569490049 109 94 67
-0.0031888244888394895 0.005631998421180756 -0.1912640551682983 111 98 72
-0.0033688104014885575 0.005136545022109723 -0.19272941057342 114 101 75
-0.003503653793812296 0.00472979041312474 -0.19418314640081846 92 80 54
-0.0032436482703818784 0.005101374627542066 -0.19551007711051474 96 84 57
-0.0026815047284647273 0.006068800120369769 -0.19673740347269325 118 107 78
-0.002582328732776272 0.006123138460921038 -0.19811812139231305 102 89 64
-0.002174467542699371 0.006786318341557629 -0.1993961891169032 85 70 47
-0.0018887503078978407 0.007208533340822262 -0.20071539254887968 94 79 55
-0.0016059085896208691 0.007625041962113041 -0.20203590038555627 120 105 79
-0.0010374505833007641 0.008605245324487282 -0.20325789066131786 118 102 78
-0.00033652487269734965 0.009847080335328343 -0.20443226499164818 105 89 67
0.0008054402377818473 0.011959886769957594 -0.20544918503146412 121 104 82
0.001541609320443553 0.013271880240132594 -0.20660538037187295 139 124 97
0.0009837870892559705 0.012028578196038003 -0.20822255407213155 136 122 93
0.0010713050895803516 0.01205942962494011 -0.20961208237101264 111 97 72
0.0012550433517863682 0.012280215586287918 -0.21096808717642296 120 106 80
0.0020919382906642303 0.013791432798479566 -0.21208523290129241 139 123 91
0.00234979606556468 0.01415869870222794 -0.21341369993407283 169 151 118
0.0028303729843940223 0.014966105001724767 -0.21465954060338485 177 159 125
0.0036345206386982146 0.016413210644457735 -0.21578279079869872 152 133 100
0.004759939112487281 0.01849576310254878 -0.2167813758158861 167 148 115
0.00567429347742171 0.020161448052941226 -0.21785586106940835 168 150 119
0.008239089554265291 0.025091471402880428 -0.21829088636044097 159 143 112
0.010078352512149325 0.02858778371215792 -0.21899410876454226 136 121 93
0.011677946884786385 0.03161088778799668 -0.21978196404047382 127 112 82
0.013048619552384975 0.034181829392898884 -0.2206523901091356 147 132 98
0.015885530570875935 0.03965489390660043 -0.22093358604076418 168 154 115
0.01623043152594636 0.04019737642712394 -0.2221977313745977 161 146 110
0.016894301137822733 0.04137125915878394 -0.22333303258930148 146 130 102
0.017735909898619933 0.042897231887903224 -0.22439399241989616 147 129 102
0.01837629404362311 0.04402507549997217 -0.22553427236328538 175 156 124
0.018630203298748652 0.04438773484788918 -0.22683221686646832 198 179 145
0.018522698273762433 0.044034490470379425 -0.228280975945259 170 152 116
0.0186222759818202 0.04409121050142338 -0.2296456557925724 167 153 108
0.0191421073898875 0.044980448177554554 -0.23083434288021393 188 176 136
0.019661554232526902 0.045869041088695085 -0.23202201967091973 154 138 103
0.02010598405175356 0.04660907146788332 -0.233240658482314 193 179 139
0.020380694320506036 0.047012744708318246 -0.23453182001682718 173 159 118
0.025031932271459424 0.05595340657037532 -0.23531970983430406 176 158 112
0.024751885093318698 0.055258064644915034 -0.2368436633578955 175 161 122
0.024701408787530767 0.05501769835768223 -0.23826949207379494 99 85 52
0.02430168760142542 0.05408425649836722 -0.2398538406663816 98 82 55
0.025123726566618963 0.055574492941697536 -0.24089266272042673 95 79 55
0.025182582086664924 0.05555054222565047 -0.2422744018124179 136 117 86
0.023358099389357977 0.05178844539230968 -0.24451764226016323 199 183 145
0.025899364177255416 0.056691333993383386 -0.24476758450524358 197 184 147
0.02651962616696135 0.057781674591885886 -0.24589268767075667 128 112 80
0.026105572820968606 0.05681835210934418 -0.24749793622796928 116 100 72
0.025184263554916302 0.05484713802928386 -0.2493458684885185 111 95 69
0.024706915365442547 0.05375698990731932 -0.25099202628835265 117 102 75
0.02386048631883804 0.05150402629866103 -0.25711239677782305 140 125 95
0.025422699376161567 0.054466153087929584 -0.2577850707478296 153 136 108
0.02698056732939022 0.05742042703057096 -0.2584520116670492 185 165 135
0.028559703515064854 0.060417779620455525 -0.2591005741914656 206 185 151
0.03013624007718456 0.06341076249027192 -0.2597424190233505 228 211 174
0.03113199951691432 0.06524925745499704 -0.26066725975771754 231 219 181
0.03263875335437448 0.0681048219010798 -0.261330119080831 219 206 168
0.03415803880427089 0.07098608156068655 -0.2619790221492024 209 192 156
0.03514888354507312 0.0728164193390065 -0.2628901225383143 204 184 150
0.035024384294832615 0.07242709396355591 -0.26437017125956286 217 200 160
0.03581274038617803 0.07385481164466257 -0.2653810041022712 240 228 186
0.036451036951546265 0.07498403830891354 -0.26646693541712985 236 224 184
0.03699549999871518 0.07592660113804714 -0.26759997478793046 224 214 175
0.03747741086384995 0.07674471521561557 -0.2687645493731842 226 213 179
0.03775288102526266 0.07715167636050393 -0.2700375548664381 213 197 160
0.03820789900077301 0.07791634493311117 -0.27121510281659483 240 229 187
0.04062386234481903 0.08258881895639231 -0.27133933594624315 235 223 184
0.04091401581369776 0.08302570668969413 -0.27259779539257956 231 214 173
0.04101837036122326 0.08309219604933846 -0.2739574080605738 225 207 167
0.0420742486254677 0.08505564753132049 -0.27479841409921424 239 225 185
0.042653775012560326 0.0860696943054819 -0.27589651713077584 240 227 187
0.04411802428583922 0.08884841203710467 -0.2765035829759034 233 217 178
0.044880218423651745 0.09022746280938661 -0.2774937541694661 236 221 182
0.0448264840212836 0.08997896840959521 -0.27893769733150103 229 215 176
0.04562934177796729 0.09143947139665067 -0.2799018527632483 228 213 174
0.04614155486750732 0.09232024366565038 -0.2810274211215188 225 207 167
0.0460355624309959 0.09196716500027782 -0.2825038731435454 231 215 176
0.046164140121633446 0.09208209751551169 -0.28384876465212244 240 225 188
0.04709980951613314 0.09380844363155783 -0.28472983451260436 229 212 174
0.04743708371858615 0.09434016728916053 -0.28595364765363906 238 223 184
0.04819428298051381 0.0957106569274856 -0.28693256492909736 236 223 183
0.04905194965567731 0.09728214390205296 -0.2878496695666074 236 222 183
0.050425146914281314 0.09988405101163181 -0.2884592181490384 237 223 184
0.050636999395482066 0.10016583667208298 -0.28975035556079315 237 223 184
0.05116869060247248 0.10108682145629737 -0.2908514898990944 242 230 191
0.05149800149294717 0.10160337682307875 -0.29207256438967616 244 231 193
0.05211067987309486 0.10268650434721772 -0.29312269047268213 239 224 182
0.05306551754447013 0.10445405855696302 -0.2939633514029901 242 227 186
0.05388945803264422 0.10596023694997293 -0.29487954357135054 245 230 187
0.05409212593572163 0.10622395397028796 -0.29617326740570443 241 227 184
0.05543927864051222 0.10877742333476134 -0.29676213923531325 237 222 179
0.05512147017583061 0.10799985040756717 -0.29837622033765665 237 221 177
0.05525422975892646 0.10812362675562966 -0.29971376121882004 237 220 176
0.055877755836668166 0.10922967875934805 -0.3007449815634849 239 222 177
0.05579376620599301 0.10891941368058897 -0.3022199617170905 235 218 172
0.05543185765095481 0.10805235524691625 -0.30387376287619555 239 221 175
0.05530997158774382 0.10766554755783231 -0.30537932544987795 243 225 177
0.056623203478634095 0.11015317289304377 -0.30596886627860437 242 226 180
0.05789278224783355 0.11255402076873149 -0.30657970148269637 247 235 188
0.05878002101165405 0.11418938028218846 -0.3074314801361517 223 207 160
0.059970805581558276 0.11643348627071676 -0.3080818320497877 206 186 139
0.060851480245642624 0.11805657542969208 -0.30892902410116474 190 167 123
0.06161216474272326 0.1194394905660274 -0.30985123130854986 209 188 145
0.06201053688485102 0.12009620464731084 -0.31100986980957035 218 197 152
0.06228314303437734 0.12050074656766539 -0.31225150900127707 201 183 137
0.06262110650199378 0.12103635795837553 -0.313449793225046 195 177 133
0.06284272914012104 0.12133857747738606 -0.3147260388319787 179 158 116
0.06277695862239897 0.12106405339138264 -0.31619690018570884 190 169 126
0.06307676127530008 0.12152294358786013 -0.3174224236524021 195 177 131
0.06354787826251047 0.12232569780484161 -0.3185312505532712 194 176 130
0.06468840352100697 0.12447248219685161 -0.31918021955454445 202 187 142
0.06509132485896463 0.12513875109813918 -0.32033152008814453 173 155 115
0.06552309873666219 0.1258630263912081 -0.32146223354111897 146 127 91
0.0657713760982202 0.12621879793438223 -0.32271981834186325 156 136 98
0.06609473115225341 0.12672535547492722 -0.32392536856575843 159 141 101
0.06615304925033906 0.1266993587746244 -0.3253171529863782 162 142 105
0.06599779961106804 0.1262439672383896 -0.3268616144055847 158 136 95
0.0667229294793236 0.12755788017198286 -0.3277843903353002 168 146 101
0.06710970672418508 0.1281918453867557 -0.32894567812570474 170 151 106
0.06745731952097213 0.12874710932446357 -0.33013454437209333 148 131 93
0.06618401837433864 0.12604250318979304 -0.332491131772157 127 106 77
0.0662430990600502 0.12601685509156987 -0.33389422551294845 128 108 77
0.06725911294578457 0.12791623451788495 -0.3346028361582975 138 120 90
0.06815917594593537 0.12958279376365328 -0.33539125408768977 133 116 87
0.06870128327037534 0.13052935909285748 -0.33643852927614126 123 108 74
0.06976111783863852 0.13251823148653202 -0.33710192340416434 137 121 88
0.07027265321452622 0.13340375505722535 -0.338166795575237 135 119 86
0.07060580260028182 0.13393021397854477 -0.33936325150566143 128 111 82
0.07105110398988823 0.1346825597400021 -0.3404755650027819 114 98 72
0.07112348231013416 0.13468379847439124 -0.3418676425350415 104 89 65
0.0709986876309369 0.13428761463013805 -0.3434105900271104 99 84 63
0.07099680522793697 0.13413879142406593 -0.3448633096018777 93 78 58
0.07183259313323058 0.13567801234748347 -0.34567874570013485 82 66 50
0.07226838144349745 0.1364112898110289 -0.34679727457511594 79 64 48
0.0729470911255613 0.1376344233507371 -0.347727697695864 79 67 49
0.07341224565935234 0.1384271810825199 -0.3488208585106284 78 66 48
0.07508739903195356 0.14166048034889964 -0.34897152175603113 72 59 42
0.07489534065062146 0.14112813238642266 -0.3505718127894363 65 52 36
0.07473709305897826 0.14066363292672326 -0.3521492414428958 61 48 32
0.07458331527776613 0.14020780856180598 -0.35372659493697456 59 45 32
0.0712061164533063 0.13324565986960746 -0.3578623187658585 55 41 28
0.07301194927611315 0.13659703315696667 -0.35936722087252393 51 37 25
0.07306447583817063 0.13655604711595212 -0.36079661839405136 50 36 25
0.0730346664551533 0.13634856312698385 -0.3622944335514413 51 37 26
0.07416323583791322 0.13848096067554302 -0.3628553699437044 55 41 30
0.07531176190003805 0.14065428028407898 -0.36339405833897326 55 42 31
0.07544039004945736 0.14076708076309644 -0.3647612638810947 54 41 30
0.07571778817455989 0.1411804499052917 -0.3660075570955822 51 38 27
0.0759585280980278 0.14151967963026504 -0.36728441180382715 49 38 26
0.07629993323941295 0.14206240165602402 -0.3684783255390485 45 34 22
0.07673221775224495 0.14278893721998934 -0.3695963295477796 46 33 21
0.07766352566569701 0.14452497290646643 -0.37029580477776575 46 32 21
0.07789353767887836 0.14484263956321636 -0.3715802662538011 46 34 21
0.07843460341833709 0.14578966716101696 -0.3726027040502205 50 36 25
0.07861463118598232 0.14600615866520675 -0.3739296819983768 55 40 26
0.07812317337357602 0.1448632771709071 -0.37582974132902464 59 43 29
0.07828624007792385 0.14504497250650042 -0.37717579535997475 56 42 29
0.07836709667270605 0.14506007478390057 -0.37859366056714094 51 37 24
0.07839162180092417 0.14496090549277493 -0.38006193033954094 52 38 25
0.07851682983500961 0.14506547707065476 -0.38144511498958056 55 41 28
0.07840870173463174 0.14469712768612494 -0.3830329366016144 58 45 32
0.07853834545449837 0.14481030964033306 -0.38441603154248416 64 53 39
0.07865582581621501 0.1448986949972884 -0.38581123627983105 73 63 49
0.0789653221762427 0.1453762015100411 -0.3870385722794438 82 73 58
0.07917785484595162 0.1456570906938763 -0.38835187936541987 86 77 62
0.07923288419726912 0.1456184738738949 -0.3898061341790544 83 74 59
0.0793169781814167 0.14563861221353538 -0.39123642471227527 83 73 58
0.07740567723955842 0.1416102723598053 -0.39445923638742064 75 64 49
0.07710030012930909 0.14083897217501937 -0.3962517729190394 73 63 47
0.07639028636820444 0.1390934373560522 -0.3999414812622344 81 70 49
-0.022918046530142757 -0.031910515530416246 -0.15199517312146366 178 178 179
-0.02185665927508978 -0.029963669884764357 -0.1531556071201862 178 178 178
-0.022705651728506398 -0.03177779873267819 -0.15475755473767952 179 179 176
-0.02163631934804028 -0.029815032903387002 -0.155913408539873 176 176 171
-0.021960307142469434 -0.030595990246505056 -0.1573980386432582 169 166 161
-0.02128429298914522 -0.02940754385428266 -0.15864471256191948 154 148 139
-0.01983111696162513 -0.026687838305386603 -0.15969939740623795 161 153 139
-0.018706399063217242 -0.02461467339881087 -0.1608290417886202 160 149 129
-0.019976297832932356 -0.027260021332396488 -0.16255366601017457 146 133 112
-0.015229705836601291 -0.01804812565646293 -0.16276421324915974 136 123 103
-0.01563993781334449 -0.018998993360344094 -0.1642699672604572 127 113 93
-0.01627731283950267 -0.020398118633289553 -0.16583885372803986 132 117 92
-0.01690526865906823 -0.021779242884266574 -0.16741090813717174 156 141 114
-0.01661746511989624 -0.02135495390369955 -0.1687461713130885 156 141 110
-0.015842805114919353 -0.019970419412925267 -0.1699514943026905 153 139 106
-0.01514060737808623 -0.018728578772690067 -0.17117392877188797 140 125 94
-0.0152144938603243 -0.019017735782013698 -0.1726064251759635 142 126 97
-0.013765556960238973 -0.016302172123083943 -0.1736206829289418 138 122 94
-0.012416566972111163 -0.01378321127173903 -0.17465643218945323 140 126 94
-0.011121650577719206 -0.011370392021518558 -0.1757015918924235 148 134 103
-0.009671516245769333 -0.008650583919913635 -0.17669698528487354 167 156 121
-0.008037276958395914 -0.005566611739571924 -0.17763292991036422 203 194 152
-0.006343036752377417 -0.002363386511914062 -0.17854388753069966 204 195 152
-0.005196811827371844 -0.00024172045411041676 -0.1796078833247075 189 175 136
-0.005035016194613898 -6.41722433644687e-05 -0.1809591516820163 171 155 119
-0.00394236277138257 0.0019523219158760347 -0.1820326267497584 154 135 101
-0.002761580205894079 0.0041434036940025745 -0.18307502386502209 148 132 95
-0.002487793238089439 0.004542540021291501 -0.18438947409291356 134 121 84
-0.002283267877267618 0.004804739613597703 -0.18572565495127072 115 103 69
-0.0021115258010535806 0.005002052270160165 -0.18707282365859904 98 84 53
-0.0019887752440824677 0.005102402365941651 -0.18843636509400713 111 97 70
-0.001774434549547274 0.005383737984688851 -0.1897721241175658 113 100 71
-0.0020342277242464887 0.004727283985847375 -0.19126040600343333 102 88 61
-0.002097686856713313 0.0044588281686451375 -0.19268879027681587 104 89 64
-0.0022898735914291604 0.003935462739874093 -0.19416153195643782 74 62 39
-0.0017365481134760316 0.004886882954573082 -0.19539212063337758 79 67 43
-0.0010843243366284241 0.006034147274298143 -0.19658859882664037 95 81 57
-0.0011627713012335034 0.005735419956641216 -0.1980279810853223 84 69 45
-0.0008214569193530849 0.006267380433170794 -0.1993279814745305 82 66 45
0.00027688123051831937 0.008298141447797905 -0.20036985073004177 94 79 55
0.00040803085367984576 0.008414174617048104 -0.20173984538863118 112 96 70
0.001180808805046507 0.009800804243674494 -0.20288846948037018 120 103 77
0.0016632826723155386 0.010612672835146157 -0.20413607991723973 115 97 70
0.0025611671006360373 0.012247588653512442 -0.20523620419296928 121 103 76
0.0034799588688051997 0.013924271720310057 -0.20632551889546802 134 117 89
0.0026783375018978248 0.012191992210099006 -0.2080289114820039 144 129 97
0.0031472422361989577 0.012977187525375557 -0.20927926050452056 122 106 79
0.0030044070741270038 0.012549811960644211 -0.21075210950658058 120 103 78
0.0029699509789437167 0.012337013986275305 -0.21218798070819256 144 128 97
0.0036663990283537576 0.013573306176611927 -0.21335489928815324 151 134 101
0.0038468931978210344 0.013786568096025284 -0.21471266351014778 174 156 121
0.004521686844674154 0.014980190307773839 -0.21588496931466392 157 138 105
0.008085216676920366 0.02190480660396222 -0.21595699470150453 158 140 109
0.009498864013355396 0.024565733438671328 -0.2168332535793211 164 147 116
0.011170047464045336 0.02773839754855955 -0.21760345497155414 162 146 113
0.01329716483028262 0.03181681367689528 -0.2181879809058424 141 125 96
0.014758612106884492 0.03457493641690103 -0.2190227369930801 135 118 90
0.01581370218613095 0.03652698401105068 -0.220011272494608 159 143 110
0.01705835009047855 0.03885588742002001 -0.22091982590659268 182 168 129
0.018183169605474885 0.04094737989921798 -0.22187088926622422 164 149 116
0.018755832715095882 0.04194260600766779 -0.22304051069453554 153 136 109
0.020073343074609888 0.04441772631251332 -0.22390491824526915 168 149 120
0.020659220540668276 0.04543974588005354 -0.22506381947698179 174 156 122
0.02225957591994205 0.048336146221324046 -0.22719811938320375 207 194 153
0.022649201375007994 0.048968656304509986 -0.2284333764653636 190 178 131
0.023934971999425445 0.051382930110038035 -0.22928896847471517 187 174 131
0.02409766468311778 0.051564538470065036 -0.23061743223953785 156 138 98
0.024613572559282305 0.05244853175964281 -0.23179523067440988 199 184 145
0.02170176441350306 0.046514372145537886 -0.23445463098291316 182 169 129
0.025607987133461296 0.05414246699647575 -0.23416360303887268 162 145 102
0.026422129388688462 0.055620231184603325 -0.23520711717269002 177 159 111
0.02643347081553731 0.05550064165342603 -0.2366023944894503 173 159 119
0.026445356214431833 0.05538193369385016 -0.23799941119021478 104 88 55
0.026577059462718395 0.05550155173498032 -0.23934470246641204 106 90 59
0.026920916306889718 0.056043456935052825 -0.24059546211575955 103 85 60
0.02709316244349198 0.05624362887134316 -0.24192412488259366 132 113 83
0.025994846211537158 0.053913111122104465 -0.24383530374576393 201 186 144
0.027186821839500688 0.05614400712354813 -0.24469999548515015 217 203 162
0.027882851984365617 0.05738736035469038 -0.24578935485783426 151 133 99
0.027668784816554843 0.056817424329146646 -0.24730157424320806 122 104 75
0.02740947501241058 0.05615697059856155 -0.24883851557440667 123 107 78
0.02540703252775766 0.05202152066861117 -0.25120464681851035 135 120 89
0.026174406338995596 0.053406582266553156 -0.25226516850933667 158 143 111
0.02595066472153392 0.05281567778775162 -0.25379855873267837 142 127 97
0.027127969856953163 0.05501850559449273 -0.25465862619524915 148 134 102
0.027645517670008928 0.05590592247266604 -0.2558341244961139 163 148 114
0.029006464693826766 0.05847599062566256 -0.25659556897566377 191 174 141
0.029916857638706877 0.06014775592360633 -0.2575723959853611 202 183 147
0.03054635711095221 0.0612593521106643 -0.25868479248114157 221 203 164
0.03179174676090835 0.06360041011551534 -0.25948783457174346 238 222 182
0.03289123098778347 0.06565080510930013 -0.26035826728401973 231 218 180
0.034577985284989884 0.06887423203791647 -0.26092680056143075 211 198 160
0.03552373037413009 0.07061883026426771 -0.26186359243798407 209 189 158
0.0366145648475762 0.07265361205516932 -0.2627220803298426 201 181 148
0.03736451503441666 0.07400796161405303 -0.2637512676355421 221 205 165
0.038305824687510676 0.07574490549835367 -0.2646784689300583 236 225 187
0.03817980323456477 0.07534949805689287 -0.2661585933255543 238 225 187
0.03859810907748493 0.07604165633558778 -0.2673558498194214 228 215 176
0.03906492399979155 0.07683084025433572 -0.2685268683190082 239 225 190
0.03947167127482068 0.07750003062428827 -0.2697288892498783 222 208 171
0.0397885799319917 0.07798963956358768 -0.2709784226760331 236 224 183
0.042604301609411005 0.08347655306362486 -0.2708833399385173 237 225 185
0.04308014692515383 0.08428488998625791 -0.27203872929589024 235 218 179
0.04299957080329439 0.08398018586259015 -0.2734961872371153 225 207 171
0.044226830941646963 0.08629202771300427 -0.27423963499903636 239 225 187
0.04432497847032235 0.08634488515242554 -0.27559956941871416 237 225 183
0.044568166343324486 0.08668789703299586 -0.2768805470766705 233 216 177
0.045418148962957275 0.08824558523796072 -0.2778235329662136 235 218 177
0.04614294179307177 0.08955297113559736 -0.2788332812390646 232 218 179
0.047079196657481684 0.09128409161731967 -0.27972098976147985 233 219 182
0.04802174817828349 0.09302823779464842 -0.2806010430555293 222 205 164
0.048773502543279175 0.09439059362878836 -0.2815859373847086 229 214 171
0.04938568776197114 0.09547360517278602 -0.2826481401043054 238 225 184
0.04855532525848916 0.09366608996152918 -0.2845419074795656 235 218 179
0.0489730060932053 0.09435917428726386 -0.28571806668210764 240 225 187
0.04946627672358903 0.09520385005141307 -0.2868493983503213 245 233 195
0.050855201485008106 0.09784435840676481 -0.28745307676254 242 229 191
0.05146170039653353 0.09891662606180218 -0.28851215350512355 240 225 186
0.05181481972541373 0.09948091045026271 -0.28971995288602176 237 222 183
0.05224279304932637 0.10019537048381977 -0.2908827718879302 240 226 187
0.0529131440281615 0.1013961834098791 -0.2918991235306131 240 226 187
0.05326160516982075 0.10195132324620665 -0.2931077429305169 239 226 184
0.05425371069015825 0.10379825907719442 -0.2939248037273978 239 224 182
0.05506012295217924 0.10527291232103474 -0.2948508481146609 243 228 185
0.05506367161336219 0.10513602428751898 -0.29626720151254177 240 226 183
0.05668672253358064 0.1082508867017265 -0.2966844968407376 236 221 178
0.05706971665101492 0.10887618207759132 -0.2978637576872538 236 220 175
0.056853813748332184 0.10829852082750571 -0.29941689702509167 233 216 171
0.05750684064973069 0.10946620619230739 -0.3004276147709896 240 224 179
0.05736055025316872 0.10902798479307527 -0.301941091089733 239 224 177
0.05725087627991697 0.10866303023315974 -0.30343448280692303 247 232 186
0.05771184528027455 0.10944481813660939 -0.30456634015650963 245 228 183
0.05799753907024678 0.10987432631342808 -0.30580976935811355 242 230 183
0.05916364792857487 0.11207413373128129 -0.30648505834789985 246 234 187
0.06027886411237781 0.11417218181110966 -0.3071875410678279 227 208 163
0.06127667815578072 0.11603463595914365 -0.30796112501198597 211 190 145
0.06214857113651652 0.11764423534968399 -0.3088126014071775 204 182 136
0.06311200670016913 0.11943842499191883 -0.30959987733534844 218 199 153
0.0634338714076424 0.11994188649622295 -0.31080792372662863 220 201 155
0.0636628795184326 0.12025844249085718 -0.312077798517965 198 178 131
0.06395676602180843 0.12070555297674097 -0.3133048224333803 195 175 131
0.06440249876480257 0.12145840437606467 -0.3144297679217956 181 160 118
0.06427947651066393 0.1210659056519499 -0.31593870824314607 201 181 138
0.0641079343490741 0.1205753622325696 -0.31748371686098376 204 186 144
0.06452639715789696 0.1212731294637217 -0.31862873230929384 199 181 136
0.06508323913024999 0.1222498047417273 -0.31967793538530476 197 183 133
0.06615585810167451 0.12426613123671819 -0.32036918597440894 191 175 134
0.06636041939669866 0.12453323271368968 -0.3216577713989565 142 122 87
0.06684142961738773 0.12535759823721565 -0.32275424141203507 155 133 95
0.06705719939301723 0.1256472409365751 -0.32403555734475287 158 137 96
0.06744080594394217 0.12627530478084892 -0.3251992832642216 163 145 104
0.06794038452194885 0.1271373509991701 -0.32628037982866864 149 128 88
0.06804418662609274 0.12720104445455674 -0.3276419247623859 159 137 95
0.06855354985129361 0.12808295715104195 -0.3287148165052592 171 150 108
0.06764568646419293 0.12610471254893016 -0.33080530383822637 148 129 92
0.06769770197306646 0.12606319271299968 -0.3322109359918114 139 119 90
0.06779661985609851 0.12611617555528276 -0.3335843957835362 129 111 80
0.06849799122641913 0.12738554722311496 -0.33451981355968197 136 119 87
0.06936606086080867 0.12899187553376487 -0.33533025200903516 141 124 92
0.06988428265026393 0.12989189575027982 -0.33639452032709233 117 101 69
0.07087019784396235 0.1317369956141306 -0.33711105398152463 127 110 79
0.07091724215862479 0.13168533731345877 -0.3385212988117764 128 110 82
0.07168021026156544 0.13308046510193994 -0.33939825084420366 123 104 78
0.07234686733065868 0.13428122672301612 -0.3403443296049933 115 99 73
0.07243789797568294 0.13431840301237702 -0.34172235949005997 98 83 59
0.07256849508189804 0.13443542783272733 -0.3430719996419924 93 79 59
0.07321914552543725 0.13560417984546033 -0.34402667600198084 95 81 63
0.0727606556015486 0.13452941701811977 -0.3458281464918273 86 72 56
0.07326650870419874 0.1354052798543946 -0.34689337311677154 79 65 49
0.07386575949550186 0.136470293015157 -0.3478850274848543 76 63 46
0.07466555137419616 0.13794142729655778 -0.34871888214273994 73 61 44
0.07491052227791253 0.13828971248083086 -0.3499820816139532 73 60 43
0.07514366796743982 0.13861400184567585 -0.3512550613712771 68 55 39
0.07536682454115559 0.13891800054580622 -0.3525365064412468 62 49 33
0.07541197557451021 0.13886136906508545 -0.3539594607270961 59 45 30
0.07439443362858708 0.1366515865498446 -0.3562290871196638 54 40 26
0.07468851063538215 0.13709855712501615 -0.35746113936353757 52 38 25
0.07503112831209496 0.137643887670678 -0.35865441564970896 50 36 25
0.07584399213999932 0.1391424546059069 -0.35946852535556073 50 36 25
0.07582681406581691 0.13895853863305108 -0.36095096708403285 55 42 30
0.07658058162031384 0.14033770340637022 -0.36180886630607306 56 44 32
0.07687102270190908 0.14077748516598587 -0.3630420617560453 56 46 35
0.0769632177735441 0.14081509331578973 -0.36443814911803346 54 43 32
0.07720285888768506 0.14115169178623607 -0.36571434067344066 48 37 26
0.07739831883155675 0.1413985748296851 -0.36702769020244713 46 36 25
0.07765813492606011 0.1417759899463283 -0.36828840310519173 44 33 23
0.07854937182116271 0.14343519424714268 -0.3690219118500441 44 33 23
0.07875739121508321 0.14370759258565724 -0.3703245826760058 47 35 25
0.07898768883144973 0.1440251523157941 -0.3716092785407065 50 37 26
0.07931946531792759 0.1445487723894502 -0.372808678934827 57 43 32
0.07949996982653831 0.14476508060723997 -0.3741366349768677 63 48 37
0.07908047228577292 0.14376209273063076 -0.3759782413630481 70 56 43
0.07919865783134826 0.14385130909779761 -0.37736398168988516 75 62 50
0.07947535932321492 0.14426259604481578 -0.37861459192012586 77 65 53
0.07957230318545465 0.1443083813611801 -0.38002112412216343 81 70 57
0.07943431566057307 0.14387626082037724 -0.38163359609649394 89 79 66
0.07894396137847626 0.1427271105365071 -0.3835572426943706 96 87 73
0.07857077402662327 0.14181568792551366 -0.3853842637321271 99 92 78
0.07822301800487473 0.1409554753600734 -0.38719414612003206 96 90 75
0.0780555350331214 0.1404616133728006 -0.38884962019727404 94 89 74
0.07747783231650336 0.13913239280543094 -0.3908733084182256 95 89 72
0.07708208407834248 0.1381729048323728 -0.39274149269792585 91 85 67
0.07622411609822849 0.13627167588032096 -0.39502940519763596 87 79 60
-0.02304868445590619 -0.035419667334763504 -0.15228129127291964 178 178 179
-0.022282281736209303 -0.03405118904648123 -0.1535134576099224 179 177 181
-0.021463884292911167 -0.032579749907947105 -0.1547310812695474 175 171 173
-0.021695215773297614 -0.03318206157206224 -0.15619439837607904 157 153 148
-0.019940278603829527 -0.029859708866072678 -0.15718536128778954 127 121 111
-0.018541548219706272 -0.027240520839030703 -0.1582545982833641 111 102 86
-0.017446981462578778 -0.025221939178799696 -0.15939238682489107 165 157 133
-0.016385561962658043 -0.023268445266447252 -0.16053410297448112 185 172 140
-0.016321873670596492 -0.02328728977123204 -0.16192204266943006 163 148 117
-0.014132269091278956 -0.01910220573179948 -0.1627720807264918 138 123 97
-0.014040654565986781 -0.019065517928989438 -0.16414995688999595 130 115 90
-0.01454934389924506 -0.020216462586377423 -0.1656850717362847 131 115 89
-0.014186322636201145 -0.019643290498548016 -0.16699634653870624 134 118 92
-0.013699832259984113 -0.018825794150969688 -0.16827474987445112 140 124 97
-0.012941104443395628 -0.017469446046152394 -0.16947931309573672 140 123 94
-0.011899549814213456 -0.015553042383524805 -0.17060479994038596 146 129 95
-0.011152167251257877 -0.01421857214653343 -0.17180683234259972 156 140 103
-0.010566402459962106 -0.013203850738603126 -0.17305126129567905 152 137 102
-0.009352501796282529 -0.010945131470028367 -0.17411852621468266 149 135 102
-0.007846479883989455 -0.008107334496580944 -0.17509813042469596 151 138 106
-0.006333339239620976 -0.005254736182319628 -0.1760689097251274 161 149 116
-0.004917370522317666 -0.0025939418384220217 -0.17706087880790478 176 163 127
-0.004426233531537711 -0.001764987983213756 -0.17831610311902565 172 158 121
-0.003477041747091472 -2.820016659941388e-05 -0.1794355900404815 159 143 108
-0.0025031653571323115 0.0017578825949659052 -0.1805441574461657 151 136 104
-0.0017466553822834963 0.0031134567835634716 -0.181714256672499 136 119 90
-0.0014034425985509427 0.003649865285262323 -0.1830072014824444 125 110 77
-0.0006763441452603755 0.004947501084639622 -0.18418259044879087 106 93 59
-0.0004039321559505815 0.005343617911302445 -0.18549621764099575 75 62 34
-0.0004919407612745952 0.005024782266420558 -0.18692269098990807 71 57 30
-0.00030679488826707707 0.00524758688344177 -0.1882656362859223 108 94 65
-0.0003737716529935292 0.004970046233650889 -0.18968964663380222 115 101 70
-0.0007151182140689993 0.004147780073753618 -0.19120410616813163 99 83 57
-0.0008145393565599027 0.003805265410915054 -0.19264424202360197 77 64 39
-0.0011990721811370522 0.002896512505912996 -0.19418017310672617 64 53 31
-0.0006600392311297137 0.0038209520689959087 -0.19541578215720148 76 64 42
0.00012548135227442858 0.00523496401391918 -0.19656816243917963 84 69 47
0.00022408843765474307 0.005285038283810106 -0.19794854675721532 82 67 44
0.000678246307816821 0.00604119929628244 -0.199209906706394 88 74 53
0.0018644289937144592 0.008251687308447858 -0.20022037450026658 94 81 57
0.0013309140946227219 0.007045780564074969 -0.20181869822300688 98 83 57
0.0029447411275248317 0.010106617335088372 -0.20267542060023122 112 95 68
0.0023592494630932034 0.00879698916943561 -0.20429600242722892 128 110 82
0.003043898245172885 0.010011649582330237 -0.205472750529466 121 104 77
0.004689884300243197 0.013137828869976331 -0.2063043739704329 126 109 81
0.00422629614310429 0.012069970046829442 -0.2078872339871325 133 116 84
0.004368107647568585 0.012205627432878341 -0.20925525321364297 127 111 82
0.004400518202636372 0.012123552051549927 -0.21066449120131292 119 102 75
0.004644426992446493 0.012462044338321432 -0.2119975530970224 145 129 97
0.005394655244967628 0.013807918402182123 -0.21314284749864978 148 132 98
0.005941455477921846 0.014749219530056243 -0.21436192548723584 164 146 112
0.007268252934340455 0.01724312843253855 -0.2152848377107927 162 142 109
0.009692541643871136 0.021922409567056787 -0.21578343721766227 165 145 114
0.011121928354736417 0.024622164723885356 -0.21665149937754075 171 155 121
0.012950495074498164 0.028117500167167873 -0.21735828965236856 181 165 132
0.015510112216922604 0.03306975664343557 -0.21777059348901573 147 132 101
0.01714180183617481 0.03617504650593489 -0.21853425447477834 141 124 94
0.019060799497588276 0.039853551481920456 -0.21917602490167623 163 146 112
0.01992642885112068 0.04143415018419656 -0.2202288657897652 200 188 146
0.020674130585743095 0.04278007238807624 -0.22132588316221188 177 161 126
0.021641510428779175 0.04456412538370787 -0.22233119765232873 165 147 114
0.02266478653422075 0.04646001600049797 -0.22330971766223962 207 190 152
0.023277815210195004 0.04753837888130191 -0.22445291103649267 172 154 120
0.023597945489963284 0.04803283516843038 -0.2257158867678256 156 136 101
0.024182810061222592 0.04905529571027624 -0.22686823070618523 195 180 139
0.024734169090520224 0.05001108371053008 -0.22803309075432796 193 179 132
0.022180280099742652 0.044771641665645866 -0.2305141492527744 198 184 141
0.022607663206834067 0.045479330249128376 -0.2317388996212447 194 175 135
0.023056698225648348 0.0462302939075502 -0.23295371909738863 198 180 137
0.023425170757001935 0.046820523951632796 -0.2342027315762543 176 161 119
0.026625701876405946 0.05306475534103556 -0.23421442111556362 159 139 98
0.027703691491836404 0.055072674699196 -0.23514191162405404 180 162 117
0.02777444794015745 0.05506956836097084 -0.2365109845284176 173 158 119
0.027369344969687886 0.054115818253391304 -0.23809401738166766 107 91 58
0.0278961483168238 0.055023276473676545 -0.23926287697274662 111 95 62
0.028817296323859765 0.05671878119529673 -0.2402520221283548 108 91 65
0.02900543199896006 0.05694984474527091 -0.2415714539545783 114 94 70
0.02757893673461459 0.05395366464214114 -0.2436326725174062 172 154 120
0.02886674477173132 0.056382286388604035 -0.24445089279404697 204 186 145
0.029389205720745576 0.05728134090607365 -0.24561907409860795 164 145 107
0.029318763690257193 0.056994909218732265 -0.24706373034877915 134 117 84
0.029055621509131463 0.05632281495534547 -0.2486017952622695 142 125 94
0.027413879904191377 0.052892674157676386 -0.2507981413293521 165 148 114
0.02821553179845028 0.0543496407402213 -0.25183922985501517 175 157 123
0.028181313580444307 0.05413434906019974 -0.25327948578538173 169 150 118
0.0301678926416342 0.05796308342914509 -0.2537432816026221 180 162 129
0.030700772484355533 0.05888311239311315 -0.2549052247683167 207 189 152
0.031256553437671114 0.059849124290454025 -0.2560546167643875 215 197 157
0.03147823364142248 0.06014631172876813 -0.25736759077495724 229 211 172
0.03185806454688251 0.06076014848216866 -0.2586026170095752 231 216 177
0.03328451300777753 0.0634703742803652 -0.25931353914621474 236 222 180
0.03435194520450521 0.06546210952680409 -0.2601981924240289 232 218 180
0.036550017203738266 0.06971974238094095 -0.2605049242706493 218 203 165
0.037886122178100515 0.0722512595313034 -0.26123926201013564 192 173 143
0.039550971369311544 0.07544236057506858 -0.26179826405187334 196 177 143
0.039645231709247386 0.07548587617571333 -0.26315999570439313 226 211 170
0.040436810347117505 0.07692735207098059 -0.2641606845285318 236 224 187
0.03998800841267505 0.07588177777716569 -0.2658072464639425 233 219 183
0.04058541680345902 0.07693402588697468 -0.26690809822018974 232 218 179
0.041013556571986645 0.07764690574451846 -0.26809682506236426 242 229 194
0.04153966326163763 0.07855641038185947 -0.26923265653834727 226 213 176
0.042008072819508475 0.07935027242304366 -0.2703981025437504 236 223 183
0.04433910065119734 0.08388253015823352 -0.2705576448428572 240 227 188
0.044686195595517675 0.08443369908709517 -0.2717809147113733 227 209 172
0.04451163299368785 0.08393755760162706 -0.27328890987917237 221 202 166
0.04528613603084082 0.08534683178315249 -0.27427874543108854 238 224 184
0.04556830627058967 0.08576762640457017 -0.27553771987858816 245 231 192
0.04576466202806108 0.08601601694978075 -0.27684467564043996 235 218 181
0.04701622169621641 0.08838428453670422 -0.27756223637150423 230 213 171
0.0476382029920622 0.08948811492788959 -0.2786278735436944 231 217 177
0.04879696473668736 0.09167094067475724 -0.27938769846283595 233 220 184
0.04966341445995523 0.09326676971963607 -0.2803083680761461 220 202 161
0.050509969384201554 0.09482297696746458 -0.28123679158402326 229 214 171
0.051392920118134254 0.09645273030634299 -0.28214073666956757 235 222 180
0.05244087869005053 0.09841472207161331 -0.2829453194378412 240 224 184
0.05153510957552459 0.09644736698324333 -0.2848834487191071 238 223 185
0.05203785315089416 0.09731282224731794 -0.2860043381107786 242 230 192
0.05236690722893121 0.09782891398814485 -0.2872263734006853 241 227 190
0.05264182167934721 0.0982360560296181 -0.2884804391284047 239 224 184
0.05319057101735964 0.0991943553006335 -0.2895715621509737 234 219 179
0.05380881071153297 0.10029271174523322 -0.29061947896856966 234 219 178
0.05428436402160227 0.10110397072188951 -0.29175140289049395 236 221 181
0.05478201987205578 0.10195985091047027 -0.2928688692355439 238 224 182
0.05552587245614623 0.10331175636698442 -0.2938350254995648 239 224 182
0.05623825941903604 0.10460056877009145 -0.2948175881244488 241 226 183
0.05711995905138226 0.10623081310611408 -0.2956930967529016 241 226 183
0.05789520621930819 0.10764691971215809 -0.2966307566887043 235 220 177
0.05844844844109129 0.10861586388868401 -0.2977036717493856 242 225 181
0.058423214913311 0.10841876605204141 -0.29913751434800634 234 217 172
0.05854212736364102 0.10851207561377262 -0.30048287238616667 242 226 182
0.058742518146831596 0.10876956252835546 -0.3017779728211865 241 227 181
0.059248246207182824 0.10964285030658151 -0.302879383298711 245 231 186
0.0597535309979144 0.1105153768549806 -0.30397978761306527 247 232 188
0.059843824096660184 0.11055067809114638 -0.3053461041084321 240 227 182
0.060931181504919774 0.11259801983885384 -0.30606856819536443 240 225 180
0.061740545157264126 0.11408478392109166 -0.30696662941471897 233 214 170
0.06225602317271051 0.11497859095573203 -0.3080535573720331 215 195 151
0.06290146280865237 0.11613495790945647 -0.3090536345622905 210 189 143
0.0637606369224106 0.11772320849629637 -0.30991011692353376 220 202 156
0.0641823307305081 0.11842817569075605 -0.31105359719263553 219 201 155
0.0646712228305317 0.11926897744931379 -0.3121514462393079 197 176 129
0.06518743945370908 0.12016511621760495 -0.3132297392718489 192 171 127
0.06563675659971918 0.12092619588001516 -0.31435179814040026 187 166 124
0.06562843665949591 0.12076232606723344 -0.3157834755920048 199 179 133
0.06536441229725311 0.12008126115042156 -0.317391839104964 212 195 151
0.06552768549863484 0.12026380440717878 -0.31871131244062634 197 179 133
0.06603764951935594 0.12114739715787487 -0.31979294958590043 190 174 124
0.06718186459303001 0.12331409340366581 -0.3204339176559428 180 162 122
0.06775995338743959 0.12433602523703027 -0.32146316828852495 150 129 96
0.06833495327833497 0.1253518975491849 -0.3224927283833602 152 129 94
0.06859448019622111 0.12572947577209007 -0.3237423039061428 161 140 100
0.06901275498584743 0.12642835975059152 -0.32488007653366546 161 145 103
0.06889700345686785 0.12604611710280453 -0.3263964466771855 138 120 81
0.06934998871735519 0.1268152444869003 -0.3275098762315098 149 128 89
0.0689326487179151 0.12582175425849612 -0.32924672111539705 167 145 105
0.06946977095088804 0.12676120186646003 -0.3303006332879725 149 129 92
0.06971059883463847 0.12710049274535173 -0.3315676498021883 138 118 89
0.06993436707872809 0.12740515758955706 -0.332847624801908 130 113 85
0.07063072686077428 0.12866761651077943 -0.33378246086399477 132 115 85
0.07111582287027873 0.129502083000537 -0.3348699110698136 134 118 88
0.07166527710135125 0.1304671656052077 -0.33590859202310364 120 104 74
0.07244802138338212 0.1319055197803498 -0.3367723779113069 113 96 68
0.07272022080083794 0.13230867727532367 -0.33801370603150316 121 105 79
0.07287564063850265 0.1324748940966527 -0.33934289210411966 118 101 75
0.07298094591813074 0.1325393066745561 -0.3407109837616653 109 93 67
0.0733601237572565 0.13315936744806722 -0.34187329469272365 101 86 62
0.07343463466547286 0.1331610621283923 -0.3432668569555522 91 77 57
0.07362691102563287 0.13340166119340216 -0.34457217429282977 88 75 57
0.07291421775347541 0.1318045798688087 -0.3465732364317432 87 74 57
0.07367241114344704 0.1331939904676652 -0.347447064764216 77 64 48
0.07489630149394483 0.1355297053702396 -0.34795670707991844 72 59 43
0.07554201256432695 0.13669142870658874 -0.3489099774900549 70 55 40
0.07580200692981337 0.1370696026702008 -0.3501626215262821 69 54 38
0.0758538852812517 0.13702475251781124 -0.35157926588623317 66 51 35
0.07573186480291114 0.13662619898959705 -0.35313518035753116 64 49 33
0.0758176614703897 0.13664984624769955 -0.3545294231106549 61 47 32
0.07601757547847404 0.13690538483964704 -0.35583439511448983 54 40 27
0.07609294847066743 0.13690752454186889 -0.35723995532233044 51 36 25
0.07609660888065363 0.13676359351633352 -0.35870498587954586 53 37 27
0.07699906197356687 0.13844821194024215 -0.3594459298292575 56 40 30
0.07726660744236749 0.1388411788554761 -0.36069801222388376 58 44 33
0.07768489817942571 0.13954094783092066 -0.3618275044204117 63 50 39
0.07798717950890285 0.14000461579552131 -0.3630512862266347 64 54 44
0.07818993508688178 0.14026561411077312 -0.36435708489413093 64 55 44
0.0783853215482736 0.1405115171652423 -0.36566982062929393 63 54 44
0.07858077702472929 0.1407574678437419 -0.3669834005295238 62 53 43
0.078814537557232 0.14108136827344758 -0.3682659270974586 65 56 45
0.07964970221050195 0.14263074067146683 -0.3690450890549974 72 63 53
0.07986915842271401 0.1429255915075475 -0.37033863675872036 80 70 60
0.08004184416140203 0.14312502289691023 -0.3716724551241081 87 77 65
0.08022279304946507 0.14334119118727862 -0.37300033480413797 92 82 70
0.08038652327622205 0.14352213960480145 -0.3743439224600698 97 87 75
0.08055252237748894 0.14370759712897996 -0.37568671801529646 101 91 78
0.08070029542759043 0.14385575396695813 -0.37704633692571465 104 94 82
0.08089066708011422 0.14409070198961033 -0.3783704114821554 111 104 90
0.07899223981259133 0.1400625111149707 -0.38150896196651324 116 109 96
