ply
format ascii 1.0
element vertex 828
property float x
property float y
property float z
property float nx
property float ny
property float nz
property uchar diffuse_red
property uchar diffuse_green
property uchar diffuse_blue
property uchar class
property uchar detection
end_header
-0.1555 -0.0732 -0.6997 -0.591 -0.571 0.570 30 25 18 0 0
-0.1561 -0.0739 -0.7010 -0.484 -0.531 0.695 32 25 18 0 0
-0.1739 -0.1046 -0.7093 0.134 -0.784 0.606 110 97 75 0 0
-0.1744 -0.0950 -0.7834 -0.319 -0.390 0.864 51 37 20 0 0
-0.1783 -0.0999 -0.7974 -0.501 -0.392 0.771 93 77 49 0 0
-0.1909 -0.1184 -0.8250 -0.263 -0.882 0.392 98 80 54 0 0
-0.1912 -0.1189 -0.8267 -0.363 -0.795 0.486 99 81 55 0 0
-0.1917 -0.1195 -0.8281 -0.435 -0.836 0.333 79 61 36 0 0
-0.1921 -0.1199 -0.8298 -0.499 -0.777 0.383 72 54 30 0 0
-0.1948 -0.1235 -0.8387 -0.546 -0.786 0.291 108 92 65 0 0
-0.1965 -0.1250 -0.8497 -0.299 -0.838 0.457 104 89 57 0 0
-0.0791 0.0006 -0.2361 -0.661 -0.054 0.749 177 177 179 0 0
-0.1002 -0.0320 -0.2732 -0.525 -0.772 0.359 52 39 22 0 0
-0.1186 -0.0557 -0.3365 -0.284 -0.905 0.317 46 38 27 0 0
-0.1206 -0.0574 -0.3501 -0.554 -0.793 0.254 34 27 17 0 0
-0.1204 -0.0566 -0.3536 -0.196 -0.950 0.244 55 46 37 0 0
-0.1207 -0.0569 -0.3550 -0.196 -0.950 0.244 50 41 32 0 0
-0.1206 -0.0565 -0.3568 -0.272 -0.958 -0.095 37 29 21 0 0
-0.1437 -0.0830 -0.4602 -0.767 -0.328 0.551 118 108 97 0 0
-0.1441 -0.0834 -0.4617 -0.841 -0.534 0.090 116 104 93 0 0
-0.1584 -0.1024 -0.5083 -0.679 -0.364 0.638 87 70 46 0 0
-0.1597 -0.1041 -0.5124 -0.656 -0.495 0.570 91 72 41 0 0
-0.1632 -0.1091 -0.5212 -0.509 -0.737 0.444 98 82 56 0 0
-0.1691 -0.1145 -0.5575 -0.443 -0.779 0.443 110 94 66 0 0
-0.1688 -0.1067 -0.6073 -0.255 -0.952 -0.169 112 98 72 0 0
-0.1673 -0.1026 -0.6176 -0.579 -0.683 -0.445 85 70 46 0 0
-0.1543 -0.0685 -0.6927 -0.535 -0.727 0.431 11 10 8 0 0
-0.1548 -0.0692 -0.6942 -0.284 -0.924 0.255 11 10 8 0 0
-0.1562 -0.0711 -0.6986 -0.616 -0.701 0.361 19 15 11 0 0
-0.1587 -0.0746 -0.7056 -0.702 -0.589 0.401 33 26 18 0 0
-0.1593 -0.0755 -0.7069 -0.553 -0.631 0.544 44 37 28 0 0
-0.1745 -0.1024 -0.7083 -0.212 -0.376 0.902 102 92 73 0 0
-0.1752 -0.1035 -0.7093 -0.183 -0.604 0.776 93 82 62 0 0
-0.1847 -0.1184 -0.7238 -0.474 -0.818 0.327 137 116 73 0 0
-0.1743 -0.0915 -0.7817 -0.426 -0.699 0.574 82 69 45 0 0
-0.1781 -0.0974 -0.7885 -0.331 -0.772 0.543 81 66 40 0 0
-0.1796 -0.0995 -0.7928 -0.255 -0.702 0.664 82 66 41 0 0
-0.1925 -0.1179 -0.8246 -0.222 -0.654 0.723 96 77 49 0 0
-0.1931 -0.1185 -0.8282 -0.499 -0.777 0.383 87 70 44 0 0
-0.1935 -0.1190 -0.8298 -0.499 -0.777 0.383 79 62 36 0 0
-0.1955 -0.1218 -0.8352 -0.656 -0.659 0.368 73 53 26 0 0
-0.1959 -0.1223 -0.8368 -0.656 -0.659 0.368 76 57 29 0 0
-0.1976 -0.1245 -0.8429 -0.514 -0.765 0.388 108 89 55 0 0
-0.1978 -0.1245 -0.8451 -0.363 -0.813 0.455 117 98 63 0 0
-0.1018 -0.0315 -0.2746 -0.512 -0.783 0.353 90 77 58 0 0
-0.1157 -0.0501 -0.3179 -0.507 -0.738 0.445 57 51 36 0 0
-0.1164 -0.0512 -0.3191 -0.588 -0.752 0.297 48 39 25 0 0
-0.1224 -0.0578 -0.3479 -0.488 -0.873 0.006 29 22 15 0 0
-0.1217 -0.0555 -0.3552 -0.642 -0.766 -0.034 40 33 24 0 0
-0.1218 -0.0554 -0.3568 -0.642 -0.766 -0.034 32 25 17 0 0
-0.1214 -0.0537 -0.3639 -0.572 -0.761 0.307 20 13 8 0 0
-0.1214 -0.0535 -0.3656 -0.401 -0.884 0.242 28 21 13 0 0
-0.1703 -0.1117 -0.5692 -0.575 -0.811 0.112 116 100 75 0 0
-0.1695 -0.1066 -0.5941 -0.455 -0.816 0.357 78 57 35 0 0
-0.1704 -0.1068 -0.6048 -0.255 -0.952 -0.169 110 96 69 0 0
-0.1704 -0.1064 -0.6069 -0.255 -0.952 -0.169 100 86 60 0 0
-0.1678 -0.1000 -0.6188 -0.717 -0.567 -0.405 76 61 36 0 0
-0.1584 -0.0771 -0.6602 0.073 -0.875 -0.479 13 11 9 0 0
-0.1561 -0.0703 -0.6788 0.124 -0.953 0.277 20 18 13 0 0
-0.1561 -0.0701 -0.6810 0.011 -0.993 0.119 27 24 19 0 0
-0.1574 -0.0713 -0.6878 -0.449 -0.891 -0.070 11 10 8 0 0
-0.1557 -0.0675 -0.6927 -0.535 -0.727 0.431 11 10 8 0 0
-0.1564 -0.0686 -0.6939 -0.284 -0.924 0.255 11 10 8 0 0
-0.1581 -0.0708 -0.7000 -0.571 -0.654 0.497 31 25 15 0 0
-0.1586 -0.0716 -0.7013 -0.591 -0.571 0.570 40 33 23 0 0
-0.1600 -0.0735 -0.7057 -0.591 -0.677 0.438 32 25 17 0 0
-0.1767 -0.1030 -0.7089 -0.019 -0.597 0.802 93 83 65 0 0
-0.1845 -0.1158 -0.7175 -0.350 -0.866 0.357 78 59 31 0 0
-0.1886 -0.1098 -0.8088 -0.530 -0.617 0.582 74 59 37 0 0
-0.1891 -0.1105 -0.8102 -0.465 -0.726 0.507 74 59 34 0 0
-0.1894 -0.1108 -0.8120 -0.519 -0.714 0.471 99 85 59 0 0
-0.1948 -0.1182 -0.8275 -0.440 -0.820 0.367 81 62 35 0 0
-0.1952 -0.1184 -0.8315 -0.446 -0.869 0.216 98 79 49 0 0
-0.1955 -0.1186 -0.8333 -0.549 -0.756 0.356 82 62 33 0 0
-0.1967 -0.1205 -0.8356 -0.505 -0.724 0.470 79 60 32 0 0
-0.1972 -0.1212 -0.8369 -0.475 -0.790 0.387 85 65 38 0 0
-0.1983 -0.1223 -0.8421 -0.546 -0.786 0.291 90 71 40 0 0
-0.1688 -0.1107 -0.5362 -0.448 -0.792 0.414 45 31 18 0 0
-0.1691 -0.1110 -0.5377 -0.484 -0.810 0.332 61 48 34 0 0
-0.1719 -0.1075 -0.5965 -0.152 -0.958 0.241 97 80 52 0 0
-0.1688 -0.0984 -0.6193 -0.717 -0.567 -0.405 65 50 28 0 0
-0.1577 -0.0698 -0.6785 -0.086 -0.996 0.040 16 15 10 0 0
-0.1579 -0.0698 -0.6804 -0.020 -1.000 -0.023 23 21 16 0 0
-0.1587 -0.0690 -0.6967 -0.389 -0.901 0.195 16 15 11 0 0
-0.1588 -0.0687 -0.6989 -0.610 -0.705 0.363 27 23 18 0 0
-0.1594 -0.0696 -0.7002 -0.514 -0.711 0.480 42 36 28 0 0
-0.1599 -0.0703 -0.7015 -0.393 -0.609 0.689 46 39 30 0 0
-0.1772 -0.1005 -0.7083 -0.393 -0.373 0.841 81 72 57 0 0
-0.1868 -0.1158 -0.7225 -0.453 -0.868 0.202 130 108 68 0 0
-0.1868 -0.1151 -0.7270 -0.543 -0.829 -0.135 127 108 66 0 0
-0.1864 -0.1140 -0.7299 -0.350 -0.877 -0.328 129 111 73 0 0
-0.1905 -0.1096 -0.8102 -0.465 -0.726 0.507 78 63 41 0 0
-0.1938 -0.1143 -0.8180 -0.541 -0.745 0.390 75 60 35 0 0
-0.1945 -0.1155 -0.8188 -0.397 -0.726 0.562 80 63 42 0 0
-0.1959 -0.1171 -0.8256 -0.365 -0.887 0.282 70 50 27 0 0
-0.1969 -0.1176 -0.8333 -0.559 -0.752 0.348 105 85 53 0 0
-0.1987 -0.1204 -0.8368 -0.441 -0.781 0.443 78 58 30 0 0
-0.1991 -0.1209 -0.8383 -0.479 -0.829 0.290 83 59 33 0 0
-0.1997 -0.1215 -0.8419 -0.464 -0.824 0.325 103 83 53 0 0
-0.0864 -0.0031 -0.2359 -0.648 -0.575 -0.500 177 177 179 0 0
-0.1245 -0.0552 -0.3498 -0.303 -0.946 0.118 46 39 28 0 0
-0.1247 -0.0544 -0.3564 -0.609 -0.793 0.004 32 25 17 0 0
-0.1246 -0.0540 -0.3582 -0.606 -0.780 -0.158 30 23 15 0 0
-0.1240 -0.0526 -0.3603 -0.553 -0.809 -0.197 31 24 16 0 0
-0.1727 -0.1043 -0.6052 -0.522 -0.850 -0.070 98 83 55 0 0
-0.1707 -0.0989 -0.6164 -0.431 -0.752 -0.499 77 61 34 0 0
-0.1593 -0.0669 -0.6936 -0.278 -0.873 0.400 9 8 6 0 0
-0.1606 -0.0683 -0.7004 -0.291 -0.880 0.376 26 23 16 0 0
-0.1614 -0.0695 -0.7014 -0.359 -0.646 0.674 31 26 20 0 0
-0.1883 -0.1151 -0.7222 -0.369 -0.922 0.116 117 97 55 0 0
-0.1881 -0.1141 -0.7270 -0.595 -0.799 -0.087 121 102 62 0 0
-0.1878 -0.1131 -0.7298 -0.672 -0.643 -0.367 120 103 69 0 0
-0.1871 -0.1113 -0.7334 -0.545 -0.686 -0.482 103 88 60 0 0
-0.1858 -0.1076 -0.7425 -0.393 -0.919 -0.027 147 127 92 0 0
-0.1859 -0.1075 -0.7445 -0.393 -0.919 -0.027 119 103 71 0 0
-0.1855 -0.1063 -0.7476 -0.518 -0.846 -0.130 103 89 58 0 0
-0.1907 -0.1071 -0.8054 -0.537 -0.722 0.436 79 67 43 0 0
-0.1911 -0.1077 -0.8069 -0.537 -0.722 0.436 90 76 53 0 0
-0.1960 -0.1147 -0.8186 -0.584 -0.698 0.414 83 69 46 0 0
-0.1964 -0.1153 -0.8202 -0.398 -0.699 0.594 80 64 41 0 0
-0.2001 -0.1195 -0.8367 -0.441 -0.781 0.443 75 58 30 0 0
-0.0863 0.0020 -0.2477 -0.506 -0.855 0.114 171 167 165 0 0
-0.1040 -0.0266 -0.2705 -0.457 -0.844 0.281 156 137 105 0 0
-0.1242 -0.0537 -0.3342 -0.703 -0.623 0.343 44 33 26 0 0
-0.1262 -0.0542 -0.3545 -0.376 -0.884 -0.277 35 28 19 0 0
-0.1257 -0.0508 -0.3719 -0.381 -0.791 0.478 34 25 15 0 0
-0.1745 -0.1098 -0.5687 -0.427 -0.892 0.146 69 58 43 0 0
-0.1740 -0.1033 -0.6052 -0.580 -0.813 -0.050 109 90 57 0 0
-0.1740 -0.1030 -0.6073 -0.569 -0.794 -0.216 111 93 58 0 0
-0.1722 -0.0985 -0.6160 -0.316 -0.839 -0.442 88 73 46 0 0
-0.1617 -0.0680 -0.6919 -0.579 -0.815 0.018 9 8 6 0 0
-0.1612 -0.0663 -0.6972 -0.726 -0.564 0.393 11 9 7 0 0
-0.1617 -0.0671 -0.6985 -0.664 -0.745 0.068 15 11 10 0 0
-0.1624 -0.0681 -0.6997 -0.358 -0.756 0.547 21 16 15 0 0
-0.1629 -0.0688 -0.7011 -0.267 -0.799 0.539 24 20 18 0 0
-0.1756 -0.0908 -0.7089 -0.410 -0.042 0.911 55 47 39 0 0
-0.1897 -0.1140 -0.7243 -0.558 -0.828 0.043 132 109 68 0 0
-0.1893 -0.1124 -0.7296 -0.344 -0.877 -0.335 108 90 57 0 0
-0.1890 -0.1116 -0.7323 -0.328 -0.824 -0.462 112 97 67 0 0
-0.1872 -0.1063 -0.7448 -0.001 -0.971 -0.240 111 96 66 0 0
-0.1856 -0.1028 -0.7499 -0.630 -0.720 -0.291 103 88 60 0 0
-0.1845 -0.0996 -0.7566 -0.399 -0.734 -0.549 62 53 33 0 0
-0.1815 -0.0923 -0.7692 -0.355 -0.803 -0.479 77 65 41 0 0
-0.1802 -0.0889 -0.7763 -0.472 -0.807 -0.356 90 76 49 0 0
-0.1800 -0.0878 -0.7814 -0.345 -0.827 0.445 77 62 37 0 0
-0.1926 -0.1068 -0.8068 -0.446 -0.758 0.477 83 68 44 0 0
-0.1973 -0.1137 -0.8187 -0.584 -0.698 0.414 85 71 47 0 0
-0.1978 -0.1144 -0.8201 -0.398 -0.699 0.594 88 72 49 0 0
-0.1983 -0.1151 -0.8215 -0.507 -0.582 0.636 79 62 40 0 0
-0.1989 -0.1160 -0.8227 -0.169 -0.889 0.425 73 56 34 0 0
-0.1996 -0.1156 -0.8334 -0.549 -0.756 0.356 106 86 52 0 0
-0.2016 -0.1188 -0.8365 -0.461 -0.810 0.362 78 63 33 0 0
-0.2043 -0.1211 -0.8528 -0.699 -0.576 0.424 107 92 59 0 0
-0.1064 -0.0273 -0.2746 -0.681 -0.676 0.282 58 48 37 0 0
-0.1119 -0.0352 -0.2875 -0.560 -0.775 0.293 204 192 162 0 0
-0.1271 -0.0519 -0.3598 -0.494 -0.868 0.055 34 27 17 0 0
-0.1269 -0.0499 -0.3719 -0.544 -0.748 0.381 33 24 17 0 0
-0.1340 -0.0523 -0.4399 -0.524 0.050 0.850 30 24 20 0 0
-0.1362 -0.0562 -0.4413 -0.641 -0.010 0.767 46 38 31 0 0
-0.1463 -0.0716 -0.4604 -0.936 -0.352 -0.021 43 36 28 0 0
-0.1528 -0.0782 -0.4958 -0.737 -0.150 0.659 102 94 76 0 0
-0.1723 -0.1060 -0.5461 -0.491 -0.692 0.530 74 59 41 0 0
-0.1731 -0.1071 -0.5489 -0.370 -0.901 0.227 74 59 36 0 0
-0.1742 -0.1084 -0.5532 -0.700 -0.704 0.122 56 42 23 0 0
-0.1758 -0.1040 -0.6005 -0.645 -0.750 0.149 120 101 67 0 0
-0.1760 -0.1042 -0.6021 -0.611 -0.791 0.031 112 93 60 0 0
-0.1754 -0.1027 -0.6050 -0.312 -0.947 -0.070 109 91 57 0 0
-0.1752 -0.1015 -0.6095 -0.249 -0.865 -0.436 95 80 46 0 0
-0.1639 -0.0708 -0.6773 0.080 -0.969 -0.233 14 13 9 0 0
-0.1638 -0.0702 -0.6797 0.080 -0.969 -0.233 18 17 13 0 0
-0.1907 -0.1133 -0.7183 -0.485 -0.774 0.407 84 65 38 0 0
-0.1911 -0.1138 -0.7198 -0.472 -0.882 -0.011 86 65 31 0 0
-0.1912 -0.1134 -0.7240 -0.551 -0.832 -0.066 141 119 76 0 0
-0.1903 -0.1105 -0.7324 -0.348 -0.844 -0.408 113 98 67 0 0
-0.1875 -0.1028 -0.7490 -0.544 -0.729 -0.415 97 80 54 0 0
-0.1865 -0.1004 -0.7531 -0.412 -0.762 -0.499 81 67 45 0 0
-0.1831 -0.0919 -0.7687 -0.355 -0.803 -0.479 67 55 32 0 0
-0.1817 -0.0881 -0.7761 -0.472 -0.807 -0.356 74 61 35 0 0
-0.1918 -0.1026 -0.8016 -0.333 -0.871 0.362 89 73 41 0 0
-0.2013 -0.1159 -0.8279 -0.249 -0.948 0.195 76 56 29 0 0
-0.0880 0.0050 -0.2448 -0.581 -0.809 -0.090 177 177 179 0 0
-0.1172 -0.0400 -0.2995 -0.499 -0.718 0.484 91 79 58 0 0
-0.1216 -0.0457 -0.3146 -0.464 -0.845 0.268 85 76 61 0 0
-0.1259 -0.0507 -0.3330 -0.636 -0.620 0.459 42 32 23 0 0
-0.1268 -0.0473 -0.3661 -0.395 -0.852 0.343 39 32 21 0 0
-0.1749 -0.1068 -0.5501 -0.323 -0.923 0.207 63 47 25 0 0
-0.1758 -0.1081 -0.5528 -0.669 -0.735 0.110 90 76 53 0 0
-0.1757 -0.1076 -0.5549 -0.485 -0.768 0.418 79 63 40 0 0
-0.1764 -0.1042 -0.5854 -0.624 -0.658 0.422 101 83 59 0 0
-0.1661 -0.0680 -0.6982 -0.037 -0.981 0.191 17 13 10 0 0
-0.1661 -0.0677 -0.7004 -0.004 -0.836 0.548 17 13 9 0 0
-0.1783 -0.0889 -0.7089 -0.275 -0.314 0.909 55 49 37 0 0
-0.1921 -0.1124 -0.7182 -0.485 -0.774 0.407 86 68 37 0 0
-0.1924 -0.1128 -0.7199 -0.443 -0.849 0.288 87 67 31 0 0
-0.1915 -0.1096 -0.7304 -0.228 -0.966 -0.119 127 109 76 0 0
-0.1915 -0.1093 -0.7326 -0.229 -0.935 -0.270 110 95 64 0 0
-0.1913 -0.1084 -0.7353 -0.362 -0.881 -0.303 113 96 62 0 0
-0.1910 -0.1071 -0.7404 -0.267 -0.962 0.055 105 90 58 0 0
-0.1837 -0.0888 -0.7726 -0.498 -0.740 -0.452 69 57 33 0 0
-0.1832 -0.0874 -0.7758 -0.623 -0.708 -0.333 64 52 29 0 0
-0.1933 -0.1019 -0.8013 -0.333 -0.871 0.362 74 59 33 0 0
-0.1980 -0.1090 -0.8111 -0.539 -0.636 0.552 101 87 59 0 0
-0.1985 -0.1097 -0.8124 -0.523 -0.656 0.544 92 79 50 0 0
-0.2083 -0.1203 -0.8601 -0.396 -0.723 0.566 64 58 46 0 0
-0.1067 -0.0222 -0.2693 -0.651 -0.527 0.546 136 118 89 0 0
-0.1151 -0.0341 -0.2918 -0.496 -0.814 0.302 185 168 143 0 0
-0.1195 -0.0405 -0.3021 -0.349 -0.786 0.511 131 122 94 0 0
-0.1265 -0.0488 -0.3318 -0.639 -0.769 -0.005 44 35 27 0 0
-0.1299 -0.0539 -0.3393 -0.393 -0.855 0.338 164 155 140 0 0
-0.1289 -0.0470 -0.3722 -0.633 -0.732 0.252 45 36 28 0 0
-0.1742 -0.1037 -0.5412 -0.382 -0.851 0.359 75 60 38 0 0
-0.1767 -0.1070 -0.5494 -0.549 -0.788 0.277 96 81 57 0 0
-0.1805 -0.0892 -0.7097 -0.060 -0.053 0.997 55 48 39 0 0
-0.1936 -0.1116 -0.7201 -0.503 -0.719 0.481 90 70 33 0 0
-0.1929 -0.1079 -0.7349 -0.257 -0.918 -0.302 124 108 75 0 0
-0.1923 -0.1064 -0.7382 -0.396 -0.915 0.078 120 104 71 0 0
-0.1925 -0.1066 -0.7400 -0.377 -0.905 0.199 108 94 62 0 0
-0.1876 -0.0944 -0.7607 -0.490 -0.725 -0.484 48 41 26 0 0
-0.1859 -0.0900 -0.7686 -0.502 -0.720 -0.479 83 72 44 0 0
-0.1861 -0.0881 -0.7825 -0.272 -0.788 0.552 50 37 21 0 0
-0.1966 -0.1040 -0.8046 -0.367 -0.820 0.439 78 64 39 0 0
-0.1972 -0.1048 -0.8059 -0.379 -0.769 0.514 84 70 43 0 0
-0.1999 -0.1088 -0.8123 -0.443 -0.723 0.531 92 77 48 0 0
-0.2008 -0.1101 -0.8152 -0.588 -0.755 0.290 101 85 55 0 0
-0.2097 -0.1194 -0.8601 -0.474 -0.648 0.596 65 60 47 0 0
-0.1098 -0.0239 -0.2747 -0.680 -0.530 0.507 57 47 35 0 0
-0.1103 -0.0246 -0.2760 -0.680 -0.530 0.507 57 47 33 0 0
-0.1108 -0.0252 -0.2773 -0.680 -0.530 0.507 41 32 17 0 0
-0.1301 -0.0459 -0.3723 -0.731 -0.654 0.196 48 40 30 0 0
-0.1794 -0.1078 -0.5552 -0.293 -0.886 0.359 87 76 49 0 0
-0.1789 -0.1038 -0.5755 -0.544 -0.819 -0.182 69 59 46 0 0
-0.1789 -0.1028 -0.5814 -0.449 -0.808 0.381 62 49 31 0 0
-0.1797 -0.1005 -0.6064 -0.692 -0.693 -0.201 109 89 53 0 0
-0.1916 -0.1056 -0.7127 -0.241 -0.638 0.731 152 134 101 0 0
-0.1929 -0.1077 -0.7148 -0.438 -0.586 0.681 159 138 88 0 0
-0.1950 -0.1107 -0.7200 -0.475 -0.559 0.680 100 82 43 0 0
-0.1943 -0.1068 -0.7370 0.078 -0.997 -0.011 116 99 67 0 0
-0.1945 -0.1068 -0.7389 -0.090 -0.995 0.037 106 93 60 0 0
-0.1873 -0.0891 -0.7685 -0.502 -0.720 -0.479 85 72 41 0 0
-0.1867 -0.0873 -0.7722 -0.452 -0.764 -0.460 82 69 39 0 0
-0.1875 -0.0872 -0.7824 -0.454 -0.659 0.600 52 38 21 0 0
-0.2022 -0.1091 -0.8152 -0.588 -0.755 0.290 98 82 51 0 0
-0.2079 -0.1142 -0.8497 -0.793 -0.288 0.537 91 77 42 0 0
-0.2080 -0.1139 -0.8520 -0.800 -0.576 0.167 105 91 57 0 0
-0.2101 -0.1170 -0.8573 -0.595 -0.795 0.119 64 57 40 0 0
-0.2111 -0.1184 -0.8601 -0.474 -0.648 0.596 67 63 48 0 0
-0.1093 -0.0207 -0.2692 -0.474 -0.609 0.636 83 69 48 0 0
-0.1103 -0.0217 -0.2750 -0.782 -0.551 0.293 41 31 21 0 0
-0.1107 -0.0220 -0.2765 -0.782 -0.551 0.293 37 27 15 0 0
-0.1165 -0.0310 -0.2875 -0.501 -0.800 0.331 144 128 95 0 0
-0.1333 -0.0513 -0.3553 -0.561 -0.800 -0.215 47 40 28 0 0
-0.1311 -0.0392 -0.4058 -0.506 -0.851 0.145 37 26 17 0 0
-0.1324 -0.0358 -0.4426 -0.357 -0.934 0.004 35 29 26 0 0
-0.1322 -0.0351 -0.4447 -0.488 -0.872 -0.032 32 27 24 0 0
-0.1812 -0.1077 -0.5564 -0.284 -0.815 0.505 79 64 41 0 0
-0.1802 -0.1020 -0.5813 -0.449 -0.808 0.381 54 41 25 0 0
-0.1811 -0.0998 -0.6062 -0.539 -0.812 -0.225 107 88 52 0 0
-0.1809 -0.0986 -0.6107 -0.612 -0.716 -0.334 96 79 47 0 0
-0.1918 -0.0959 -0.7556 -0.332 -0.831 -0.446 92 80 55 0 0
-0.1891 -0.0889 -0.7678 -0.462 -0.753 -0.469 86 71 41 0 0
-0.1910 -0.0892 -0.7879 -0.298 -0.764 0.573 71 57 30 0 0
-0.1927 -0.0917 -0.7917 -0.454 -0.776 0.438 90 75 43 0 0
-0.2114 -0.1159 -0.8573 -0.580 -0.790 0.201 64 58 42 0 0
-0.2124 -0.1174 -0.8601 -0.474 -0.648 0.596 66 63 49 0 0
-0.1114 -0.0204 -0.2751 -0.813 -0.530 0.241 43 32 23 0 0
-0.1342 -0.0492 -0.3589 -0.571 -0.820 -0.047 47 39 29 0 0
-0.1816 -0.1020 -0.5772 -0.326 -0.943 -0.066 57 46 25 0 0
-0.1825 -0.1015 -0.5900 -0.339 -0.878 0.339 93 79 51 0 0
-0.1828 -0.1018 -0.5915 -0.084 -0.926 0.367 101 88 57 0 0
-0.1923 -0.1002 -0.7117 -0.416 -0.418 0.808 110 96 63 0 0
-0.1986 -0.1097 -0.7250 -0.383 -0.918 0.101 122 104 70 0 0
-0.1992 -0.1097 -0.7328 -0.189 -0.978 -0.089 149 130 96 0 0
-0.1983 -0.1073 -0.7368 -0.269 -0.948 -0.170 116 101 72 0 0
-0.1930 -0.0892 -0.7890 -0.378 -0.730 0.569 78 64 35 0 0
-0.1935 -0.0899 -0.7904 -0.436 -0.763 0.477 82 67 36 0 0
-0.1939 -0.0905 -0.7919 -0.436 -0.763 0.477 91 75 42 0 0
-0.1946 -0.0915 -0.7930 -0.545 -0.603 0.583 99 83 50 0 0
-0.1964 -0.0943 -0.7966 -0.519 -0.580 0.628 86 69 37 0 0
-0.2010 -0.1016 -0.8041 -0.531 -0.651 0.542 82 68 42 0 0
-0.2021 -0.1033 -0.8066 -0.591 -0.612 0.526 72 58 30 0 0
-0.2128 -0.1149 -0.8574 -0.580 -0.790 0.201 62 57 42 0 0
-0.2134 -0.1153 -0.8612 -0.668 -0.735 0.119 69 65 51 0 0
-0.1234 -0.0355 -0.2993 -0.445 -0.751 0.489 119 105 87 0 0
-0.1249 -0.0376 -0.3032 -0.450 -0.721 0.528 73 58 33 0 0
-0.1277 -0.0411 -0.3144 -0.651 -0.705 0.282 55 43 28 0 0
-0.1356 -0.0486 -0.3588 -0.616 -0.778 -0.123 53 45 31 0 0
-0.1356 -0.0482 -0.3605 -0.509 -0.845 -0.165 60 52 38 0 0
-0.1322 -0.0384 -0.3822 -0.564 -0.805 0.184 24 14 12 0 0
-0.1323 -0.0385 -0.3839 -0.545 -0.800 0.249 24 15 12 0 0
-0.1326 -0.0387 -0.3854 -0.611 -0.769 0.189 31 20 14 0 0
-0.1328 -0.0389 -0.3870 -0.611 -0.769 0.189 45 32 21 0 0
-0.1332 -0.0386 -0.3936 -0.527 -0.845 0.095 66 49 34 0 0
-0.1343 -0.0386 -0.4052 -0.699 -0.663 0.267 81 64 46 0 0
-0.1346 -0.0372 -0.4174 -0.600 -0.775 -0.198 74 58 39 0 0
-0.1338 -0.0312 -0.4456 -0.152 -0.937 -0.315 41 34 27 0 0
-0.1850 -0.0976 -0.6228 0.176 -0.934 0.311 109 95 64 0 0
-0.1849 -0.0970 -0.6251 -0.136 -0.863 0.487 108 94 64 0 0
-0.1854 -0.0977 -0.6264 -0.136 -0.863 0.487 99 85 57 0 0
-0.1848 -0.0962 -0.6293 0.045 -0.978 0.203 91 78 52 0 0
-0.1845 -0.0951 -0.6319 0.066 -0.994 -0.087 90 78 54 0 0
-0.1845 -0.0950 -0.6339 0.066 -0.994 -0.087 77 66 45 0 0
-0.1844 -0.0943 -0.6363 0.190 -0.963 -0.193 65 54 33 0 0
-0.1926 -0.0975 -0.7113 -0.411 -0.356 0.839 99 85 59 0 0
-0.1934 -0.0987 -0.7122 -0.484 -0.409 0.773 113 96 64 0 0
-0.2000 -0.1089 -0.7249 -0.486 -0.862 0.145 106 90 58 0 0
-0.2002 -0.1090 -0.7267 -0.486 -0.862 0.145 95 82 48 0 0
-0.2006 -0.1092 -0.7305 -0.345 -0.938 0.012 152 132 90 0 0
-0.2009 -0.1094 -0.7322 -0.189 -0.978 -0.089 143 125 89 0 0
-0.1893 -0.0807 -0.7774 -0.571 -0.637 0.518 92 77 48 0 0
-0.1906 -0.0828 -0.7796 -0.236 -0.764 0.601 72 56 36 0 0
-0.1939 -0.0883 -0.7828 -0.384 -0.773 0.505 59 44 22 0 0
-0.1950 -0.0895 -0.7879 -0.462 -0.863 0.206 80 66 37 0 0
-0.1953 -0.0897 -0.7897 -0.462 -0.863 0.206 83 68 37 0 0
-0.1962 -0.0911 -0.7925 -0.315 -0.940 0.127 93 77 44 0 0
-0.2024 -0.1003 -0.8064 -0.548 -0.639 0.539 85 71 41 0 0
-0.2147 -0.1142 -0.8614 -0.668 -0.735 0.119 73 67 53 0 0
-0.1288 -0.0395 -0.3162 -0.436 -0.864 0.253 72 60 43 0 0
-0.1324 -0.0447 -0.3252 -0.295 -0.925 0.239 38 33 30 0 0
-0.1368 -0.0475 -0.3588 -0.457 -0.881 -0.121 59 51 35 0 0
-0.1368 -0.0472 -0.3605 -0.509 -0.846 -0.160 52 44 31 0 0
-0.1338 -0.0380 -0.3836 -0.330 -0.852 0.406 37 26 17 0 0
-0.1348 -0.0378 -0.3952 -0.490 -0.840 0.231 75 54 34 0 0
-0.1339 -0.0275 -0.4486 -0.577 -0.796 -0.180 38 31 25 0 0
-0.1843 -0.1052 -0.5475 -0.518 -0.817 0.251 80 64 40 0 0
-0.1849 -0.1058 -0.5506 -0.518 -0.817 0.251 77 60 39 0 0
-0.1863 -0.1017 -0.5921 -0.139 -0.925 0.353 88 73 47 0 0
-0.1779 -0.0698 -0.6921 -0.576 -0.806 0.139 15 11 10 0 0
-0.1948 -0.0979 -0.7121 -0.769 -0.228 0.597 128 106 76 0 0
-0.2007 -0.1080 -0.7171 -0.426 -0.823 0.377 64 47 26 0 0
-0.2018 -0.1078 -0.7308 -0.595 -0.789 0.155 148 129 88 0 0
-0.2020 -0.1079 -0.7327 -0.610 -0.777 -0.159 137 119 82 0 0
-0.1903 -0.0789 -0.7781 -0.518 -0.815 -0.260 81 65 40 0 0
-0.1907 -0.0792 -0.7799 -0.757 -0.280 0.590 75 59 35 0 0
-0.1914 -0.0805 -0.7808 -0.514 -0.819 0.257 63 47 26 0 0
-0.1911 -0.0794 -0.7838 -0.456 -0.890 -0.022 59 44 24 0 0
-0.2067 -0.1025 -0.8199 -0.484 -0.552 0.680 87 63 34 0 0
-0.2156 -0.1129 -0.8574 -0.580 -0.790 0.201 52 45 32 0 0
-0.2160 -0.1131 -0.8614 -0.694 -0.680 0.236 78 69 58 0 0
-0.1300 -0.0387 -0.3161 -0.450 -0.764 0.462 99 88 73 0 0
-0.1381 -0.0467 -0.3587 -0.549 -0.836 0.012 70 60 46 0 0
-0.1381 -0.0464 -0.3604 -0.509 -0.846 -0.160 50 41 30 0 0
-0.1351 -0.0371 -0.3836 -0.269 -0.878 0.395 47 32 16 0 0
-0.1352 -0.0367 -0.3871 -0.439 -0.895 0.073 63 43 29 0 0
-0.1352 -0.0365 -0.3888 -0.429 -0.902 0.045 59 37 23 0 0
-0.1358 -0.0364 -0.3954 -0.292 -0.946 0.142 73 52 35 0 0
-0.1336 -0.0227 -0.4539 -0.653 -0.691 -0.309 31 23 20 0 0
-0.1341 -0.0235 -0.4552 -0.638 -0.723 -0.264 31 25 19 0 0
-0.1783 -0.0933 -0.5321 -0.229 -0.761 0.607 131 116 98 0 0
-0.1857 -0.1045 -0.5474 -0.600 -0.770 0.217 69 52 34 0 0
-0.1861 -0.1022 -0.5663 -0.729 -0.643 -0.233 77 62 42 0 0
-0.1856 -0.1005 -0.5710 -0.550 -0.813 -0.192 73 61 38 0 0
-0.1877 -0.1009 -0.5920 -0.467 -0.875 0.128 88 74 50 0 0
-0.1796 -0.0694 -0.6917 -0.420 -0.902 0.095 14 10 8 0 0
-0.1825 -0.0723 -0.7069 -0.142 -0.626 0.766 47 41 33 0 0
-0.1952 -0.0953 -0.7115 -0.534 -0.302 0.790 126 111 84 0 0
-0.2021 -0.1072 -0.7169 -0.529 -0.794 0.299 65 45 28 0 0
-0.1912 -0.0756 -0.7863 -0.258 -0.830 0.495 55 41 20 0 0
-0.1920 -0.0769 -0.7872 -0.569 -0.578 0.585 51 37 18 0 0
-0.1966 -0.0850 -0.7901 -0.594 -0.400 0.698 85 70 40 0 0
-0.2081 -0.1020 -0.8174 -0.409 -0.678 0.610 66 48 23 0 0
-0.2166 -0.1111 -0.8583 -0.514 -0.841 0.169 48 41 30 0 0
-0.2173 -0.1119 -0.8616 -0.694 -0.680 0.236 79 72 61 0 0
-0.1344 -0.0416 -0.3287 -0.618 -0.786 0.021 31 24 17 0 0
-0.1358 -0.0350 -0.3841 -0.383 -0.913 0.139 66 47 28 0 0
-0.1363 -0.0352 -0.3889 -0.510 -0.841 0.182 67 44 28 0 0
-0.1348 -0.0216 -0.4540 -0.653 -0.691 -0.309 28 20 18 0 0
-0.1354 -0.0224 -0.4553 -0.635 -0.749 -0.188 36 31 28 0 0
-0.1870 -0.1001 -0.5688 -0.633 -0.725 -0.270 65 52 34 0 0
-0.1869 -0.0995 -0.5710 -0.563 -0.819 -0.111 68 56 35 0 0
-0.1913 -0.1020 -0.6067 -0.384 -0.891 0.243 129 111 73 0 0
-0.1904 -0.0955 -0.6351 -0.035 -0.983 -0.181 108 95 70 0 0
-0.1888 -0.0904 -0.6481 -0.471 -0.859 -0.201 45 33 19 0 0
-0.1820 -0.0700 -0.6943 0.100 -0.995 0.013 15 11 8 0 0
-0.1840 -0.0718 -0.7066 -0.110 -0.888 0.446 59 52 42 0 0
-0.1965 -0.0942 -0.7116 -0.382 -0.358 0.852 119 104 77 0 0
-0.2043 -0.1060 -0.7288 -0.741 -0.656 0.146 139 123 82 0 0
-0.2118 -0.1041 -0.8247 -0.747 -0.629 0.216 108 89 60 0 0
-0.2122 -0.1047 -0.8262 -0.603 -0.666 0.439 93 75 45 0 0
-0.2181 -0.1104 -0.8579 -0.482 -0.754 0.446 43 38 28 0 0
-0.2188 -0.1111 -0.8615 -0.712 -0.495 0.498 79 72 61 0 0
-0.1318 -0.0363 -0.3116 -0.499 -0.752 0.432 66 54 39 0 0
-0.1344 -0.0387 -0.3263 -0.798 -0.596 -0.085 52 44 38 0 0
-0.1382 -0.0445 -0.3352 -0.231 -0.588 0.775 76 62 45 0 0
-0.1387 -0.0394 -0.3705 -0.380 -0.754 -0.536 48 35 21 0 0
-0.1371 -0.0342 -0.3840 -0.518 -0.844 0.142 71 50 31 0 0
-0.1373 -0.0342 -0.3856 -0.611 -0.785 0.100 70 48 31 0 0
-0.1377 -0.0345 -0.3888 -0.512 -0.805 0.299 65 42 27 0 0
-0.1374 -0.0238 -0.4489 -0.384 -0.753 -0.534 34 27 21 0 0
-0.1366 -0.0217 -0.4534 -0.485 -0.872 -0.066 28 20 18 0 0
-0.1372 -0.0224 -0.4548 -0.500 -0.786 0.363 32 27 24 0 0
-0.1597 -0.0534 -0.5218 -0.971 -0.112 -0.211 12 11 9 0 0
-0.1638 -0.0607 -0.5246 0.216 -0.512 0.832 11 10 8 0 0
-0.1656 -0.0635 -0.5282 0.067 0.222 0.973 36 34 32 0 0
-0.1882 -0.0990 -0.5690 -0.510 -0.818 -0.265 90 78 58 0 0
-0.1881 -0.0986 -0.5710 -0.648 -0.732 -0.210 104 91 71 0 0
-0.1917 -0.1012 -0.5958 -0.362 -0.833 0.418 83 66 35 0 0
-0.1922 -0.1018 -0.5972 -0.362 -0.833 0.418 99 82 52 0 0
-0.1853 -0.0706 -0.7067 -0.092 -0.817 0.569 57 51 39 0 0
-0.1868 -0.0727 -0.7109 -0.478 -0.831 0.283 65 56 44 0 0
-0.1933 -0.0850 -0.7107 -0.269 -0.367 0.891 72 63 44 0 0
-0.1972 -0.0922 -0.7105 -0.541 -0.510 0.669 108 95 71 0 0
-0.1977 -0.0929 -0.7119 -0.273 -0.393 0.878 119 103 77 0 0
-0.2046 -0.1039 -0.7240 -0.638 -0.721 0.272 91 78 48 0 0
-0.2048 -0.1041 -0.7257 -0.512 -0.800 0.313 80 71 40 0 0
-0.2052 -0.1044 -0.7273 -0.512 -0.800 0.313 100 86 50 0 0
-0.2056 -0.1048 -0.7289 -0.512 -0.800 0.313 137 120 78 0 0
-0.2036 -0.0899 -0.7961 -0.580 -0.652 0.489 109 93 60 0 0
-0.2141 -0.1044 -0.8276 -0.536 -0.692 0.484 91 73 45 0 0
-0.2158 -0.1065 -0.8338 -0.630 -0.669 0.394 124 104 66 0 0
-0.2196 -0.1096 -0.8578 -0.556 -0.812 0.176 42 36 30 0 0
-0.2196 -0.1093 -0.8602 -0.638 -0.770 0.002 58 51 43 0 0
-0.2200 -0.1098 -0.8618 -0.748 -0.553 0.368 84 77 67 0 0
-0.1288 -0.0293 -0.3012 -0.733 -0.476 0.486 104 91 66 0 0
-0.1354 -0.0377 -0.3248 -0.813 -0.580 -0.040 48 39 31 0 0
-0.1355 -0.0376 -0.3263 -0.906 -0.423 -0.009 59 50 44 0 0
-0.1379 -0.0209 -0.4516 -0.809 -0.588 0.003 31 23 20 0 0
-0.1380 -0.0207 -0.4534 -0.553 -0.832 0.029 28 20 18 0 0
-0.1386 -0.0218 -0.4546 -0.784 -0.596 0.175 31 26 23 0 0
-0.1646 -0.0594 -0.5213 0.236 -0.847 -0.475 12 11 9 0 0
-0.1638 -0.0571 -0.5261 0.526 -0.750 -0.401 12 11 9 0 0
-0.1690 -0.0669 -0.5256 0.284 -0.771 0.571 30 28 26 0 0
-0.1698 -0.0683 -0.5265 0.260 -0.052 0.964 59 56 50 0 0
-0.1718 -0.0721 -0.5260 0.010 0.033 0.999 93 90 85 0 0
-0.1862 -0.0975 -0.5363 -0.407 -0.725 0.556 100 84 61 0 0
-0.1897 -0.1016 -0.5510 -0.576 -0.782 0.237 79 61 41 0 0
-0.1899 -0.1018 -0.5525 -0.510 -0.852 0.117 73 55 36 0 0
-0.1892 -0.0973 -0.5712 -0.852 -0.518 0.075 96 84 63 0 0
-0.1919 -0.0993 -0.5893 -0.383 -0.884 0.269 126 110 83 0 0
-0.1929 -0.1001 -0.5959 -0.433 -0.796 0.423 87 71 44 0 0
-0.1939 -0.1016 -0.5985 -0.282 -0.865 0.415 100 83 53 0 0
-0.1948 -0.1009 -0.6115 -0.399 -0.909 0.123 177 160 117 0 0
-0.1858 -0.0719 -0.6836 0.013 -0.917 0.399 38 30 25 0 0
-0.1866 -0.0706 -0.7001 0.012 -0.980 0.197 37 30 21 0 0
-0.1954 -0.0852 -0.7117 -0.482 -0.265 0.835 82 70 52 0 0
-0.2060 -0.1030 -0.7239 -0.490 -0.828 0.273 94 77 49 0 0
-0.2062 -0.1032 -0.7257 -0.512 -0.800 0.313 85 72 42 0 0
-0.2066 -0.1037 -0.7271 -0.353 -0.897 0.265 124 106 70 0 0
-0.2070 -0.1041 -0.7288 -0.353 -0.897 0.265 140 121 80 0 0
-0.2059 -0.1005 -0.7377 -0.604 -0.794 -0.072 106 91 61 0 0
-0.2017 -0.0833 -0.7930 -0.791 -0.429 0.437 99 85 52 0 0
-0.2152 -0.1030 -0.8259 -0.534 -0.714 0.453 139 121 89 0 0
-0.2155 -0.1034 -0.8276 -0.515 -0.719 0.467 97 81 52 0 0
-0.2172 -0.1056 -0.8337 -0.567 -0.752 0.336 126 106 69 0 0
-0.1420 -0.0299 -0.4247 -0.547 -0.837 -0.017 97 81 57 0 0
-0.1423 -0.0298 -0.4282 -0.530 -0.840 0.114 93 79 54 0 0
-0.1419 -0.0283 -0.4322 -0.483 -0.857 0.182 93 79 53 0 0
-0.1388 -0.0190 -0.4520 0.062 -0.990 0.129 31 24 19 0 0
-0.1378 -0.0168 -0.4548 0.184 -0.966 0.182 28 22 18 0 0
-0.1395 -0.0199 -0.4550 -0.120 -0.991 -0.059 35 30 27 0 0
-0.1348 -0.0086 -0.4693 -0.877 -0.246 -0.413 36 32 29 0 0
-0.1734 -0.0722 -0.5236 -0.620 -0.529 0.579 44 42 38 0 0
-0.1747 -0.0747 -0.5238 -0.341 -0.174 0.924 88 84 79 0 0
-0.1756 -0.0762 -0.5246 -0.437 -0.212 0.874 94 89 81 0 0
-0.1898 -0.0995 -0.5447 -0.540 -0.727 0.424 89 71 50 0 0
-0.1906 -0.1002 -0.5495 -0.453 -0.836 0.310 108 91 63 0 0
-0.1909 -0.1006 -0.5510 -0.453 -0.836 0.310 86 68 45 0 0
-0.1912 -0.0978 -0.5703 -0.433 -0.882 -0.183 84 72 51 0 0
-0.1905 -0.0961 -0.5732 -0.548 -0.824 0.146 114 102 81 0 0
-0.1908 -0.0963 -0.5748 -0.470 -0.826 0.312 84 72 49 0 0
-0.1911 -0.0966 -0.5763 -0.470 -0.826 0.312 89 77 54 0 0
-0.1921 -0.0976 -0.5810 -0.442 -0.880 0.173 83 65 40 0 0
-0.1926 -0.0981 -0.5842 -0.478 -0.851 0.216 88 71 45 0 0
-0.1962 -0.1002 -0.6113 -0.260 -0.893 0.367 177 157 116 0 0
-0.1890 -0.0759 -0.6739 -0.090 -0.968 0.234 33 26 19 0 0
-0.1890 -0.0702 -0.7074 -0.450 -0.889 0.087 43 35 25 0 0
-0.1892 -0.0704 -0.7092 -0.326 -0.874 0.361 51 42 31 0 0
-0.1896 -0.0707 -0.7109 -0.284 -0.873 0.395 75 63 48 0 0
-0.1972 -0.0852 -0.7108 -0.596 -0.432 0.677 84 73 54 0 0
-0.2031 -0.0828 -0.7906 -0.290 -0.739 0.608 86 73 40 0 0
-0.2086 -0.0914 -0.8011 -0.420 -0.739 0.527 90 74 41 0 0
-0.2171 -0.1029 -0.8271 -0.372 -0.808 0.457 113 96 64 0 0
-0.2188 -0.1052 -0.8332 -0.397 -0.893 0.210 126 107 70 0 0
-0.1443 -0.0442 -0.3467 -0.490 -0.861 0.138 47 35 26 0 0
-0.1415 -0.0218 -0.4468 -0.610 -0.631 -0.479 37 28 23 0 0
-0.1408 -0.0195 -0.4513 -0.242 -0.966 -0.092 34 27 24 0 0
-0.1398 -0.0173 -0.4541 0.306 -0.925 0.225 27 22 18 0 0
-0.1409 -0.0192 -0.4549 -0.692 -0.634 0.345 31 26 23 0 0
-0.1566 -0.0412 -0.4990 -0.571 -0.514 0.640 77 70 61 0 0
-0.1603 -0.0457 -0.5140 -0.898 -0.079 0.432 23 22 20 0 0
-0.1617 -0.0483 -0.5143 -0.481 -0.480 0.734 24 23 21 0 0
-0.1623 -0.0493 -0.5155 -0.513 -0.497 0.700 26 25 23 0 0
-0.1763 -0.0743 -0.5235 -0.270 -0.317 0.909 87 82 77 0 0
-0.1768 -0.0751 -0.5247 -0.480 -0.284 0.830 89 82 75 0 0
-0.1925 -0.0971 -0.5701 -0.466 -0.866 -0.181 84 72 47 0 0
-0.1919 -0.0953 -0.5731 -0.480 -0.860 0.170 112 99 74 0 0
-0.1925 -0.0959 -0.5762 -0.473 -0.825 0.307 81 67 41 0 0
-0.1927 -0.0961 -0.5778 -0.432 -0.828 0.357 91 76 50 0 0
-0.1964 -0.0998 -0.5966 -0.329 -0.812 0.483 82 64 40 0 0
-0.1969 -0.1005 -0.5979 -0.489 -0.826 0.281 90 74 44 0 0
-0.1977 -0.1013 -0.6027 -0.308 -0.923 0.231 115 99 66 0 0
-0.1981 -0.1017 -0.6042 -0.179 -0.953 0.244 141 126 91 0 0
-0.1981 -0.1014 -0.6062 -0.073 -0.963 0.260 141 125 85 0 0
-0.1978 -0.1004 -0.6087 -0.246 -0.967 0.071 154 137 94 0 0
-0.1911 -0.0709 -0.7060 -0.135 -0.990 0.049 35 28 18 0 0
-0.2096 -0.1029 -0.7243 -0.712 -0.619 0.331 135 115 74 0 0
-0.2054 -0.0833 -0.7913 -0.338 -0.750 0.569 97 80 50 0 0
-0.2061 -0.0841 -0.7946 -0.305 -0.905 0.296 115 101 66 0 0
-0.2119 -0.0929 -0.8070 -0.473 -0.806 0.356 75 64 38 0 0
-0.2126 -0.0938 -0.8102 -0.407 -0.879 0.248 54 38 23 0 0
-0.2186 -0.1021 -0.8269 -0.283 -0.877 0.387 134 114 82 0 0
-0.1386 -0.0336 -0.3267 -0.737 -0.607 0.296 32 23 14 0 0
-0.1420 -0.0297 -0.3858 -0.635 -0.706 0.313 69 48 27 0 0
-0.1423 -0.0301 -0.3873 -0.638 -0.724 0.262 56 35 19 0 0
-0.1429 -0.0294 -0.3974 -0.389 -0.911 0.138 69 48 28 0 0
-0.1440 -0.0302 -0.4054 -0.434 -0.886 0.162 95 76 54 0 0
-0.1450 -0.0278 -0.4298 -0.649 -0.755 0.099 103 85 61 0 0
-0.1448 -0.0264 -0.4355 -0.528 -0.803 -0.276 89 75 49 0 0
-0.1587 -0.0414 -0.5019 -0.616 -0.512 0.599 61 52 42 0 0
-0.1605 -0.0430 -0.5114 -0.720 -0.334 0.608 37 35 30 0 0
-0.1611 -0.0440 -0.5127 -0.662 -0.280 0.695 30 29 26 0 0
-0.1631 -0.0475 -0.5142 -0.376 -0.301 0.876 21 20 18 0 0
-0.1752 -0.0686 -0.5246 -0.018 -0.817 0.577 57 56 52 0 0
-0.1770 -0.0723 -0.5241 -0.634 -0.285 0.719 83 78 72 0 0
-0.1777 -0.0734 -0.5252 -0.663 -0.208 0.720 76 70 61 0 0
-0.1946 -0.0983 -0.5669 -0.342 -0.820 -0.460 102 87 57 0 0
-0.1978 -0.0991 -0.5964 -0.329 -0.812 0.483 76 59 34 0 0
-0.1930 -0.0785 -0.6628 -0.307 -0.820 -0.483 56 45 30 0 0
-0.1917 -0.0715 -0.6893 -0.442 -0.888 0.128 24 19 14 0 0
-0.2039 -0.0905 -0.7126 -0.222 -0.320 0.921 135 117 85 0 0
-0.2095 -0.1001 -0.7181 -0.281 -0.845 0.455 128 107 73 0 0
-0.2111 -0.1023 -0.7240 -0.401 -0.910 0.109 145 121 78 0 0
-0.2096 -0.0866 -0.7975 -0.600 -0.764 0.238 104 87 56 0 0
-0.2141 -0.0930 -0.8100 -0.407 -0.879 0.248 59 46 28 0 0
-0.2146 -0.0936 -0.8115 -0.418 -0.902 0.110 43 30 14 0 0
-0.2201 -0.1015 -0.8266 -0.283 -0.877 0.387 131 111 78 0 0
-0.2207 -0.1019 -0.8303 -0.457 -0.849 0.263 86 74 44 0 0
-0.1392 -0.0313 -0.3272 -0.412 -0.485 0.771 33 24 14 0 0
-0.1433 -0.0380 -0.3342 -0.411 -0.742 0.530 153 138 109 0 0
-0.1422 -0.0288 -0.3744 -0.593 -0.803 0.065 93 78 59 0 0
-0.1441 -0.0287 -0.3957 -0.557 -0.817 0.148 60 43 26 0 0
-0.1443 -0.0288 -0.3973 -0.557 -0.817 0.148 66 47 28 0 0
-0.1377 -0.0041 -0.4666 -0.644 -0.498 -0.580 32 27 24 0 0
-0.1618 -0.0420 -0.5115 -0.725 -0.638 0.259 30 28 24 0 0
-0.1764 -0.0679 -0.5227 -0.103 -0.455 0.885 26 25 22 0 0
-0.1773 -0.0694 -0.5235 -0.796 -0.190 0.574 64 62 58 0 0
-0.1781 -0.0710 -0.5243 -0.839 -0.119 0.530 76 71 65 0 0
-0.2008 -0.1002 -0.6040 -0.367 -0.735 0.570 120 100 68 0 0
-0.2013 -0.1009 -0.6052 -0.351 -0.784 0.512 138 119 85 0 0
-0.1948 -0.0786 -0.6620 -0.343 -0.833 -0.434 45 35 22 0 0
-0.2051 -0.0893 -0.7128 -0.409 -0.341 0.846 111 96 67 0 0
-0.2060 -0.0909 -0.7134 -0.270 -0.272 0.924 114 99 67 0 0
-0.2124 -0.1016 -0.7218 -0.534 -0.828 0.169 129 104 66 0 0
-0.1992 -0.0648 -0.7876 -0.151 -0.171 0.974 156 132 89 0 0
-0.2001 -0.0665 -0.7882 -0.274 -0.131 0.953 156 134 92 0 0
-0.2157 -0.0924 -0.8096 -0.479 -0.874 0.080 45 32 17 0 0
-0.2159 -0.0919 -0.8142 -0.766 -0.630 -0.130 35 23 13 0 0
-0.2163 -0.0926 -0.8156 -0.577 -0.731 -0.364 33 22 11 0 0
-0.1391 -0.0287 -0.3230 -0.881 -0.417 0.224 64 51 40 0 0
-0.1397 -0.0293 -0.3260 -0.735 -0.487 0.471 35 23 13 0 0
-0.1438 -0.0276 -0.3793 -0.598 -0.801 -0.016 65 46 30 0 0
-0.1450 -0.0274 -0.3942 -0.618 -0.745 0.251 49 32 16 0 0
-0.1452 -0.0274 -0.3958 -0.475 -0.824 0.309 58 39 22 0 0
-0.1455 -0.0278 -0.3973 -0.475 -0.824 0.309 63 46 28 0 0
-0.1477 -0.0272 -0.4241 -0.371 -0.900 0.229 96 78 54 0 0
-0.1478 -0.0270 -0.4259 -0.374 -0.922 0.098 88 72 46 0 0
-0.1386 -0.0021 -0.4670 -0.675 -0.428 -0.601 31 26 23 0 0
-0.1994 -0.1031 -0.5539 -0.051 -0.988 0.143 109 94 61 0 0
-0.1996 -0.1030 -0.5556 -0.114 -0.991 0.072 96 81 49 0 0
-0.1990 -0.1014 -0.5584 -0.367 -0.873 -0.321 121 106 76 0 0
-0.2019 -0.0995 -0.6002 -0.506 -0.839 0.202 148 129 88 0 0
-0.2026 -0.1001 -0.6051 -0.411 -0.703 0.581 112 93 61 0 0
-0.2031 -0.1008 -0.6064 -0.549 -0.765 0.336 117 100 66 0 0
-0.2026 -0.0993 -0.6093 -0.359 -0.933 -0.007 138 123 84 0 0
-0.1978 -0.0821 -0.6549 -0.136 -0.848 -0.513 60 45 26 0 0
-0.1949 -0.0736 -0.6708 -0.351 -0.891 -0.288 71 59 43 0 0
-0.1937 -0.0703 -0.6771 -0.327 -0.886 -0.328 53 44 29 0 0
-0.2014 -0.0652 -0.7884 -0.009 -0.179 0.984 170 150 110 0 0
-0.2023 -0.0668 -0.7891 -0.059 -0.445 0.894 166 148 110 0 0
-0.2031 -0.0682 -0.7899 -0.146 -0.530 0.835 148 132 98 0 0
-0.2173 -0.0927 -0.8043 -0.480 -0.668 0.569 48 34 14 0 0
-0.2173 -0.0910 -0.8141 -0.405 -0.854 -0.326 28 20 13 0 0
-0.2172 -0.0904 -0.8167 -0.389 -0.863 -0.321 28 19 12 0 0
-0.2170 -0.0894 -0.8197 -0.521 -0.824 -0.221 27 17 10 0 0
-0.2169 -0.0888 -0.8224 -0.521 -0.824 -0.221 35 23 14 0 0
-0.2172 -0.0891 -0.8242 -0.585 -0.806 0.092 47 35 20 0 0
-0.2230 -0.0998 -0.8263 -0.369 -0.815 0.447 142 122 87 0 0
-0.2234 -0.1003 -0.8278 -0.532 -0.832 0.161 106 91 58 0 0
-0.1396 -0.0265 -0.3219 -0.827 -0.560 0.039 74 62 50 0 0
-0.1401 -0.0273 -0.3232 -0.780 -0.528 0.336 67 55 43 0 0
-0.1402 -0.0272 -0.3248 -0.814 -0.404 0.417 50 40 27 0 0
-0.1451 -0.0269 -0.3792 -0.714 -0.698 0.055 65 46 29 0 0
-0.1465 -0.0266 -0.3957 -0.475 -0.824 0.309 73 56 38 0 0
-0.1468 -0.0268 -0.3973 -0.530 -0.754 0.389 75 58 40 0 0
-0.1644 -0.0399 -0.5133 -0.538 -0.829 -0.148 27 26 21 0 0
-0.1645 -0.0397 -0.5151 -0.254 -0.950 0.182 30 29 24 0 0
-0.2010 -0.1028 -0.5534 -0.207 -0.972 0.107 121 106 74 0 0
-0.2003 -0.1006 -0.5583 -0.425 -0.833 -0.353 116 98 66 0 0
-0.1998 -0.0825 -0.6539 -0.134 -0.835 -0.533 70 55 33 0 0
-0.1987 -0.0798 -0.6578 -0.205 -0.801 -0.562 68 54 36 0 0
-0.1973 -0.0759 -0.6645 -0.416 -0.772 -0.481 65 54 40 0 0
-0.1959 -0.0718 -0.6714 -0.699 -0.694 -0.176 63 49 33 0 0
-0.2154 -0.0991 -0.7281 -0.381 -0.914 -0.137 126 108 73 0 0
-0.2149 -0.0973 -0.7335 -0.577 -0.780 -0.241 109 93 59 0 0
-0.2040 -0.0665 -0.7885 0.307 -0.654 0.691 126 111 76 0 0
-0.2182 -0.0903 -0.8077 -0.969 -0.232 0.085 38 25 10 0 0
-0.2189 -0.0887 -0.8236 -0.722 -0.576 0.384 37 26 12 0 0
-0.2188 -0.0881 -0.8263 -0.305 -0.852 0.425 59 46 27 0 0
-0.2247 -0.0991 -0.8281 -0.432 -0.792 0.432 116 98 62 0 0
-0.2251 -0.0997 -0.8296 -0.462 -0.870 0.169 115 100 63 0 0
-0.1411 -0.0256 -0.3250 -0.814 -0.404 0.417 60 52 36 0 0
-0.1477 -0.0355 -0.3402 -0.707 -0.681 0.190 45 36 27 0 0
-0.1461 -0.0254 -0.3794 -0.673 -0.738 0.041 66 47 30 0 0
-0.1496 -0.0259 -0.4138 -0.399 -0.833 0.384 61 42 24 0 0
-0.1471 -0.0136 -0.4552 0.011 -0.947 -0.320 18 13 10 0 0
-0.1657 -0.0396 -0.5094 -0.745 -0.648 0.156 19 17 15 0 0
-0.1652 -0.0382 -0.5120 0.043 -0.967 0.249 24 23 20 0 0
-0.1927 -0.0900 -0.5181 0.263 -0.962 0.068 88 75 55 0 0
-0.1929 -0.0900 -0.5198 0.382 -0.864 0.328 91 78 53 0 0
-0.1953 -0.0935 -0.5262 -0.065 -0.950 0.304 101 87 61 0 0
-0.2024 -0.0962 -0.5869 -0.287 -0.937 0.197 99 82 51 0 0
-0.2029 -0.0860 -0.6487 -0.267 -0.866 -0.422 91 72 42 0 0
-0.1982 -0.0736 -0.6674 -0.464 -0.787 -0.408 53 41 26 0 0
-0.1971 -0.0706 -0.6716 -0.699 -0.694 -0.176 53 38 22 0 0
-0.1971 -0.0703 -0.6737 -0.837 -0.547 -0.015 47 33 19 0 0
-0.1971 -0.0699 -0.6760 -0.661 -0.743 -0.104 44 33 19 0 0
-0.1996 -0.0705 -0.6985 -0.369 -0.825 0.428 41 33 22 0 0
-0.2170 -0.0988 -0.7275 -0.650 -0.750 0.123 126 107 74 0 0
-0.2172 -0.0989 -0.7294 -0.650 -0.750 0.123 121 104 71 0 0
-0.2174 -0.0988 -0.7314 -0.743 -0.669 -0.010 113 97 63 0 0
-0.2047 -0.0644 -0.7874 -0.049 -0.376 0.925 92 77 46 0 0
-0.2070 -0.0683 -0.7901 -0.236 -0.592 0.770 92 78 51 0 0
-0.2223 -0.0916 -0.8241 -0.349 -0.544 0.763 75 64 42 0 0
-0.2229 -0.0924 -0.8253 -0.501 -0.691 0.520 57 45 30 0 0
-0.1488 -0.0344 -0.3403 -0.707 -0.681 0.190 46 36 26 0 0
-0.1458 -0.0231 -0.3702 -0.498 -0.722 0.481 44 31 20 0 0
-0.1609 -0.0287 -0.4991 -0.425 -0.304 0.853 78 70 61 0 0
-0.1619 -0.0304 -0.4999 -0.373 -0.330 0.867 83 74 62 0 0
-0.1626 -0.0317 -0.5010 -0.490 -0.306 0.816 96 83 68 0 0
-0.1669 -0.0380 -0.5115 0.039 -0.859 0.510 19 17 13 0 0
-0.1955 -0.0916 -0.5199 -0.147 -0.849 0.507 117 103 77 0 0
-0.1965 -0.0928 -0.5243 -0.065 -0.950 0.304 108 96 71 0 0
-0.1969 -0.0932 -0.5258 -0.065 -0.950 0.304 112 98 74 0 0
-0.2059 -0.0967 -0.6019 -0.177 -0.956 0.233 139 119 81 0 0
-0.1983 -0.0698 -0.6696 -0.834 -0.483 -0.268 66 54 37 0 0
-0.1992 -0.0672 -0.6926 -0.670 -0.729 0.142 43 35 24 0 0
-0.2012 -0.0702 -0.6980 -0.324 -0.628 0.707 40 31 19 0 0
-0.2164 -0.0963 -0.7154 -0.282 -0.239 0.929 136 118 86 0 0
-0.2183 -0.0973 -0.7299 -0.883 -0.433 0.181 123 106 73 0 0
-0.2240 -0.0913 -0.8234 -0.561 -0.533 0.633 76 67 47 0 0
-0.1471 -0.0222 -0.3702 -0.498 -0.722 0.481 49 36 24 0 0
-0.1537 -0.0246 -0.4269 -0.555 -0.818 0.152 69 51 28 0 0
-0.1619 -0.0271 -0.4994 -0.310 -0.345 0.886 80 72 64 0 0
-0.1631 -0.0294 -0.4999 -0.111 -0.394 0.912 81 72 61 0 0
-0.1640 -0.0308 -0.5009 -0.290 -0.368 0.883 85 72 57 0 0
-0.1642 -0.0310 -0.5026 -0.571 -0.224 0.790 91 80 63 0 0
-0.1650 -0.0324 -0.5035 -0.571 -0.224 0.790 92 81 67 0 0
-0.1675 -0.0359 -0.5104 -0.910 -0.200 0.363 35 30 26 0 0
-0.1962 -0.0906 -0.5149 0.002 -0.971 -0.241 83 71 51 0 0
-0.1966 -0.0911 -0.5163 -0.061 -0.995 0.073 81 69 47 0 0
-0.1968 -0.0911 -0.5180 -0.133 -0.990 0.054 93 80 55 0 0
-0.2026 -0.0923 -0.5724 -0.386 -0.909 -0.156 100 88 64 0 0
-0.2037 -0.0930 -0.5808 -0.467 -0.845 0.259 79 62 41 0 0
-0.2059 -0.0848 -0.6482 -0.365 -0.797 -0.481 79 61 30 0 0
-0.2183 -0.0925 -0.7372 -0.378 -0.925 -0.041 117 101 69 0 0
-0.2068 -0.0643 -0.7694 -0.772 -0.374 -0.513 82 69 38 0 0
-0.2028 -0.0533 -0.7871 -0.517 -0.483 0.707 82 70 44 0 0
-0.2111 -0.0684 -0.7922 -0.576 -0.336 0.745 57 45 23 0 0
-0.2247 -0.0892 -0.8224 -0.667 -0.496 0.556 92 83 57 0 0
-0.1328 -0.0032 -0.3048 -0.549 -0.686 0.478 104 96 84 0 0
-0.1428 -0.0199 -0.3196 -0.886 -0.417 0.201 48 38 30 0 0
-0.1430 -0.0198 -0.3212 -0.904 -0.413 0.111 35 26 17 0 0
-0.1431 -0.0198 -0.3228 -0.775 -0.481 0.410 62 54 40 0 0
-0.1544 -0.0231 -0.4237 -0.553 -0.824 0.123 68 50 27 0 0
-0.1665 -0.0314 -0.5053 -0.834 -0.232 0.500 71 62 53 0 0
-0.1669 -0.0318 -0.5068 -0.868 -0.208 0.452 69 60 51 0 0
-0.2039 -0.0912 -0.5743 -0.191 -0.982 0.001 51 38 21 0 0
-0.2040 -0.0910 -0.5762 -0.691 -0.697 0.189 38 25 12 0 0
-0.1999 -0.0637 -0.6804 -0.659 -0.588 0.469 53 36 23 0 0
-0.2025 -0.0675 -0.6870 -0.542 -0.613 0.575 61 47 32 0 0
-0.2047 -0.0684 -0.7056 -0.421 -0.874 0.244 44 34 22 0 0
-0.2207 -0.0957 -0.7258 -0.674 -0.726 0.132 140 121 80 0 0
-0.2214 -0.0968 -0.7268 -0.656 -0.598 0.461 132 114 75 0 0
-0.2207 -0.0948 -0.7305 -0.248 -0.969 0.007 128 111 75 0 0
-0.2186 -0.0744 -0.8189 -0.065 -0.915 0.399 42 29 15 0 0
-0.2302 -0.0899 -0.8562 -0.393 -0.404 0.826 23 21 16 0 0
-0.1433 -0.0177 -0.3185 -0.783 -0.295 0.547 56 47 34 0 0
-0.1437 -0.0182 -0.3199 -0.841 -0.475 0.260 54 44 31 0 0
-0.1440 -0.0185 -0.3214 -0.841 -0.475 0.260 73 64 50 0 0
-0.1534 -0.0314 -0.3498 -0.767 -0.487 0.418 44 35 26 0 0
-0.1553 -0.0181 -0.4408 -0.523 -0.816 -0.246 71 57 41 0 0
-0.2008 -0.0922 -0.5179 -0.117 -0.913 0.392 130 116 90 0 0
-0.2022 -0.0943 -0.5217 -0.355 -0.897 0.264 198 192 164 0 0
-0.2075 -0.1016 -0.5375 -0.320 -0.940 0.117 93 77 51 0 0
-0.2083 -0.1023 -0.5422 -0.258 -0.927 0.274 107 91 58 0 0
-0.2061 -0.0911 -0.5790 -0.403 -0.851 0.338 52 35 16 0 0
-0.2115 -0.0959 -0.6095 -0.493 -0.867 0.066 161 143 103 0 0
-0.2111 -0.0912 -0.6309 -0.286 -0.947 -0.145 151 135 93 0 0
-0.2047 -0.0676 -0.6900 -0.553 -0.824 0.124 65 51 35 0 0
-0.2222 -0.0951 -0.7255 -0.389 -0.875 0.288 151 133 87 0 0
-0.2225 -0.0954 -0.7271 -0.389 -0.875 0.288 152 135 92 0 0
-0.2310 -0.0890 -0.8498 -0.487 -0.804 0.340 69 63 43 0 0
-0.1439 -0.0154 -0.3189 -0.869 -0.364 0.336 56 46 34 0 0
-0.1566 -0.0200 -0.4259 -0.598 -0.774 0.206 73 55 34 0 0
-0.1569 -0.0203 -0.4275 -0.598 -0.774 0.206 83 66 42 0 0
-0.2036 -0.0937 -0.5215 -0.355 -0.897 0.264 172 163 132 0 0
-0.2038 -0.0939 -0.5231 -0.221 -0.894 0.390 148 138 107 0 0
-0.2131 -0.0950 -0.6130 -0.351 -0.937 0.003 145 125 85 0 0
-0.2124 -0.0902 -0.6310 -0.589 -0.796 -0.140 145 126 86 0 0
-0.2121 -0.0882 -0.6379 -0.313 -0.869 -0.384 128 109 74 0 0
-0.2056 -0.0665 -0.6863 -0.327 -0.686 0.650 91 78 52 0 0
-0.2059 -0.0667 -0.6881 -0.429 -0.840 0.333 62 50 29 0 0
-0.2061 -0.0667 -0.6900 -0.553 -0.824 0.124 68 57 37 0 0
-0.2230 -0.0934 -0.7242 -0.578 -0.754 0.313 149 131 86 0 0
-0.2235 -0.0939 -0.7257 -0.516 -0.750 0.413 154 136 91 0 0
-0.2165 -0.0667 -0.7972 -0.770 -0.348 0.535 74 63 33 0 0
-0.2171 -0.0676 -0.7985 -0.686 -0.433 0.585 82 71 41 0 0
-0.1577 -0.0189 -0.4243 -0.554 -0.811 0.186 65 49 30 0 0
-0.1579 -0.0191 -0.4258 -0.543 -0.785 0.299 66 48 27 0 0
-0.1583 -0.0195 -0.4274 -0.543 -0.785 0.299 82 64 41 0 0
-0.1586 -0.0198 -0.4289 -0.543 -0.785 0.299 91 71 46 0 0
-0.1624 -0.0127 -0.5050 -0.675 -0.209 0.707 52 47 42 0 0
-0.2062 -0.0948 -0.5253 -0.297 -0.903 0.311 83 69 42 0 0
-0.2078 -0.0973 -0.5289 -0.353 -0.879 0.321 151 133 92 0 0
-0.2081 -0.0974 -0.5305 -0.610 -0.792 0.042 148 130 93 0 0
-0.2103 -0.1001 -0.5390 -0.487 -0.834 0.259 114 97 69 0 0
-0.2106 -0.1004 -0.5405 -0.487 -0.834 0.259 103 87 59 0 0
-0.2116 -0.1008 -0.5488 -0.335 -0.936 0.106 124 107 77 0 0
-0.2115 -0.1000 -0.5527 -0.351 -0.929 -0.121 129 113 78 0 0
-0.2096 -0.0903 -0.5836 -0.393 -0.902 0.177 38 24 15 0 0
-0.2100 -0.0908 -0.5850 -0.279 -0.798 0.534 30 17 8 0 0
-0.2116 -0.0932 -0.5886 -0.430 -0.886 0.173 92 73 52 0 0
-0.2149 -0.0936 -0.6206 -0.407 -0.902 -0.140 138 119 81 0 0
-0.2148 -0.0929 -0.6229 -0.293 -0.953 -0.077 135 117 80 0 0
-0.2144 -0.0918 -0.6255 -0.416 -0.899 -0.138 127 109 71 0 0
-0.2145 -0.0914 -0.6276 -0.416 -0.899 -0.138 122 104 66 0 0
-0.2137 -0.0889 -0.6331 -0.589 -0.796 -0.140 119 99 66 0 0
-0.2136 -0.0879 -0.6375 -0.361 -0.864 -0.352 129 111 77 0 0
-0.2070 -0.0657 -0.6861 -0.327 -0.686 0.650 95 81 55 0 0
-0.2073 -0.0659 -0.6879 -0.429 -0.840 0.333 70 59 36 0 0
-0.2078 -0.0667 -0.6892 -0.478 -0.823 0.307 76 66 46 0 0
-0.2226 -0.0901 -0.7184 -0.239 -0.536 0.810 136 120 85 0 0
-0.2236 -0.0914 -0.7212 -0.490 -0.729 0.478 87 74 39 0 0
-0.2241 -0.0922 -0.7224 -0.487 -0.805 0.339 126 110 74 0 0
-0.2248 -0.0930 -0.7257 -0.516 -0.750 0.413 150 134 90 0 0
-0.2171 -0.0644 -0.7964 -0.736 -0.322 0.595 141 121 79 0 0
-0.1341 0.0064 -0.2971 -0.606 -0.693 0.390 60 50 38 0 0
-0.1429 -0.0084 -0.3096 -0.471 -0.382 0.795 107 99 85 0 0
-0.1444 -0.0103 -0.3153 -0.903 -0.356 0.241 68 57 47 0 0
-0.1523 -0.0141 -0.3763 -0.870 -0.492 -0.036 52 39 23 0 0
-0.1521 -0.0133 -0.3782 -0.784 -0.618 0.060 53 40 24 0 0
-0.1575 -0.0184 -0.4073 -0.468 -0.827 0.312 57 41 25 0 0
-0.1578 -0.0186 -0.4089 -0.527 -0.845 0.088 64 48 32 0 0
-0.1635 -0.0112 -0.5053 -0.771 -0.114 0.626 32 24 21 0 0
-0.1962 -0.0778 -0.4944 0.497 -0.867 0.024 89 78 64 0 0
-0.2032 -0.0895 -0.5044 0.227 -0.869 0.440 128 112 82 0 0
-0.2036 -0.0901 -0.5057 0.194 -0.914 0.356 113 99 70 0 0
-0.2104 -0.0979 -0.5347 -0.448 -0.591 0.671 66 52 31 0 0
-0.2108 -0.0984 -0.5361 -0.469 -0.818 0.333 71 53 32 0 0
-0.2123 -0.0999 -0.5437 -0.523 -0.840 0.142 127 111 78 0 0
-0.2125 -0.1000 -0.5453 -0.523 -0.840 0.142 103 86 56 0 0
-0.2130 -0.1003 -0.5485 -0.335 -0.936 0.106 90 73 44 0 0
-0.2085 -0.0860 -0.5770 -0.616 -0.683 0.393 29 19 10 0 0
-0.2135 -0.0929 -0.5917 -0.565 -0.773 0.288 69 51 29 0 0
-0.2142 -0.0933 -0.5968 -0.437 -0.849 0.296 87 67 42 0 0
-0.2143 -0.0933 -0.5986 -0.303 -0.870 0.388 79 59 30 0 0
-0.2148 -0.0940 -0.5999 -0.399 -0.887 0.230 108 88 61 0 0
-0.2162 -0.0939 -0.6143 -0.351 -0.937 0.003 132 113 73 0 0
-0.2163 -0.0926 -0.6224 -0.442 -0.883 -0.158 132 113 78 0 0
-0.2149 -0.0878 -0.6332 -0.771 -0.636 0.007 118 101 68 0 0
-0.2091 -0.0654 -0.6894 -0.483 -0.794 0.368 58 47 30 0 0
-0.2256 -0.0912 -0.7244 -0.618 -0.708 0.341 125 111 75 0 0
-0.1354 0.0074 -0.2971 -0.693 -0.452 0.562 58 48 36 0 0
-0.1430 -0.0054 -0.3087 -0.646 -0.282 0.709 153 144 124 0 0
-0.1449 -0.0081 -0.3141 -0.883 -0.293 0.366 59 46 37 0 0
-0.1453 -0.0086 -0.3155 -0.874 -0.433 0.219 61 50 38 0 0
-0.1553 -0.0239 -0.3384 -0.834 -0.456 0.310 62 54 39 0 0
-0.1610 -0.0039 -0.4998 -0.691 -0.633 0.349 57 49 42 0 0
-0.1612 -0.0038 -0.5016 -0.766 -0.547 0.337 73 64 56 0 0
-0.1619 -0.0049 -0.5028 -0.808 -0.435 0.397 63 54 44 0 0
-0.1979 -0.0782 -0.4919 0.213 -0.963 -0.166 78 69 55 0 0
-0.1987 -0.0795 -0.4928 0.419 -0.855 0.307 75 63 45 0 0
-0.2020 -0.0847 -0.4999 0.434 -0.885 0.169 97 80 56 0 0
-0.2027 -0.0859 -0.5009 0.304 -0.855 0.421 124 107 76 0 0
-0.2051 -0.0901 -0.5035 -0.184 -0.851 0.492 114 99 70 0 0
-0.2055 -0.0907 -0.5048 -0.247 -0.834 0.494 88 75 48 0 0
-0.2068 -0.0920 -0.5107 -0.430 -0.841 0.328 73 58 38 0 0
-0.2134 -0.0993 -0.5400 -0.327 -0.895 0.305 112 97 64 0 0
-0.2141 -0.0999 -0.5448 -0.237 -0.955 0.176 104 86 56 0 0
-0.2142 -0.0996 -0.5466 -0.335 -0.936 0.106 103 84 57 0 0
-0.2155 -0.0925 -0.5967 -0.437 -0.849 0.296 75 54 29 0 0
-0.2170 -0.0931 -0.6088 -0.165 -0.895 0.415 139 124 85 0 0
-0.2164 -0.0876 -0.6308 -0.626 -0.779 -0.003 114 98 67 0 0
-0.2165 -0.0876 -0.6326 -0.586 -0.806 0.084 121 106 74 0 0
-0.2166 -0.0872 -0.6348 -0.686 -0.727 -0.019 119 104 71 0 0
-0.2144 -0.0706 -0.6980 -0.497 -0.791 0.357 81 66 42 0 0
-0.2253 -0.0881 -0.7185 -0.413 -0.512 0.753 172 153 115 0 0
-0.1565 -0.0210 -0.3486 -0.844 -0.300 0.445 65 55 40 0 0
-0.1996 -0.0786 -0.4895 -0.366 -0.926 -0.087 74 64 53 0 0
-0.2082 -0.0919 -0.5086 -0.459 -0.782 0.421 64 49 30 0 0
-0.2115 -0.0945 -0.5289 -0.468 -0.882 0.054 98 87 61 0 0
-0.2163 -0.1003 -0.5473 -0.370 -0.913 0.173 96 78 50 0 0
-0.2156 -0.0971 -0.5563 -0.245 -0.889 -0.387 123 107 74 0 0
-0.2120 -0.0874 -0.5696 -0.448 -0.630 -0.634 69 57 40 0 0
-0.2068 -0.0549 -0.6826 -0.461 -0.577 0.674 127 111 87 0 0
-0.2096 -0.0598 -0.6865 -0.422 -0.297 0.857 82 68 40 0 0
-0.2363 -0.0822 -0.8411 -0.786 -0.576 0.225 152 136 99 0 0
-0.2405 -0.0848 -0.8701 -0.618 -0.106 0.779 182 180 180 0 0
-0.1578 -0.0124 -0.3872 -0.721 -0.547 0.426 58 42 27 0 0
-0.1631 -0.0150 -0.4276 -0.517 -0.814 0.263 54 39 19 0 0
-0.1996 -0.0757 -0.4872 -0.059 -0.591 0.804 82 75 60 0 0
-0.1993 -0.0746 -0.4895 0.194 -0.653 0.732 79 69 53 0 0
-0.2098 -0.0917 -0.5081 -0.361 -0.828 0.429 68 52 36 0 0
-0.2101 -0.0921 -0.5096 -0.293 -0.917 0.272 71 55 36 0 0
-0.2165 -0.0985 -0.5411 -0.358 -0.909 0.214 94 77 51 0 0
-0.2126 -0.0849 -0.5706 -0.676 -0.493 -0.548 84 75 59 0 0
-0.2124 -0.0825 -0.5810 -0.688 -0.429 0.585 43 27 9 0 0
-0.2132 -0.0839 -0.5819 -0.871 -0.263 0.415 54 38 17 0 0
-0.2187 -0.0846 -0.6334 -0.518 -0.855 -0.026 126 112 84 0 0
-0.2135 -0.0709 -0.6509 -0.882 -0.284 -0.376 114 100 76 0 0
-0.2130 -0.0622 -0.6897 -0.651 -0.432 0.624 42 27 16 0 0
-0.2135 -0.0630 -0.6909 -0.658 -0.389 0.644 41 27 18 0 0
-0.2183 -0.0697 -0.7049 -0.622 -0.769 0.143 59 43 21 0 0
-0.2291 -0.0875 -0.7232 -0.698 -0.688 0.200 111 97 62 0 0
-0.1465 -0.0014 -0.3121 -0.825 -0.528 0.201 75 63 46 0 0
-0.1469 -0.0020 -0.3135 -0.751 -0.535 0.388 72 62 44 0 0
-0.1644 -0.0141 -0.4275 -0.517 -0.814 0.263 63 44 23 0 0
-0.2003 -0.0738 -0.4861 -0.019 -0.495 0.869 95 86 70 0 0
-0.2123 -0.0922 -0.5140 -0.398 -0.858 0.325 84 68 44 0 0
-0.2424 -0.0811 -0.8697 -0.733 -0.132 0.667 181 181 181 0 0
-0.1474 0.0003 -0.3124 -0.728 -0.655 0.203 54 38 23 0 0
-0.1662 -0.0134 -0.4308 -0.553 -0.831 0.055 71 54 29 0 0
-0.1627 -0.0007 -0.4589 -0.169 -0.975 -0.145 39 32 23 0 0
-0.1994 -0.0690 -0.4849 0.325 -0.462 0.825 72 68 59 0 0
-0.2209 -0.0976 -0.5558 -0.261 -0.920 -0.292 136 118 80 0 0
-0.2210 -0.0973 -0.5577 -0.179 -0.942 -0.283 122 108 73 0 0
-0.2197 -0.0781 -0.6404 -0.350 -0.837 -0.420 114 103 85 0 0
-0.2219 -0.0686 -0.7101 -0.423 -0.869 0.257 70 50 31 0 0
-0.2307 -0.0820 -0.7300 -0.883 -0.430 -0.186 133 117 84 0 0
