ply
format ascii 1.0
element vertex 833
property float x
property float y
property float z
property float nx
property float ny
property float nz
property uchar diffuse_red
property uchar diffuse_green
property uchar diffuse_blue
property uchar class
property uchar detection
end_header
-0.0143 0.0695 -0.3808 0.925 -0.374 -0.068 66 56 43 0 0
-0.0175 0.0745 -0.4202 0.827 -0.561 -0.040 78 66 42 0 0
-0.0176 0.0746 -0.4221 0.827 -0.561 -0.040 79 65 41 0 0
-0.0180 0.0755 -0.4243 0.678 -0.735 0.006 81 66 43 0 0
-0.0183 0.0762 -0.4266 0.584 -0.811 0.026 80 65 42 0 0
-0.0183 0.0762 -0.4284 0.584 -0.811 0.026 77 61 39 0 0
-0.0254 0.0926 -0.4722 0.799 -0.409 -0.441 169 166 168 0 0
-0.0288 0.0942 -0.5483 0.175 -0.863 0.474 22 19 15 0 0
-0.0301 0.0965 -0.5621 0.633 -0.773 0.054 18 17 15 0 0
-0.0311 0.0985 -0.5715 0.559 -0.710 0.428 52 54 53 0 0
-0.0344 0.0995 -0.6504 -0.592 -0.786 -0.177 212 213 215 0 0
-0.0351 0.1011 -0.6535 -0.638 -0.749 0.182 201 202 204 0 0
-0.0342 0.0980 -0.6584 -0.506 -0.562 0.654 114 114 111 0 0
-0.0336 0.0959 -0.6595 0.301 -0.021 0.953 95 93 90 0 0
-0.0278 0.0787 -0.6560 0.740 0.222 0.634 73 70 65 0 0
-0.0115 0.0239 -0.7011 0.219 -0.813 0.539 6 6 4 0 0
-0.0077 0.0106 -0.7143 0.337 -0.538 0.773 90 80 69 0 0
0.0058 -0.0334 -0.7402 0.321 -0.569 0.758 156 137 101 0 0
0.0079 -0.0442 -0.7785 0.768 -0.637 0.067 160 141 99 0 0
0.0009 -0.0330 -0.8661 0.828 -0.305 0.470 108 107 103 0 0
0.0019 -0.0368 -0.8723 0.694 -0.340 0.634 161 160 158 0 0
0.0024 -0.0384 -0.8733 0.728 -0.288 0.622 170 169 167 0 0
0.0171 -0.0058 -0.1619 0.927 -0.085 0.365 178 178 178 0 0
-0.0157 0.0682 -0.3805 0.730 -0.668 -0.142 58 46 30 0 0
-0.0156 0.0676 -0.3821 0.783 -0.587 -0.204 63 52 35 0 0
-0.0158 0.0681 -0.3842 0.777 -0.611 -0.150 70 59 41 0 0
-0.0160 0.0682 -0.3860 0.836 -0.525 -0.163 77 65 47 0 0
-0.0155 0.0668 -0.3874 0.938 -0.327 -0.115 78 65 46 0 0
-0.0295 0.0897 -0.5547 0.418 -0.800 -0.430 18 17 15 0 0
-0.0314 0.0945 -0.5613 0.808 -0.582 -0.091 22 21 19 0 0
-0.0333 0.0995 -0.5680 0.401 -0.868 0.294 25 24 22 0 0
-0.0332 0.0989 -0.5699 0.372 -0.893 0.254 23 22 19 0 0
-0.0378 0.1025 -0.6591 -0.699 -0.651 0.298 110 110 106 0 0
-0.0366 0.0988 -0.6592 0.187 0.099 0.977 93 92 88 0 0
-0.0309 0.0821 -0.6539 0.782 0.350 0.516 85 80 77 0 0
-0.0120 0.0241 -0.6601 0.855 -0.341 0.390 79 68 52 0 0
-0.0124 0.0195 -0.7096 0.096 -0.563 0.821 27 25 20 0 0
-0.0094 0.0098 -0.7140 0.557 -0.494 0.667 90 80 67 0 0
-0.0087 0.0077 -0.7148 0.359 -0.521 0.775 91 82 68 0 0
0.0049 -0.0366 -0.7403 0.773 -0.609 0.179 148 130 94 0 0
0.0066 -0.0435 -0.7572 0.190 -0.939 0.288 168 149 109 0 0
-0.0045 -0.0238 -0.8769 0.896 -0.321 -0.306 112 111 106 0 0
-0.0005 -0.0353 -0.8693 0.833 -0.313 0.456 129 128 124 0 0
0.0011 -0.0403 -0.8722 0.779 -0.277 0.562 164 163 161 0 0
0.0166 -0.0091 -0.1614 0.918 -0.088 0.387 179 178 176 0 0
0.0221 -0.0282 -0.1834 0.679 -0.711 0.181 115 98 67 0 0
-0.0352 0.0993 -0.5682 0.310 -0.801 0.512 28 26 22 0 0
-0.0349 0.0981 -0.5697 0.260 -0.772 0.580 32 31 27 0 0
-0.0451 0.1181 -0.6594 0.067 0.055 0.996 210 211 212 0 0
-0.0414 0.1071 -0.6599 -0.693 -0.658 0.295 111 110 107 0 0
-0.0162 0.0334 -0.6404 0.865 -0.280 0.416 84 78 64 0 0
-0.0156 0.0313 -0.6412 0.823 -0.486 0.292 89 82 67 0 0
-0.0154 0.0305 -0.6429 0.823 -0.486 0.292 90 82 66 0 0
-0.0104 0.0069 -0.7146 0.251 -0.691 0.678 89 80 65 0 0
-0.0102 0.0061 -0.7163 -0.290 -0.837 0.465 97 88 72 0 0
-0.0099 0.0050 -0.7177 -0.478 -0.713 0.514 102 92 74 0 0
0.0031 -0.0368 -0.7384 0.668 -0.669 0.326 152 135 97 0 0
0.0035 -0.0379 -0.7398 0.719 -0.656 0.230 155 138 102 0 0
0.0047 -0.0438 -0.7573 0.550 -0.806 0.217 167 149 109 0 0
0.0047 -0.0442 -0.7614 0.589 -0.700 0.404 159 140 99 0 0
0.0046 -0.0445 -0.7656 0.787 -0.509 0.347 164 145 105 0 0
-0.0009 -0.0406 -0.8724 0.845 -0.346 0.409 157 156 154 0 0
0.0163 -0.0127 -0.1593 0.808 -0.262 0.527 178 178 176 0 0
0.0207 -0.0289 -0.1847 0.874 -0.392 0.288 135 116 80 0 0
0.0213 -0.0312 -0.1873 0.726 -0.309 0.614 132 113 78 0 0
0.0213 -0.0403 -0.2649 0.814 -0.581 -0.019 109 96 71 0 0
0.0212 -0.0404 -0.2665 0.835 -0.543 -0.089 108 96 69 0 0
0.0208 -0.0401 -0.2745 0.728 -0.448 0.519 111 98 66 0 0
-0.0300 0.0813 -0.5365 0.529 -0.638 -0.559 51 45 39 0 0
-0.0469 0.1173 -0.6593 0.067 0.055 0.996 196 197 198 0 0
-0.0456 0.1136 -0.6594 0.071 0.014 0.997 155 155 154 0 0
-0.0177 0.0322 -0.6378 0.821 -0.290 0.491 86 79 67 0 0
-0.0171 0.0303 -0.6388 0.753 -0.520 0.404 88 81 67 0 0
-0.0170 0.0297 -0.6406 0.766 -0.576 0.285 89 82 66 0 0
-0.0168 0.0290 -0.6423 0.728 -0.588 0.353 87 79 63 0 0
-0.0164 0.0276 -0.6436 0.788 -0.488 0.377 95 86 69 0 0
-0.0121 0.0063 -0.7145 0.572 -0.475 0.669 90 81 66 0 0
-0.0117 0.0047 -0.7156 0.554 -0.573 0.604 99 90 73 0 0
-0.0115 0.0040 -0.7173 0.705 -0.429 0.565 105 95 77 0 0
-0.0019 -0.0435 -0.8727 0.845 -0.346 0.409 158 157 155 0 0
0.0158 -0.0159 -0.1588 0.720 -0.538 0.439 178 178 176 0 0
0.0204 -0.0330 -0.1870 0.765 -0.288 0.575 131 113 76 0 0
0.0207 -0.0371 -0.2117 0.825 -0.563 -0.036 112 95 67 0 0
0.0112 -0.0221 -0.3223 0.592 -0.560 -0.580 173 171 165 0 0
-0.0229 0.0656 -0.4421 0.754 -0.657 -0.015 90 76 50 0 0
-0.0504 0.1214 -0.6596 0.090 0.145 0.985 200 200 201 0 0
-0.0183 0.0280 -0.6377 0.756 -0.498 0.424 93 84 71 0 0
-0.0182 0.0275 -0.6395 0.834 -0.474 0.281 91 82 67 0 0
-0.0177 0.0258 -0.6428 0.843 -0.407 0.352 83 75 58 0 0
-0.0014 -0.0332 -0.7265 0.450 -0.475 0.756 162 143 104 0 0
0.0017 -0.0435 -0.7341 0.440 -0.886 0.150 142 127 90 0 0
0.0144 -0.0167 -0.1587 0.701 -0.461 0.544 178 178 177 0 0
0.0148 -0.0178 -0.1600 0.730 -0.577 0.366 176 176 169 0 0
0.0151 -0.0190 -0.1612 0.734 -0.672 0.102 156 150 134 0 0
0.0152 -0.0194 -0.1627 0.782 -0.489 0.385 120 109 86 0 0
0.0192 -0.0439 -0.2656 0.893 -0.447 0.047 100 90 63 0 0
0.0097 -0.0225 -0.3223 0.803 -0.595 -0.007 158 153 142 0 0
-0.0269 0.0686 -0.4688 0.587 -0.809 -0.033 80 71 50 0 0
-0.0267 0.0677 -0.4703 0.574 -0.792 0.210 81 72 52 0 0
-0.0256 0.0642 -0.4728 0.522 -0.434 0.735 91 78 62 0 0
-0.0215 0.0326 -0.6322 0.688 -0.250 0.682 109 100 85 0 0
-0.0162 0.0078 -0.7052 0.488 -0.715 0.500 47 42 33 0 0
-0.0026 -0.0355 -0.7273 0.596 -0.239 0.767 163 143 107 0 0
-0.0053 -0.0453 -0.8744 0.927 -0.321 0.193 154 153 151 0 0
0.0133 -0.0180 -0.1585 0.657 -0.601 0.456 177 175 171 0 0
0.0137 -0.0195 -0.1612 0.719 -0.561 0.411 132 122 100 0 0
0.0139 -0.0203 -0.1625 0.719 -0.561 0.411 125 110 84 0 0
0.0141 -0.0210 -0.1639 0.674 -0.590 0.444 126 111 83 0 0
0.0172 -0.0307 -0.1681 0.670 -0.675 0.309 137 121 88 0 0
0.0173 -0.0313 -0.1695 0.670 -0.675 0.309 131 116 89 0 0
0.0176 -0.0321 -0.1708 0.613 -0.604 0.509 115 102 76 0 0
0.0178 -0.0330 -0.1722 0.613 -0.604 0.509 125 111 82 0 0
0.0179 -0.0336 -0.1735 0.658 -0.622 0.424 130 115 82 0 0
0.0189 -0.0397 -0.1991 0.841 -0.370 0.395 133 114 81 0 0
0.0183 -0.0480 -0.2804 0.715 -0.685 0.139 119 104 72 0 0
0.0184 -0.0482 -0.2819 0.715 -0.685 0.139 115 100 69 0 0
0.0179 -0.0481 -0.2915 0.822 -0.568 0.041 123 109 74 0 0
0.0179 -0.0482 -0.2930 0.819 -0.556 0.141 126 111 77 0 0
0.0179 -0.0485 -0.2945 0.819 -0.556 0.141 128 113 80 0 0
0.0088 -0.0249 -0.3232 0.840 -0.494 -0.225 166 163 157 0 0
-0.0272 0.0637 -0.4688 0.783 -0.390 0.485 74 62 40 0 0
-0.0268 0.0625 -0.4702 0.783 -0.390 0.485 79 67 46 0 0
-0.0260 0.0571 -0.4954 0.710 -0.638 0.298 87 78 64 0 0
-0.0244 0.0356 -0.6300 0.859 -0.389 0.334 101 93 77 0 0
-0.0228 0.0307 -0.6314 0.627 -0.419 0.656 104 97 80 0 0
-0.0222 0.0287 -0.6323 0.603 -0.324 0.729 105 98 80 0 0
-0.0062 -0.0476 -0.8657 0.905 -0.327 0.270 94 93 87 0 0
-0.0065 -0.0476 -0.8728 0.927 -0.321 0.193 144 144 142 0 0
-0.0060 -0.0490 -0.8739 0.905 -0.399 0.150 153 153 151 0 0
0.0170 -0.0354 -0.1732 0.724 -0.514 0.459 134 118 81 0 0
0.0170 -0.0359 -0.1761 0.770 -0.283 0.571 127 111 75 0 0
0.0184 -0.0495 -0.2518 0.910 -0.409 0.061 106 92 66 0 0
0.0070 -0.0248 -0.3250 0.825 -0.197 -0.530 175 172 168 0 0
-0.0298 0.0581 -0.5301 0.962 -0.127 -0.242 25 23 17 0 0
0.0153 -0.0341 -0.1661 0.607 -0.776 0.172 129 113 82 0 0
0.0162 -0.0376 -0.1728 0.699 -0.426 0.575 142 124 83 0 0
0.0167 -0.0413 -0.1899 0.329 -0.877 0.350 141 125 84 0 0
0.0168 -0.0419 -0.1928 0.450 -0.734 0.509 143 128 87 0 0
0.0171 -0.0507 -0.2546 0.837 -0.470 0.280 105 91 65 0 0
0.0171 -0.0509 -0.2561 0.908 -0.392 0.151 103 89 63 0 0
0.0066 -0.0286 -0.3239 0.812 -0.167 -0.560 151 144 135 0 0
0.0055 -0.0257 -0.3265 0.805 -0.196 -0.559 173 169 165 0 0
-0.0046 -0.0008 -0.3641 0.816 -0.527 0.239 87 74 55 0 0
-0.0045 -0.0013 -0.3657 0.816 -0.527 0.239 84 71 49 0 0
-0.0047 -0.0009 -0.3676 0.543 -0.840 0.017 80 66 42 0 0
-0.0280 0.0510 -0.4989 0.850 -0.521 -0.076 82 71 50 0 0
-0.0281 0.0513 -0.5010 0.791 -0.580 -0.194 81 71 52 0 0
-0.0281 0.0510 -0.5029 0.785 -0.596 -0.170 83 73 55 0 0
-0.0284 0.0515 -0.5051 0.762 -0.648 -0.011 86 78 59 0 0
-0.0288 0.0494 -0.5301 -0.087 -0.980 0.177 31 27 19 0 0
-0.0287 0.0491 -0.5320 -0.087 -0.980 0.177 18 17 11 0 0
-0.0186 -0.0027 -0.7056 0.643 -0.714 0.278 70 64 52 0 0
-0.0182 -0.0041 -0.7069 0.467 -0.471 0.749 86 77 63 0 0
-0.0101 -0.0492 -0.8771 0.788 -0.374 0.489 151 150 148 0 0
0.0158 -0.0413 -0.1751 0.670 -0.396 0.628 156 139 100 0 0
0.0155 -0.0418 -0.1839 0.820 -0.424 0.385 155 134 96 0 0
0.0155 -0.0418 -0.1854 0.660 -0.386 0.644 156 138 97 0 0
0.0159 -0.0431 -0.1866 0.660 -0.386 0.644 153 136 95 0 0
0.0158 -0.0431 -0.1881 0.685 -0.583 0.437 151 135 94 0 0
0.0161 -0.0523 -0.2543 0.837 -0.470 0.280 108 94 69 0 0
0.0162 -0.0529 -0.2557 0.837 -0.470 0.280 106 92 67 0 0
-0.0060 -0.0016 -0.3639 0.603 -0.793 0.091 79 67 42 0 0
-0.0060 -0.0018 -0.3656 0.603 -0.793 0.091 81 67 42 0 0
-0.0061 -0.0017 -0.3674 0.432 -0.898 -0.080 89 75 48 0 0
-0.0293 0.0557 -0.4504 0.815 -0.579 0.011 97 84 63 0 0
-0.0287 0.0537 -0.4515 0.448 -0.893 -0.042 95 81 61 0 0
-0.0289 0.0538 -0.4554 0.254 -0.906 0.339 95 79 60 0 0
-0.0282 0.0507 -0.4637 0.699 -0.451 0.555 73 60 40 0 0
-0.0291 0.0517 -0.4758 0.689 -0.722 -0.063 80 68 44 0 0
-0.0284 0.0492 -0.4786 0.552 -0.572 0.606 75 63 40 0 0
-0.0307 0.0492 -0.5323 -0.239 -0.965 0.105 79 74 64 0 0
-0.0020 -0.0641 -0.7619 0.689 -0.712 0.133 157 138 101 0 0
-0.0093 -0.0561 -0.8667 0.834 -0.404 0.377 112 109 106 0 0
-0.0088 -0.0576 -0.8677 0.892 -0.350 0.286 128 127 124 0 0
0.0150 -0.0453 -0.1877 0.795 -0.506 0.334 129 114 74 0 0
0.0157 -0.0494 -0.2032 0.846 -0.454 0.281 131 113 76 0 0
0.0157 -0.0497 -0.2047 0.844 -0.526 0.108 118 100 67 0 0
0.0156 -0.0550 -0.2490 0.876 -0.395 0.276 109 96 63 0 0
-0.0301 0.0516 -0.4565 0.721 -0.692 0.040 89 75 53 0 0
-0.0343 0.0507 -0.5577 0.977 -0.145 -0.154 204 205 209 0 0
-0.0157 -0.0239 -0.7156 0.048 -0.424 0.904 125 109 88 0 0
-0.0035 -0.0659 -0.7653 0.734 -0.678 0.038 154 136 98 0 0
-0.0035 -0.0660 -0.7674 0.734 -0.678 0.038 149 131 93 0 0
0.0144 -0.0482 -0.1886 0.884 -0.265 0.384 139 123 82 0 0
0.0149 -0.0500 -0.1912 0.900 -0.364 0.239 135 117 81 0 0
0.0151 -0.0520 -0.2012 0.945 -0.324 0.038 133 113 77 0 0
0.0147 -0.0510 -0.2029 0.830 -0.485 0.276 135 117 81 0 0
0.0147 -0.0513 -0.2044 0.822 -0.547 0.159 105 89 57 0 0
0.0147 -0.0513 -0.2058 0.787 -0.615 0.052 100 83 53 0 0
0.0146 -0.0549 -0.2353 0.632 -0.715 0.299 115 100 71 0 0
0.0136 -0.0581 -0.2810 0.878 -0.223 0.423 116 103 71 0 0
-0.0285 0.0379 -0.4836 0.755 -0.598 0.268 72 60 37 0 0
-0.0339 0.0472 -0.5317 0.640 -0.765 -0.075 89 78 64 0 0
-0.0344 0.0486 -0.5344 0.214 -0.976 0.039 94 85 71 0 0
-0.0348 0.0466 -0.5579 0.974 -0.162 -0.158 204 205 207 0 0
-0.0355 0.0484 -0.5609 0.978 -0.100 -0.182 204 205 209 0 0
-0.0360 0.0494 -0.5635 0.980 -0.092 -0.176 204 205 209 0 0
-0.0069 -0.0694 -0.8281 0.779 -0.627 0.010 150 135 97 0 0
-0.0072 -0.0692 -0.8306 0.781 -0.623 -0.043 146 132 95 0 0
0.0133 -0.0557 -0.2351 0.430 -0.839 0.335 113 98 67 0 0
0.0134 -0.0563 -0.2365 0.320 -0.846 0.427 104 90 61 0 0
-0.0322 0.0478 -0.4495 0.716 -0.688 0.124 81 71 55 0 0
-0.0297 0.0360 -0.4830 0.789 -0.553 0.267 81 69 45 0 0
-0.0353 0.0459 -0.5313 0.667 -0.741 -0.078 80 68 46 0 0
-0.0363 0.0481 -0.5364 0.298 -0.954 0.015 83 75 54 0 0
-0.0368 0.0457 -0.5659 0.984 -0.081 -0.157 203 204 208 0 0
-0.0364 0.0440 -0.5692 0.853 -0.495 -0.166 204 205 209 0 0
-0.0357 0.0414 -0.5739 0.322 -0.931 -0.171 205 206 210 0 0
-0.0359 0.0417 -0.5762 0.322 -0.931 -0.171 205 206 210 0 0
-0.0347 0.0371 -0.5861 0.992 -0.045 0.120 205 206 210 0 0
-0.0346 0.0363 -0.5878 0.992 -0.045 0.120 205 206 210 0 0
-0.0204 -0.0213 -0.7138 0.587 -0.276 0.761 119 106 84 0 0
-0.0058 -0.0646 -0.7235 0.394 -0.849 0.351 113 100 73 0 0
-0.0057 -0.0652 -0.7252 0.376 -0.902 0.210 127 110 81 0 0
-0.0086 -0.0705 -0.8299 0.725 -0.654 0.218 147 130 93 0 0
-0.0088 -0.0702 -0.8325 0.801 -0.507 0.318 145 130 94 0 0
-0.0123 -0.0648 -0.8675 0.725 -0.395 0.565 124 123 121 0 0
0.0133 -0.0584 -0.2193 0.921 -0.315 0.228 121 105 76 0 0
0.0134 -0.0632 -0.2547 0.872 -0.489 -0.015 110 95 62 0 0
-0.0304 0.0329 -0.4798 0.672 -0.739 -0.044 83 71 45 0 0
-0.0305 0.0329 -0.4818 0.672 -0.739 -0.044 82 69 42 0 0
-0.0365 0.0441 -0.5286 0.821 -0.559 -0.112 79 66 44 0 0
-0.0368 0.0442 -0.5347 0.811 -0.585 -0.013 80 69 45 0 0
-0.0362 0.0406 -0.5491 0.567 -0.735 0.371 110 106 97 0 0
-0.0358 0.0390 -0.5524 0.465 -0.847 0.256 128 127 121 0 0
-0.0375 0.0418 -0.5682 0.853 -0.495 -0.166 203 202 206 0 0
-0.0378 0.0419 -0.5745 0.554 -0.818 -0.155 205 206 211 0 0
-0.0355 0.0340 -0.5847 0.108 -0.563 0.820 205 206 208 0 0
-0.0256 -0.0101 -0.7022 0.855 -0.518 -0.006 46 39 29 0 0
0.0060 -0.0332 -0.1546 0.313 -0.369 0.875 109 100 91 0 0
-0.0324 0.0355 -0.4637 0.627 -0.376 0.683 143 125 94 0 0
-0.0315 0.0315 -0.4736 0.783 -0.621 -0.036 93 81 53 0 0
-0.0315 0.0311 -0.4772 0.759 -0.651 0.020 91 79 53 0 0
-0.0317 0.0314 -0.4793 0.667 -0.745 -0.011 92 80 54 0 0
-0.0319 0.0316 -0.4814 0.672 -0.739 -0.044 92 79 52 0 0
-0.0378 0.0395 -0.5488 0.301 -0.843 0.446 89 81 62 0 0
-0.0376 0.0388 -0.5505 0.323 -0.870 0.372 92 85 68 0 0
-0.0375 0.0382 -0.5522 0.422 -0.879 0.223 94 89 74 0 0
-0.0374 0.0378 -0.5540 0.422 -0.879 0.223 99 96 82 0 0
-0.0394 0.0408 -0.5741 0.554 -0.818 -0.155 202 203 206 0 0
-0.0389 0.0392 -0.5753 0.624 -0.781 -0.025 198 199 202 0 0
-0.0355 0.0278 -0.5878 -0.425 -0.548 0.720 204 205 206 0 0
-0.0263 -0.0145 -0.7083 0.320 -0.531 0.784 54 46 35 0 0
-0.0146 -0.0499 -0.7200 0.220 -0.601 0.768 101 88 71 0 0
-0.0085 -0.0693 -0.7358 0.719 -0.673 0.174 149 129 92 0 0
0.0054 -0.0357 -0.1527 0.848 -0.160 0.505 111 103 94 0 0
0.0059 -0.0373 -0.1539 0.894 -0.200 0.401 107 98 90 0 0
0.0076 -0.0426 -0.1574 0.796 -0.113 0.595 147 133 97 0 0
0.0083 -0.0448 -0.1585 0.900 -0.155 0.408 179 162 122 0 0
0.0111 -0.0658 -0.2557 0.834 -0.546 -0.075 122 107 74 0 0
0.0108 -0.0659 -0.2618 0.835 -0.510 0.209 125 109 76 0 0
0.0108 -0.0660 -0.2633 0.836 -0.548 -0.020 122 106 73 0 0
0.0106 -0.0657 -0.2650 0.739 -0.655 -0.154 118 102 68 0 0
0.0106 -0.0660 -0.2664 0.593 -0.805 -0.010 120 105 70 0 0
0.0105 -0.0658 -0.2681 0.451 -0.892 -0.017 119 104 71 0 0
0.0102 -0.0676 -0.2863 0.910 -0.410 0.063 118 103 70 0 0
0.0104 -0.0685 -0.2892 0.937 -0.339 0.082 127 113 80 0 0
-0.0086 -0.0283 -0.3932 0.621 -0.654 0.432 80 67 42 0 0
-0.0084 -0.0291 -0.3946 0.568 -0.651 0.503 102 89 65 0 0
-0.0359 0.0422 -0.4496 0.689 -0.613 0.387 56 50 40 0 0
-0.0357 0.0414 -0.4511 0.689 -0.613 0.387 62 55 41 0 0
-0.0352 0.0397 -0.4523 0.554 -0.586 0.591 61 53 37 0 0
-0.0394 0.0389 -0.5467 0.883 -0.427 0.195 84 73 47 0 0
-0.0394 0.0387 -0.5486 0.034 -0.861 0.508 85 74 48 0 0
-0.0393 0.0382 -0.5504 0.082 -0.907 0.412 85 74 49 0 0
-0.0394 0.0382 -0.5524 -0.034 -0.957 0.289 86 77 54 0 0
-0.0393 0.0376 -0.5542 -0.034 -0.957 0.289 87 79 58 0 0
-0.0392 0.0372 -0.5560 -0.074 -0.969 0.234 90 81 63 0 0
-0.0381 0.0297 -0.5870 0.334 -0.633 0.699 138 138 131 0 0
-0.0395 0.0331 -0.5930 0.645 -0.483 -0.592 201 201 204 0 0
-0.0270 -0.0088 -0.6395 0.555 -0.667 0.497 72 60 45 0 0
-0.0274 -0.0174 -0.7110 0.680 -0.249 0.690 78 68 56 0 0
-0.0231 -0.0304 -0.7149 0.519 -0.793 0.319 120 107 88 0 0
-0.0218 -0.0342 -0.7166 0.322 -0.291 0.901 117 105 85 0 0
-0.0093 -0.0704 -0.7203 0.863 -0.470 0.185 119 104 76 0 0
0.0090 -0.0535 -0.1745 0.896 -0.397 0.202 166 150 108 0 0
0.0106 -0.0615 -0.2008 0.422 -0.905 -0.061 123 105 71 0 0
0.0102 -0.0610 -0.2054 0.744 -0.657 -0.124 124 109 75 0 0
0.0096 -0.0598 -0.2087 0.432 -0.833 -0.346 126 110 79 0 0
0.0097 -0.0712 -0.2900 0.858 -0.508 0.081 115 104 73 0 0
0.0098 -0.0717 -0.2915 0.918 -0.342 0.200 103 91 65 0 0
-0.0103 -0.0281 -0.3917 0.742 -0.431 0.514 107 95 73 0 0
-0.0101 -0.0291 -0.3948 0.595 -0.744 0.305 117 104 82 0 0
-0.0099 -0.0298 -0.3963 0.143 -0.989 0.038 104 91 71 0 0
-0.0370 0.0398 -0.4506 0.554 -0.586 0.591 54 48 37 0 0
-0.0409 0.0364 -0.5558 -0.110 -0.975 0.192 87 76 52 0 0
-0.0408 0.0354 -0.5614 -0.135 -0.955 0.265 87 79 60 0 0
-0.0407 0.0349 -0.5632 0.309 -0.935 0.171 85 78 58 0 0
-0.0400 0.0297 -0.5872 0.470 -0.748 0.468 86 82 68 0 0
-0.0259 -0.0275 -0.7130 0.289 -0.548 0.785 109 97 81 0 0
-0.0255 -0.0288 -0.7142 0.327 -0.631 0.704 111 99 83 0 0
-0.0231 -0.0360 -0.7156 0.692 -0.706 0.152 113 103 87 0 0
-0.0106 -0.0719 -0.7195 0.927 -0.359 0.108 132 117 85 0 0
0.0050 -0.0439 -0.1543 0.803 -0.507 0.312 119 107 89 0 0
0.0069 -0.0506 -0.1634 0.049 -0.953 0.300 205 186 141 0 0
0.0098 -0.0664 -0.2207 0.821 -0.566 -0.066 122 106 72 0 0
0.0092 -0.0684 -0.2459 0.653 -0.584 0.482 120 103 73 0 0
0.0094 -0.0692 -0.2472 0.653 -0.584 0.482 112 95 65 0 0
0.0095 -0.0695 -0.2487 0.829 -0.495 0.262 116 99 69 0 0
-0.0114 -0.0303 -0.3945 0.731 -0.667 0.143 105 92 74 0 0
-0.0115 -0.0304 -0.3962 0.543 -0.793 -0.277 111 98 81 0 0
-0.0379 0.0361 -0.4569 0.355 -0.796 0.491 84 73 61 0 0
-0.0376 0.0351 -0.4584 0.489 -0.711 0.505 95 83 69 0 0
-0.0374 0.0342 -0.4599 0.489 -0.711 0.505 100 89 71 0 0
-0.0372 0.0336 -0.4615 0.590 -0.529 0.611 107 96 77 0 0
-0.0422 0.0356 -0.5495 0.677 -0.736 -0.012 88 74 48 0 0
-0.0427 0.0366 -0.5520 0.429 -0.862 0.271 88 74 48 0 0
-0.0432 0.0373 -0.5586 -0.030 -0.999 0.037 87 76 53 0 0
-0.0412 0.0278 -0.5864 0.812 -0.556 0.177 76 69 52 0 0
-0.0270 -0.0232 -0.6646 0.853 -0.508 0.119 146 130 99 0 0
-0.0269 -0.0237 -0.6664 0.927 -0.300 0.226 138 122 91 0 0
-0.0268 -0.0244 -0.6681 0.922 -0.225 0.315 127 111 84 0 0
-0.0272 -0.0256 -0.6864 0.956 -0.203 0.211 81 71 51 0 0
-0.0294 -0.0226 -0.7102 0.790 -0.181 0.585 94 82 71 0 0
-0.0276 -0.0283 -0.7128 0.636 -0.241 0.734 98 89 74 0 0
0.0071 -0.0734 -0.2927 0.734 -0.672 -0.098 111 99 67 0 0
0.0070 -0.0733 -0.2943 0.734 -0.672 -0.098 124 109 75 0 0
-0.0380 0.0339 -0.4371 0.489 -0.817 -0.306 7 6 4 0 0
-0.0400 0.0379 -0.4482 0.345 -0.879 0.329 47 42 32 0 0
-0.0401 0.0380 -0.4502 -0.028 -0.952 0.305 49 43 32 0 0
-0.0397 0.0361 -0.4551 0.278 -0.920 0.276 54 47 37 0 0
-0.0391 0.0337 -0.4598 0.216 -0.757 0.617 60 51 40 0 0
-0.0387 0.0324 -0.4612 0.169 -0.639 0.751 66 57 45 0 0
-0.0344 0.0172 -0.4832 0.654 -0.700 0.286 96 84 58 0 0
-0.0429 0.0289 -0.5728 0.762 -0.516 0.392 61 53 41 0 0
-0.0412 0.0201 -0.6011 0.503 -0.773 0.387 87 78 63 0 0
-0.0386 0.0111 -0.6126 0.920 -0.223 0.323 75 67 48 0 0
-0.0380 0.0094 -0.6137 0.832 -0.263 0.488 80 72 52 0 0
-0.0376 0.0081 -0.6150 0.832 -0.263 0.488 94 83 63 0 0
-0.0253 -0.0402 -0.7133 0.369 -0.910 -0.189 107 98 83 0 0
-0.0251 -0.0411 -0.7148 0.172 -0.931 0.323 108 99 84 0 0
0.0002 -0.0384 -0.1494 0.093 -0.409 0.908 177 177 175 0 0
0.0073 -0.0659 -0.2030 0.622 -0.658 0.425 131 115 78 0 0
0.0077 -0.0693 -0.2186 0.586 -0.787 -0.191 116 102 68 0 0
0.0076 -0.0693 -0.2201 0.616 -0.765 0.188 99 84 56 0 0
-0.0393 0.0321 -0.4384 0.646 -0.764 -0.005 10 9 7 0 0
-0.0281 -0.0381 -0.7152 0.741 -0.647 0.179 104 94 82 0 0
-0.0266 -0.0425 -0.7164 0.419 -0.863 0.281 99 89 78 0 0
-0.0132 -0.0840 -0.7437 0.700 -0.681 0.217 150 132 94 0 0
-0.0131 -0.0845 -0.7454 0.700 -0.681 0.217 154 134 96 0 0
-0.0130 -0.0851 -0.7492 0.720 -0.660 0.215 136 115 84 0 0
-0.0137 -0.0886 -0.7882 0.284 -0.933 0.222 170 151 108 0 0
-0.0135 -0.0894 -0.7898 0.431 -0.881 0.194 173 154 111 0 0
-0.0140 -0.0889 -0.7946 0.489 -0.872 -0.034 175 156 113 0 0
-0.0174 -0.0893 -0.8674 0.459 -0.334 0.823 161 158 157 0 0
0.0062 -0.0636 -0.1771 0.759 -0.552 0.345 211 197 156 0 0
0.0063 -0.0642 -0.1784 0.759 -0.552 0.345 209 194 150 0 0
0.0074 -0.0674 -0.1807 0.020 -0.894 0.448 174 160 109 0 0
0.0076 -0.0682 -0.1820 -0.076 -0.866 0.494 176 159 113 0 0
0.0071 -0.0670 -0.1837 0.341 -0.753 0.562 158 140 93 0 0
0.0082 -0.0739 -0.2101 0.617 -0.720 0.319 123 108 75 0 0
0.0068 -0.0720 -0.2255 0.474 -0.811 0.343 125 108 77 0 0
-0.0106 -0.0405 -0.3463 0.692 -0.721 0.018 145 125 87 0 0
-0.0106 -0.0406 -0.3479 0.692 -0.721 0.018 153 136 100 0 0
-0.0107 -0.0407 -0.3496 0.692 -0.721 0.018 149 134 98 0 0
-0.0108 -0.0406 -0.3513 0.686 -0.726 -0.031 163 148 110 0 0
-0.0122 -0.0399 -0.3737 0.805 -0.557 0.204 91 76 53 0 0
-0.0368 0.0141 -0.4802 0.754 -0.648 0.108 100 84 60 0 0
-0.0282 -0.0430 -0.7141 0.555 -0.710 0.433 97 87 75 0 0
-0.0282 -0.0432 -0.7162 0.419 -0.863 0.281 95 84 73 0 0
-0.0180 -0.0707 -0.7090 0.632 0.311 0.710 125 112 95 0 0
-0.0171 -0.0735 -0.7091 0.634 0.257 0.730 122 109 89 0 0
-0.0152 -0.0898 -0.7876 0.543 -0.810 0.220 172 151 107 0 0
-0.0151 -0.0903 -0.7894 0.543 -0.810 0.220 176 157 112 0 0
-0.0151 -0.0906 -0.7914 0.385 -0.922 0.037 176 157 112 0 0
-0.0153 -0.0906 -0.7958 0.601 -0.800 -0.011 175 158 112 0 0
-0.0233 -0.0793 -0.8747 0.671 -0.449 0.590 141 139 137 0 0
-0.0188 -0.0907 -0.8666 0.387 -0.289 0.876 154 153 151 0 0
-0.0184 -0.0922 -0.8676 0.660 -0.495 0.565 163 162 160 0 0
0.0001 -0.0476 -0.1538 0.390 -0.745 0.541 105 96 87 0 0
0.0001 -0.0478 -0.1552 0.127 -0.899 0.419 45 39 31 0 0
0.0061 -0.0684 -0.1834 0.093 -0.901 0.425 176 158 110 0 0
0.0073 -0.0755 -0.2083 0.248 -0.784 0.569 124 111 76 0 0
-0.0116 -0.0424 -0.3457 0.566 -0.806 -0.175 141 126 86 0 0
-0.0118 -0.0421 -0.3475 0.566 -0.806 -0.175 151 133 98 0 0
-0.0118 -0.0421 -0.3492 0.486 -0.868 -0.100 159 143 105 0 0
-0.0117 -0.0428 -0.3506 0.366 -0.924 -0.109 164 150 110 0 0
-0.0118 -0.0426 -0.3523 0.366 -0.924 -0.109 160 149 108 0 0
-0.0119 -0.0428 -0.3540 0.373 -0.928 -0.003 129 116 81 0 0
-0.0119 -0.0430 -0.3556 0.383 -0.916 -0.117 111 96 65 0 0
-0.0442 0.0167 -0.5690 0.871 -0.476 -0.123 61 52 35 0 0
-0.0417 0.0043 -0.6073 0.778 -0.407 0.478 139 124 98 0 0
-0.0318 -0.0285 -0.6435 0.865 -0.423 0.271 101 89 66 0 0
-0.0317 -0.0290 -0.6452 0.850 -0.416 0.325 98 86 61 0 0
-0.0314 -0.0300 -0.6467 0.898 -0.388 0.208 94 82 58 0 0
-0.0256 -0.0784 -0.8736 0.770 -0.561 0.305 114 113 109 0 0
-0.0253 -0.0794 -0.8751 0.526 -0.410 0.746 131 130 127 0 0
0.0047 -0.0690 -0.1833 0.388 -0.862 0.327 171 155 108 0 0
0.0059 -0.0759 -0.2083 0.248 -0.784 0.569 123 109 74 0 0
0.0048 -0.0797 -0.2569 0.889 -0.444 0.107 106 88 57 0 0
0.0043 -0.0808 -0.2736 0.635 -0.764 -0.115 121 107 71 0 0
0.0039 -0.0803 -0.2768 0.532 -0.824 -0.196 128 114 79 0 0
0.0040 -0.0806 -0.2783 0.374 -0.893 -0.250 131 117 82 0 0
0.0035 -0.0799 -0.2832 0.721 -0.687 -0.088 129 115 80 0 0
0.0022 -0.0784 -0.2978 0.542 -0.838 0.066 147 133 94 0 0
-0.0127 -0.0438 -0.3436 0.577 -0.761 -0.297 109 102 72 0 0
-0.0131 -0.0430 -0.3473 0.580 -0.800 -0.156 141 128 95 0 0
-0.0133 -0.0428 -0.3490 0.580 -0.800 -0.156 147 132 94 0 0
-0.0133 -0.0430 -0.3506 0.155 -0.979 -0.130 143 130 90 0 0
-0.0133 -0.0432 -0.3523 0.366 -0.924 -0.109 146 133 93 0 0
-0.0134 -0.0431 -0.3540 0.423 -0.906 -0.025 152 139 104 0 0
-0.0454 0.0145 -0.5701 0.903 -0.424 0.063 67 58 43 0 0
-0.0334 -0.0287 -0.6394 0.846 -0.474 0.243 84 74 53 0 0
-0.0334 -0.0289 -0.6414 0.869 -0.386 0.309 95 83 61 0 0
-0.0291 -0.0442 -0.6649 0.866 -0.500 0.031 116 102 76 0 0
-0.0270 -0.0801 -0.8750 0.735 -0.476 0.482 120 119 117 0 0
-0.0218 -0.0937 -0.8695 0.703 -0.312 0.639 157 157 155 0 0
0.0040 -0.0727 -0.1928 0.153 -0.929 0.337 145 129 85 0 0
0.0031 -0.0711 -0.1991 0.390 -0.914 0.108 117 98 63 0 0
0.0043 -0.0757 -0.2069 0.435 -0.777 0.456 123 106 73 0 0
0.0045 -0.0763 -0.2082 0.248 -0.784 0.569 138 123 86 0 0
0.0045 -0.0798 -0.2327 0.448 -0.813 0.372 116 100 68 0 0
0.0046 -0.0804 -0.2341 0.532 -0.765 0.363 119 103 68 0 0
0.0047 -0.0807 -0.2355 0.494 -0.841 0.218 127 111 78 0 0
0.0039 -0.0830 -0.2653 0.884 -0.464 0.062 123 109 72 0 0
0.0035 -0.0821 -0.2671 0.829 -0.558 0.014 123 109 74 0 0
0.0037 -0.0830 -0.2684 0.545 -0.794 -0.269 115 100 67 0 0
0.0035 -0.0826 -0.2700 0.660 -0.690 -0.296 121 106 70 0 0
0.0038 -0.0834 -0.2713 0.610 -0.791 -0.035 125 110 74 0 0
0.0033 -0.0824 -0.2732 0.812 -0.584 0.014 120 106 71 0 0
0.0014 -0.0806 -0.2972 -0.160 -0.720 0.675 149 135 97 0 0
0.0019 -0.0825 -0.3013 0.280 -0.777 0.564 138 125 89 0 0
0.0021 -0.0832 -0.3026 0.219 -0.589 0.778 135 121 87 0 0
-0.0144 -0.0441 -0.3470 0.566 -0.806 -0.175 106 98 70 0 0
-0.0146 -0.0439 -0.3487 0.212 -0.974 -0.085 151 141 105 0 0
-0.0149 -0.0432 -0.3507 0.056 -0.996 -0.066 141 128 91 0 0
-0.0148 -0.0439 -0.3521 0.169 -0.978 -0.122 143 128 91 0 0
-0.0149 -0.0438 -0.3539 0.423 -0.906 -0.025 146 133 98 0 0
-0.0150 -0.0439 -0.3572 0.467 -0.865 -0.184 134 120 84 0 0
-0.0152 -0.0436 -0.3590 0.467 -0.865 -0.184 127 112 77 0 0
-0.0301 -0.0466 -0.6636 0.926 -0.326 0.188 123 108 81 0 0
-0.0298 -0.0496 -0.6784 0.892 -0.449 -0.043 110 98 76 0 0
-0.0238 -0.0697 -0.7044 0.786 0.307 0.537 83 76 67 0 0
-0.0288 -0.0809 -0.8771 0.893 -0.366 0.262 123 123 120 0 0
-0.0236 -0.0941 -0.8696 0.572 -0.284 0.769 151 151 149 0 0
-0.0229 -0.0963 -0.8699 0.692 -0.488 0.531 161 161 159 0 0
-0.0038 -0.0494 -0.1506 0.105 -0.813 0.573 198 183 148 0 0
0.0028 -0.0714 -0.1771 0.795 -0.392 0.462 183 168 118 0 0
0.0031 -0.0725 -0.1784 0.717 -0.696 0.041 189 175 128 0 0
0.0049 -0.0793 -0.1915 0.389 -0.772 0.503 172 157 111 0 0
0.0027 -0.0775 -0.2214 0.636 -0.761 0.124 126 109 73 0 0
0.0031 -0.0800 -0.2297 0.565 -0.825 -0.001 121 106 74 0 0
0.0025 -0.0839 -0.2682 0.545 -0.794 -0.269 128 114 79 0 0
0.0026 -0.0845 -0.2711 0.665 -0.742 0.079 128 113 80 0 0
0.0011 -0.0850 -0.3022 0.624 -0.535 0.569 133 118 84 0 0
-0.0164 -0.0442 -0.3522 0.169 -0.978 -0.122 109 94 68 0 0
-0.0164 -0.0443 -0.3538 0.305 -0.951 -0.037 128 112 82 0 0
-0.0171 -0.0450 -0.3723 0.621 -0.642 0.449 87 70 44 0 0
-0.0178 -0.0451 -0.3843 0.645 -0.747 -0.163 66 60 46 0 0
-0.0412 0.0034 -0.4953 0.662 -0.749 0.037 105 90 69 0 0
-0.0433 0.0060 -0.5160 0.488 -0.863 0.130 119 105 78 0 0
-0.0433 0.0057 -0.5178 0.488 -0.863 0.130 113 99 72 0 0
-0.0435 0.0038 -0.5346 0.235 -0.778 0.583 105 91 63 0 0
-0.0434 0.0033 -0.5364 0.299 -0.804 0.513 111 97 71 0 0
-0.0441 0.0048 -0.5411 0.514 -0.842 0.167 108 93 68 0 0
-0.0358 -0.0316 -0.6340 0.771 -0.550 0.322 71 62 45 0 0
-0.0356 -0.0325 -0.6356 0.770 -0.596 0.229 101 91 71 0 0
-0.0236 -0.0751 -0.7008 0.948 0.237 0.214 86 78 68 0 0
-0.0191 -0.0874 -0.7002 0.974 -0.198 0.108 137 121 93 0 0
-0.0300 -0.0831 -0.8779 0.917 -0.353 0.187 129 128 125 0 0
-0.0245 -0.0973 -0.8718 0.575 -0.528 0.626 160 163 160 0 0
-0.0005 -0.0647 -0.1639 0.177 -0.739 0.649 206 191 165 0 0
-0.0005 -0.0651 -0.1667 0.217 -0.914 0.344 137 125 96 0 0
0.0020 -0.0736 -0.1782 0.129 -0.989 -0.069 238 228 181 0 0
0.0032 -0.0789 -0.1916 0.303 -0.734 0.608 185 171 125 0 0
-0.0002 -0.0858 -0.3020 0.631 -0.713 0.307 133 118 85 0 0
-0.0176 -0.0456 -0.3535 0.396 -0.917 -0.044 79 64 47 0 0
-0.0180 -0.0467 -0.3684 0.494 -0.739 0.457 89 65 39 0 0
-0.0431 0.0081 -0.4631 0.829 -0.497 0.258 83 75 55 0 0
-0.0427 0.0066 -0.4662 0.736 -0.592 0.328 71 59 43 0 0
-0.0423 0.0054 -0.4676 0.738 -0.528 0.420 82 71 52 0 0
-0.0438 0.0032 -0.5090 0.562 -0.827 0.007 113 99 73 0 0
-0.0462 0.0046 -0.5452 0.438 -0.899 0.015 96 84 61 0 0
-0.0464 0.0044 -0.5492 0.438 -0.899 0.015 95 80 59 0 0
-0.0468 0.0049 -0.5534 0.305 -0.952 0.026 100 85 64 0 0
0.0008 -0.0748 -0.1794 0.368 -0.930 0.012 210 197 148 0 0
0.0008 -0.0750 -0.1808 0.272 -0.931 0.244 215 199 148 0 0
0.0009 -0.0761 -0.1864 0.751 -0.660 0.012 158 142 100 0 0
0.0014 -0.0776 -0.1875 0.551 -0.580 0.600 142 129 89 0 0
0.0018 -0.0794 -0.1915 0.303 -0.734 0.608 190 177 131 0 0
0.0005 -0.0771 -0.1993 0.871 -0.466 0.152 142 128 84 0 0
0.0013 -0.0797 -0.2032 0.621 -0.781 0.063 119 101 65 0 0
0.0013 -0.0800 -0.2060 0.745 -0.547 0.381 118 100 64 0 0
0.0014 -0.0807 -0.2074 0.745 -0.547 0.381 125 108 71 0 0
0.0013 -0.0806 -0.2089 0.385 -0.881 0.276 132 115 77 0 0
0.0014 -0.0810 -0.2103 0.311 -0.907 0.284 134 116 76 0 0
-0.0056 -0.0788 -0.3236 0.841 -0.075 -0.536 24 19 14 0 0
-0.0197 -0.0472 -0.3717 0.679 -0.609 0.409 76 61 42 0 0
-0.0225 -0.0432 -0.3958 0.482 -0.759 -0.439 99 88 65 0 0
-0.0483 -0.0020 -0.5926 0.552 -0.829 0.086 123 108 82 0 0
-0.0214 -0.1071 -0.8089 0.706 -0.689 0.161 174 157 112 0 0
-0.0214 -0.1075 -0.8108 0.706 -0.689 0.161 175 158 112 0 0
-0.0134 -0.0357 -0.1470 0.661 -0.431 0.613 178 177 177 0 0
-0.0122 -0.0391 -0.1479 0.126 -0.983 0.134 178 177 176 0 0
-0.0050 -0.0603 -0.1590 0.467 -0.530 0.707 166 159 145 0 0
-0.0016 -0.0718 -0.1742 0.310 -0.375 0.874 199 182 137 0 0
-0.0011 -0.0734 -0.1754 0.285 -0.530 0.799 214 195 147 0 0
-0.0006 -0.0749 -0.1765 0.316 -0.590 0.743 189 169 121 0 0
-0.0003 -0.0758 -0.1778 0.503 -0.811 0.298 194 178 132 0 0
-0.0002 -0.0762 -0.1792 0.726 -0.684 -0.070 218 205 156 0 0
-0.0003 -0.0763 -0.1806 0.749 -0.660 -0.052 209 194 145 0 0
-0.0003 -0.0788 -0.1975 0.827 -0.562 -0.002 158 142 94 0 0
0.0003 -0.0814 -0.2043 0.463 -0.868 0.181 127 108 69 0 0
0.0003 -0.0816 -0.2057 0.388 -0.910 0.149 119 102 65 0 0
0.0003 -0.0818 -0.2072 0.388 -0.910 0.149 113 98 61 0 0
0.0001 -0.0815 -0.2087 0.202 -0.953 0.224 108 94 56 0 0
0.0003 -0.0846 -0.2258 0.663 -0.741 -0.106 121 106 73 0 0
0.0007 -0.0873 -0.2370 0.846 -0.516 0.133 113 97 65 0 0
0.0007 -0.0877 -0.2384 0.788 -0.614 0.049 108 92 60 0 0
0.0009 -0.0884 -0.2398 0.690 -0.717 0.104 106 90 58 0 0
0.0009 -0.0886 -0.2412 0.685 -0.728 -0.019 111 95 63 0 0
0.0009 -0.0896 -0.2485 0.723 -0.684 0.101 100 84 55 0 0
0.0009 -0.0898 -0.2499 0.643 -0.728 0.238 98 83 50 0 0
-0.0065 -0.0809 -0.3246 0.836 -0.026 -0.548 17 11 7 0 0
-0.0207 -0.0483 -0.3646 0.439 -0.812 0.384 24 18 14 0 0
-0.0207 -0.0489 -0.3695 0.522 -0.792 0.315 71 58 41 0 0
-0.0239 -0.0442 -0.3955 0.603 -0.696 -0.390 90 78 56 0 0
-0.0245 -0.0428 -0.3979 0.641 -0.711 -0.291 88 76 56 0 0
-0.0458 0.0059 -0.4587 0.775 -0.569 0.276 77 65 50 0 0
-0.0456 0.0053 -0.4604 0.775 -0.569 0.276 64 52 42 0 0
-0.0445 -0.0007 -0.4804 0.382 -0.881 0.280 120 108 87 0 0
-0.0367 -0.0458 -0.6403 0.583 -0.768 0.265 84 72 51 0 0
-0.0230 -0.1084 -0.8104 0.414 -0.890 0.189 179 162 116 0 0
-0.0146 -0.0370 -0.1497 -0.008 -0.259 0.966 168 163 151 0 0
-0.0010 -0.0821 -0.2042 0.463 -0.868 0.181 133 116 78 0 0
-0.0011 -0.0820 -0.2057 0.501 -0.858 0.117 111 94 61 0 0
-0.0011 -0.0822 -0.2071 0.501 -0.858 0.117 93 77 46 0 0
-0.0002 -0.0893 -0.2381 0.690 -0.717 0.104 112 97 68 0 0
-0.0002 -0.0895 -0.2395 0.690 -0.717 0.104 96 80 50 0 0
-0.0002 -0.0897 -0.2410 0.730 -0.643 0.231 89 73 42 0 0
-0.0001 -0.0904 -0.2423 0.825 -0.499 0.264 103 87 54 0 0
0.0000 -0.0908 -0.2437 0.817 -0.551 0.171 120 104 70 0 0
0.0002 -0.0914 -0.2450 0.840 -0.465 0.279 105 89 55 0 0
-0.0007 -0.0904 -0.2529 0.882 -0.460 0.104 102 87 54 0 0
-0.0008 -0.0910 -0.2588 0.892 -0.451 0.018 114 99 66 0 0
-0.0219 -0.0490 -0.3611 0.305 -0.934 0.184 30 20 16 0 0
-0.0219 -0.0497 -0.3659 0.433 -0.821 0.373 25 20 15 0 0
-0.0221 -0.0494 -0.3677 0.366 -0.761 0.536 26 18 9 0 0
-0.0221 -0.0497 -0.3693 0.522 -0.792 0.315 50 38 25 0 0
-0.0221 -0.0500 -0.3709 0.668 -0.713 0.211 71 59 44 0 0
-0.0280 -0.0382 -0.3999 0.198 -0.629 -0.752 85 73 56 0 0
-0.0450 -0.0034 -0.4736 0.753 -0.513 0.411 102 90 68 0 0
-0.0504 -0.0062 -0.5907 0.848 -0.195 0.492 134 118 86 0 0
-0.0377 -0.0478 -0.6373 0.518 -0.719 0.463 107 96 74 0 0
-0.0244 -0.1090 -0.8059 0.314 -0.948 0.054 178 162 113 0 0
-0.0249 -0.1093 -0.8169 0.769 -0.631 -0.103 177 161 112 0 0
-0.0142 -0.0427 -0.1503 0.146 -0.825 0.545 162 150 124 0 0
-0.0127 -0.0472 -0.1539 -0.192 -0.396 0.898 147 126 98 0 0
-0.0021 -0.0792 -0.1772 0.224 -0.719 0.658 192 175 135 0 0
-0.0013 -0.0815 -0.1782 0.334 -0.544 0.769 180 163 120 0 0
-0.0009 -0.0832 -0.1822 0.214 -0.926 0.310 183 169 123 0 0
-0.0019 -0.0818 -0.1897 0.420 -0.905 0.066 155 141 94 0 0
-0.0022 -0.0815 -0.1927 0.419 -0.908 -0.031 185 171 129 0 0
-0.0023 -0.0828 -0.2041 0.463 -0.868 0.181 95 80 49 0 0
-0.0025 -0.0826 -0.2056 0.534 -0.845 -0.016 78 64 34 0 0
-0.0012 -0.0935 -0.2551 0.725 -0.543 0.424 102 87 54 0 0
-0.0073 -0.0877 -0.3257 0.846 -0.015 -0.534 7 5 2 0 0
-0.0235 -0.0497 -0.3626 0.475 -0.683 0.555 41 33 26 0 0
-0.0232 -0.0505 -0.3640 0.568 -0.721 0.397 41 33 23 0 0
-0.0303 -0.0370 -0.4005 0.365 -0.538 -0.760 82 73 54 0 0
-0.0493 0.0066 -0.4518 0.586 -0.810 -0.025 50 42 34 0 0
-0.0238 -0.1076 -0.7525 0.745 -0.652 0.141 163 142 100 0 0
-0.0243 -0.1077 -0.7611 0.656 -0.749 0.090 162 144 102 0 0
-0.0243 -0.1080 -0.7630 0.745 -0.664 0.070 165 146 103 0 0
-0.0243 -0.1082 -0.7650 0.752 -0.659 -0.005 173 153 110 0 0
-0.0253 -0.1091 -0.7884 0.695 -0.715 0.082 163 143 104 0 0
-0.0265 -0.1089 -0.8086 0.386 -0.864 0.323 179 162 116 0 0
-0.0264 -0.1095 -0.8104 0.520 -0.813 0.261 181 164 118 0 0
-0.0264 -0.1098 -0.8124 0.421 -0.907 -0.012 178 162 115 0 0
-0.0260 -0.1110 -0.8136 0.401 -0.915 -0.033 175 159 109 0 0
-0.0267 -0.1097 -0.8169 0.363 -0.931 -0.020 176 160 111 0 0
-0.0275 -0.1104 -0.8368 0.803 -0.593 0.058 154 141 101 0 0
-0.0315 -0.1050 -0.8718 0.761 -0.286 0.582 149 148 146 0 0
-0.0313 -0.1057 -0.8734 0.835 -0.374 0.404 159 159 157 0 0
-0.0078 -0.0671 -0.1694 0.094 -0.834 0.544 82 69 58 0 0
-0.0071 -0.0691 -0.1705 0.252 -0.607 0.754 88 74 63 0 0
-0.0041 -0.0780 -0.1760 -0.087 -0.766 0.637 195 187 161 0 0
-0.0038 -0.0790 -0.1772 -0.144 -0.832 0.536 188 176 146 0 0
-0.0036 -0.0826 -0.1983 0.385 -0.922 0.028 77 63 35 0 0
-0.0038 -0.0824 -0.1998 0.306 -0.943 0.134 66 51 27 0 0
-0.0037 -0.0832 -0.2040 0.378 -0.912 0.158 82 68 42 0 0
-0.0039 -0.0832 -0.2070 0.499 -0.864 -0.064 85 73 48 0 0
-0.0041 -0.0829 -0.2085 0.590 -0.807 0.006 87 76 53 0 0
-0.0042 -0.0961 -0.2975 0.845 -0.531 -0.065 143 131 92 0 0
-0.0042 -0.0964 -0.2990 0.682 -0.482 0.550 142 130 92 0 0
-0.0039 -0.0974 -0.3003 0.648 -0.520 0.557 139 127 89 0 0
-0.0036 -0.0983 -0.3015 0.648 -0.520 0.557 135 123 86 0 0
-0.0036 -0.0986 -0.3030 0.508 -0.830 0.230 134 119 86 0 0
-0.0080 -0.0904 -0.3264 0.813 -0.038 -0.581 16 13 7 0 0
-0.0274 -0.1107 -0.8031 0.460 -0.675 0.577 175 159 109 0 0
-0.0276 -0.1107 -0.8075 0.009 -1.000 -0.014 178 161 114 0 0
-0.0277 -0.1110 -0.8095 0.004 -0.976 0.216 179 162 116 0 0
-0.0276 -0.1114 -0.8114 0.174 -0.941 0.290 181 164 117 0 0
-0.0080 -0.0710 -0.1716 -0.092 -0.715 0.693 130 121 103 0 0
-0.0053 -0.0790 -0.1758 0.039 -0.763 0.646 226 220 201 0 0
-0.0051 -0.0798 -0.1786 0.190 -0.824 0.533 167 154 128 0 0
-0.0049 -0.0806 -0.1799 0.190 -0.824 0.533 173 162 131 0 0
-0.0044 -0.0820 -0.1810 0.101 -0.993 0.065 121 111 83 0 0
-0.0053 -0.0813 -0.1928 0.353 -0.931 0.091 62 48 25 0 0
-0.0053 -0.0816 -0.1942 0.243 -0.954 0.175 56 41 18 0 0
-0.0053 -0.0818 -0.1956 0.304 -0.950 0.076 53 39 15 0 0
-0.0049 -0.0831 -0.1968 0.404 -0.902 0.152 50 35 15 0 0
-0.0049 -0.0834 -0.1982 0.404 -0.902 0.152 60 45 23 0 0
-0.0051 -0.0830 -0.1997 0.372 -0.909 0.187 82 68 42 0 0
-0.0029 -0.0927 -0.2240 0.335 -0.847 0.413 112 98 73 0 0
-0.0037 -0.0971 -0.2664 0.801 -0.458 0.384 115 100 67 0 0
-0.0043 -0.0981 -0.2846 0.721 -0.489 0.492 135 123 85 0 0
-0.0097 -0.0903 -0.3282 0.734 -0.113 -0.670 27 22 14 0 0
-0.0265 -0.0527 -0.3754 0.435 -0.897 0.079 67 58 45 0 0
-0.0329 -0.0394 -0.3998 0.217 -0.623 -0.751 56 50 31 0 0
-0.0341 -0.0365 -0.4028 0.054 -0.623 -0.780 50 41 26 0 0
-0.0501 -0.0021 -0.4577 0.561 -0.752 0.344 51 44 37 0 0
-0.0497 -0.0034 -0.4591 0.471 -0.606 0.641 48 39 31 0 0
-0.0540 -0.0091 -0.5714 0.660 -0.644 0.388 106 95 79 0 0
-0.0278 -0.1109 -0.7789 0.679 -0.733 -0.034 175 157 111 0 0
-0.0280 -0.1114 -0.7851 0.630 -0.775 0.052 157 138 96 0 0
-0.0067 -0.0792 -0.1758 0.301 -0.773 0.558 246 237 210 0 0
-0.0060 -0.0814 -0.1783 0.363 -0.708 0.606 146 133 109 0 0
-0.0057 -0.0824 -0.1795 0.091 -0.883 0.461 181 170 151 0 0
-0.0071 -0.0799 -0.1873 0.492 -0.803 0.336 52 37 25 0 0
-0.0068 -0.0823 -0.1970 0.261 -0.965 -0.042 81 67 41 0 0
-0.0069 -0.0825 -0.1999 0.387 -0.897 0.214 96 82 50 0 0
-0.0070 -0.0827 -0.2027 0.257 -0.840 0.478 89 75 47 0 0
-0.0070 -0.0832 -0.2056 0.050 -0.976 0.211 77 64 37 0 0
-0.0047 -0.0982 -0.2631 0.387 -0.921 0.041 118 103 70 0 0
-0.0060 -0.1009 -0.3040 0.573 -0.818 0.043 124 110 75 0 0
-0.0270 -0.0548 -0.3679 0.657 -0.575 0.487 40 31 22 0 0
-0.0286 -0.0526 -0.3807 0.489 -0.872 -0.024 52 43 34 0 0
-0.0287 -0.0526 -0.3825 0.541 -0.835 0.100 55 46 35 0 0
-0.0344 -0.0401 -0.3997 0.086 -0.643 -0.761 47 39 24 0 0
-0.0502 -0.0076 -0.4630 0.750 -0.600 0.280 66 56 46 0 0
-0.0538 -0.0121 -0.5539 0.894 -0.449 0.019 86 77 60 0 0
-0.0258 -0.1006 -0.6440 0.990 -0.063 -0.129 116 102 77 0 0
-0.0293 -0.1118 -0.7764 0.528 -0.849 -0.003 180 161 116 0 0
-0.0294 -0.1118 -0.7786 0.528 -0.849 -0.003 177 160 114 0 0
-0.0294 -0.1122 -0.7804 0.630 -0.775 0.052 173 156 109 0 0
-0.0294 -0.1124 -0.7825 0.630 -0.775 0.052 175 157 111 0 0
-0.0074 -0.0819 -0.1782 0.520 -0.634 0.573 168 154 122 0 0
-0.0072 -0.0827 -0.1795 0.470 -0.770 0.431 117 105 84 0 0
-0.0090 -0.0787 -0.1846 0.421 -0.751 0.509 73 59 46 0 0
-0.0082 -0.0815 -0.1899 0.541 -0.772 0.333 78 63 37 0 0
-0.0084 -0.0818 -0.1942 0.342 -0.938 0.063 78 63 35 0 0
-0.0084 -0.0819 -0.1956 0.185 -0.982 -0.039 92 78 48 0 0
-0.0294 -0.0542 -0.3751 0.343 -0.932 0.118 41 33 24 0 0
-0.0309 -0.0511 -0.3815 -0.048 -0.991 -0.127 49 40 31 0 0
-0.0322 -0.0487 -0.3876 -0.296 -0.909 -0.295 53 41 35 0 0
-0.0311 -0.0516 -0.3882 0.232 -0.824 -0.518 61 49 40 0 0
-0.0319 -0.0499 -0.3906 0.076 -0.821 -0.566 79 70 55 0 0
-0.0561 -0.0132 -0.5676 0.704 -0.696 0.142 47 39 30 0 0
-0.0305 -0.1136 -0.7775 0.580 -0.814 0.024 165 147 101 0 0
-0.0306 -0.1137 -0.7796 0.564 -0.814 0.139 154 137 92 0 0
-0.0060 -0.1036 -0.2663 0.604 -0.748 0.275 101 86 54 0 0
-0.0060 -0.1037 -0.2677 0.459 -0.825 0.329 113 99 66 0 0
-0.0088 -0.1048 -0.3218 0.958 -0.223 -0.183 123 108 73 0 0
-0.0309 -0.0547 -0.3750 0.343 -0.932 0.118 42 33 25 0 0
-0.0311 -0.0544 -0.3769 0.485 -0.816 -0.314 43 34 25 0 0
-0.0317 -0.0531 -0.3791 0.292 -0.898 -0.328 45 36 28 0 0
-0.0319 -0.0530 -0.3809 0.209 -0.951 -0.227 46 37 29 0 0
-0.0326 -0.0514 -0.3832 -0.158 -0.943 -0.293 49 40 31 0 0
-0.0332 -0.0503 -0.3854 -0.061 -0.870 -0.489 49 41 30 0 0
-0.0338 -0.0490 -0.3877 -0.061 -0.870 -0.489 43 34 27 0 0
-0.0344 -0.0477 -0.3899 -0.058 -0.907 -0.417 47 38 30 0 0
-0.0391 -0.0373 -0.4029 0.100 -0.665 -0.740 52 42 29 0 0
-0.0523 -0.0209 -0.5201 0.645 -0.764 0.013 78 69 55 0 0
-0.0313 -0.1158 -0.7717 0.347 -0.937 -0.050 154 135 92 0 0
-0.0316 -0.1153 -0.7743 0.314 -0.949 0.036 163 144 99 0 0
-0.0323 -0.1140 -0.7776 0.227 -0.972 0.059 156 138 94 0 0
-0.0374 -0.1154 -0.8737 0.618 -0.209 0.758 156 154 154 0 0
-0.0358 -0.1196 -0.8721 0.742 -0.358 0.567 166 165 164 0 0
-0.0354 -0.1208 -0.8734 0.742 -0.358 0.567 175 174 172 0 0
-0.0268 -0.0354 -0.1559 -0.116 -0.269 0.956 177 179 173 0 0
-0.0255 -0.0392 -0.1568 -0.082 -0.344 0.935 179 177 171 0 0
-0.0105 -0.0843 -0.1937 -0.141 -0.884 0.445 78 60 31 0 0
-0.0072 -0.1046 -0.2660 0.589 -0.676 0.443 101 86 53 0 0
-0.0096 -0.1069 -0.3212 0.929 -0.296 -0.223 124 110 73 0 0
-0.0108 -0.1043 -0.3253 0.930 -0.338 -0.146 117 102 66 0 0
-0.0351 -0.0499 -0.3857 -0.143 -0.887 -0.439 44 35 26 0 0
-0.0357 -0.0487 -0.3879 -0.102 -0.872 -0.479 46 37 30 0 0
-0.0471 -0.0238 -0.4212 0.777 -0.525 -0.349 93 82 64 0 0
-0.0552 -0.0197 -0.5307 0.789 -0.608 -0.086 58 51 41 0 0
-0.0585 -0.0176 -0.5718 0.796 -0.483 0.365 93 84 68 0 0
-0.0580 -0.0190 -0.5730 0.590 -0.465 0.660 94 82 66 0 0
-0.0338 -0.1155 -0.7811 0.454 -0.872 0.181 101 84 52 0 0
-0.0401 -0.1135 -0.8738 0.886 -0.356 0.297 135 131 129 0 0
-0.0278 -0.0372 -0.1571 0.029 -0.247 0.969 176 176 176 0 0
-0.0124 -0.0820 -0.1841 0.087 -0.947 0.309 90 76 46 0 0
-0.0123 -0.0841 -0.1953 0.174 -0.984 -0.046 105 90 57 0 0
-0.0124 -0.0841 -0.1967 -0.045 -0.999 0.011 101 86 54 0 0
-0.0068 -0.1048 -0.2360 0.443 -0.804 0.398 118 99 64 0 0
-0.0078 -0.1076 -0.2698 0.892 -0.451 -0.024 98 83 52 0 0
-0.0109 -0.1078 -0.3225 0.788 -0.437 -0.434 125 108 75 0 0
-0.0115 -0.1065 -0.3246 0.892 -0.375 -0.253 126 109 74 0 0
-0.0112 -0.1084 -0.3303 -0.236 -0.529 0.815 76 69 52 0 0
-0.0399 -0.0435 -0.3971 -0.068 -0.792 -0.606 37 28 18 0 0
-0.0409 -0.0414 -0.3998 -0.068 -0.792 -0.606 42 33 21 0 0
-0.0420 -0.0390 -0.4025 0.049 -0.745 -0.666 60 51 34 0 0
-0.0483 -0.0252 -0.4208 0.785 -0.546 -0.294 100 89 70 0 0
-0.0542 -0.0166 -0.4634 0.543 -0.838 0.062 62 51 37 0 0
-0.0540 -0.0174 -0.4649 0.648 -0.739 0.184 61 51 36 0 0
-0.0544 -0.0167 -0.4671 0.504 -0.820 0.272 63 53 38 0 0
-0.0264 -0.1123 -0.6075 0.832 -0.553 -0.030 115 101 76 0 0
-0.0268 -0.1136 -0.6223 0.735 -0.665 0.134 150 130 93 0 0
-0.0271 -0.1132 -0.6246 0.786 -0.571 0.239 146 125 88 0 0
-0.0287 -0.1195 -0.6908 0.659 -0.655 0.371 181 164 120 0 0
-0.0285 -0.1202 -0.6924 0.502 -0.693 0.518 181 165 120 0 0
-0.0321 -0.1205 -0.7534 0.551 -0.824 -0.132 164 145 102 0 0
-0.0266 -0.0449 -0.1588 -0.100 -0.248 0.963 176 173 166 0 0
-0.0140 -0.0832 -0.1926 0.114 -0.889 0.444 85 71 42 0 0
-0.0082 -0.1052 -0.2345 0.267 -0.590 0.762 150 130 89 0 0
-0.0081 -0.1055 -0.2359 0.443 -0.804 0.398 153 133 89 0 0
-0.0079 -0.1073 -0.2428 0.543 -0.821 0.176 104 89 56 0 0
-0.0137 -0.1057 -0.3282 0.764 -0.467 0.445 125 111 77 0 0
-0.0139 -0.1055 -0.3299 0.022 -0.489 0.872 127 113 82 0 0
-0.0132 -0.1073 -0.3308 0.041 -0.446 0.894 130 118 92 0 0
-0.0126 -0.1090 -0.3318 -0.189 -0.508 0.841 84 78 61 0 0
-0.0119 -0.1110 -0.3326 0.248 -0.881 0.403 25 20 14 0 0
-0.0418 -0.0431 -0.3957 0.018 -0.777 -0.629 30 23 15 0 0
-0.0418 -0.0432 -0.3974 -0.047 -0.823 -0.566 39 30 19 0 0
-0.0443 -0.0378 -0.4032 0.280 -0.686 -0.671 83 74 56 0 0
-0.0484 -0.0289 -0.4158 0.727 -0.586 -0.360 92 81 60 0 0
-0.0489 -0.0281 -0.4179 0.698 -0.621 -0.357 103 92 69 0 0
-0.0492 -0.0276 -0.4199 0.780 -0.553 -0.292 98 86 66 0 0
-0.0535 -0.0187 -0.4347 0.657 -0.676 -0.333 85 74 56 0 0
-0.0538 -0.0182 -0.4368 0.688 -0.672 -0.274 92 83 64 0 0
-0.0579 -0.0224 -0.5298 0.721 -0.692 0.029 56 49 39 0 0
-0.0579 -0.0226 -0.5317 0.721 -0.692 0.029 57 50 40 0 0
-0.0585 -0.0223 -0.5397 0.724 -0.674 -0.150 77 68 53 0 0
-0.0273 -0.1156 -0.6134 0.658 -0.753 0.005 154 131 97 0 0
-0.0300 -0.1211 -0.6921 0.502 -0.693 0.518 180 165 119 0 0
-0.0297 -0.1221 -0.6934 0.674 -0.683 0.282 181 167 122 0 0
-0.0327 -0.1229 -0.7475 0.230 -0.972 0.040 175 159 114 0 0
-0.0346 -0.1284 -0.8129 0.269 -0.947 0.176 179 163 112 0 0
-0.0346 -0.1287 -0.8149 0.416 -0.909 0.030 180 164 113 0 0
-0.0354 -0.1272 -0.8184 0.226 -0.974 0.023 179 163 114 0 0
-0.0354 -0.1274 -0.8205 0.462 -0.887 -0.017 179 163 114 0 0
-0.0366 -0.1255 -0.8267 0.173 -0.967 -0.186 176 160 110 0 0
-0.0276 -0.0465 -0.1585 -0.141 -0.371 0.918 177 177 173 0 0
-0.0185 -0.0788 -0.2127 -0.200 -0.979 -0.029 67 58 41 0 0
-0.0094 -0.1062 -0.2358 0.253 -0.892 0.374 178 161 119 0 0
-0.0086 -0.1084 -0.2367 -0.153 -0.910 0.385 147 129 92 0 0
-0.0087 -0.1084 -0.2382 -0.003 -0.999 0.033 125 108 78 0 0
-0.0088 -0.1085 -0.2396 0.078 -0.986 0.145 104 88 60 0 0
-0.0091 -0.1078 -0.2413 0.437 -0.868 0.236 102 87 57 0 0
-0.0094 -0.1110 -0.2659 0.581 -0.803 -0.134 105 92 60 0 0
-0.0095 -0.1109 -0.2674 0.716 -0.696 -0.055 117 104 72 0 0
-0.0098 -0.1106 -0.2691 0.787 -0.614 -0.054 116 103 71 0 0
-0.0112 -0.1112 -0.2965 0.535 -0.796 0.282 114 100 67 0 0
-0.0111 -0.1117 -0.2979 0.535 -0.796 0.282 124 110 76 0 0
-0.0146 -0.1074 -0.3277 0.846 -0.445 0.292 124 110 74 0 0
-0.0143 -0.1085 -0.3289 0.845 -0.428 0.320 121 106 73 0 0
-0.0140 -0.1093 -0.3302 0.862 -0.417 0.287 124 109 80 0 0
-0.0137 -0.1105 -0.3313 0.836 -0.443 0.324 120 105 79 0 0
-0.0134 -0.1113 -0.3327 0.337 -0.755 0.563 74 63 48 0 0
-0.0131 -0.1124 -0.3338 0.601 -0.749 0.279 31 25 16 0 0
-0.0439 -0.0424 -0.3979 0.177 -0.802 -0.571 74 63 47 0 0
-0.0456 -0.0389 -0.4029 0.496 -0.639 -0.589 89 80 64 0 0
-0.0495 -0.0306 -0.4152 0.727 -0.586 -0.360 106 94 72 0 0
-0.0501 -0.0295 -0.4175 0.682 -0.671 -0.290 110 95 74 0 0
-0.0570 -0.0162 -0.4471 0.870 -0.464 -0.166 78 68 52 0 0
-0.0584 -0.0138 -0.4537 0.782 -0.616 0.092 42 37 33 0 0
-0.0584 -0.0140 -0.4555 0.652 -0.659 0.376 37 32 28 0 0
-0.0569 -0.0193 -0.4644 0.446 -0.884 0.141 71 60 44 0 0
-0.0279 -0.1157 -0.5941 0.412 -0.518 0.749 122 106 79 0 0
-0.0281 -0.1154 -0.5963 0.160 -0.830 0.534 114 99 73 0 0
-0.0380 -0.1263 -0.8242 0.299 -0.953 -0.044 179 163 114 0 0
-0.0103 -0.1086 -0.2396 0.078 -0.986 0.145 120 106 83 0 0
-0.0102 -0.1091 -0.2410 0.186 -0.891 0.415 119 103 77 0 0
-0.0104 -0.1089 -0.2425 0.477 -0.860 0.184 102 87 58 0 0
-0.0106 -0.1124 -0.2686 0.673 -0.739 -0.041 117 100 67 0 0
-0.0115 -0.1155 -0.3014 0.527 -0.817 0.235 128 112 78 0 0
-0.0142 -0.1132 -0.3305 0.942 -0.333 0.049 130 116 82 0 0
-0.0144 -0.1128 -0.3322 0.806 -0.554 0.208 119 105 75 0 0
-0.0143 -0.1133 -0.3336 0.593 -0.751 0.291 85 74 53 0 0
-0.0141 -0.1142 -0.3349 0.086 -0.822 0.563 41 33 22 0 0
-0.0135 -0.1161 -0.3374 0.501 -0.694 0.516 23 18 14 0 0
-0.0469 -0.0401 -0.4025 0.503 -0.702 -0.504 71 62 49 0 0
-0.0507 -0.0321 -0.4148 0.659 -0.662 -0.358 104 92 70 0 0
-0.0580 -0.0182 -0.4464 0.872 -0.485 -0.065 94 83 66 0 0
-0.0582 -0.0180 -0.4483 0.801 -0.581 -0.145 60 52 42 0 0
-0.0586 -0.0174 -0.4504 0.556 -0.725 0.407 28 23 18 0 0
-0.0593 -0.0159 -0.4530 0.517 -0.849 -0.109 42 37 33 0 0
-0.0585 -0.0195 -0.4626 0.646 -0.515 0.563 62 50 36 0 0
-0.0582 -0.0206 -0.4639 0.646 -0.515 0.563 75 64 47 0 0
-0.0578 -0.0221 -0.4670 0.650 -0.719 0.246 79 70 55 0 0
-0.0578 -0.0224 -0.4687 0.622 -0.758 0.198 73 62 48 0 0
-0.0565 -0.0278 -0.4813 0.621 -0.634 0.460 87 76 47 0 0
-0.0417 -0.1287 -0.8683 0.861 -0.430 0.270 137 135 132 0 0
-0.0410 -0.1310 -0.8707 0.444 -0.236 0.865 164 163 161 0 0
-0.0391 -0.1355 -0.8687 0.612 -0.535 0.583 173 172 170 0 0
-0.0220 -0.0795 -0.2217 -0.168 -0.841 0.515 90 80 61 0 0
-0.0117 -0.1087 -0.2382 -0.040 -0.968 0.247 121 105 76 0 0
-0.0113 -0.1115 -0.2494 0.219 -0.948 0.231 120 105 72 0 0
-0.0112 -0.1136 -0.2608 0.835 -0.550 0.005 115 100 65 0 0
-0.0114 -0.1134 -0.2623 0.731 -0.659 -0.178 120 105 70 0 0
-0.0114 -0.1137 -0.2637 0.756 -0.654 -0.022 112 99 63 0 0
-0.0125 -0.1141 -0.2834 0.823 -0.566 -0.032 62 51 33 0 0
-0.0154 -0.1144 -0.3318 0.900 -0.432 0.059 135 120 82 0 0
-0.0154 -0.1148 -0.3332 0.850 -0.525 0.046 140 124 90 0 0
-0.0153 -0.1152 -0.3346 0.681 -0.713 0.165 126 111 86 0 0
-0.0148 -0.1165 -0.3357 0.293 -0.800 0.523 71 60 43 0 0
-0.0145 -0.1176 -0.3369 0.245 -0.769 0.591 28 20 8 0 0
-0.0594 -0.0197 -0.4477 0.801 -0.581 -0.145 65 56 45 0 0
-0.0600 -0.0184 -0.4502 0.556 -0.725 0.407 29 24 18 0 0
-0.0576 -0.0291 -0.4771 0.497 -0.865 0.064 101 87 60 0 0
-0.0579 -0.0287 -0.4792 0.737 -0.478 0.478 106 93 65 0 0
-0.0408 -0.1234 -0.7897 0.406 -0.827 0.390 74 60 33 0 0
-0.0406 -0.1241 -0.7913 0.387 -0.792 0.471 76 62 35 0 0
-0.0400 -0.1315 -0.8271 0.866 -0.396 0.307 177 161 112 0 0
-0.0400 -0.1320 -0.8312 0.730 -0.678 0.086 175 161 114 0 0
-0.0401 -0.1323 -0.8332 0.730 -0.678 0.086 175 161 115 0 0
-0.0428 -0.1311 -0.8688 0.861 -0.430 0.270 143 142 140 0 0
-0.0420 -0.1334 -0.8712 0.698 -0.438 0.566 169 168 166 0 0
-0.0209 -0.0813 -0.1902 0.132 -0.883 0.450 82 68 39 0 0
-0.0237 -0.0790 -0.2203 -0.185 -0.877 0.444 82 73 53 0 0
-0.0236 -0.0794 -0.2217 -0.251 -0.837 0.486 88 78 58 0 0
-0.0171 -0.0976 -0.2307 -0.096 -0.660 0.745 163 146 115 0 0
-0.0128 -0.1121 -0.2522 0.190 -0.971 0.143 115 101 66 0 0
-0.0131 -0.1160 -0.2798 0.880 -0.475 0.012 93 80 53 0 0
-0.0135 -0.1156 -0.2830 0.823 -0.566 -0.032 36 25 13 0 0
-0.0156 -0.1178 -0.3306 0.812 -0.536 -0.231 128 113 77 0 0
-0.0158 -0.1177 -0.3322 0.816 -0.519 -0.253 134 117 80 0 0
-0.0161 -0.1170 -0.3341 0.652 -0.757 -0.036 131 114 80 0 0
-0.0161 -0.1174 -0.3355 0.184 -0.856 0.483 128 114 83 0 0
-0.0159 -0.1181 -0.3369 0.184 -0.856 0.483 96 86 63 0 0
-0.0149 -0.1207 -0.3375 0.318 -0.845 0.430 41 33 20 0 0
-0.0145 -0.1221 -0.3386 0.284 -0.772 0.569 29 22 17 0 0
-0.0142 -0.1229 -0.3398 0.284 -0.772 0.569 31 23 20 0 0
-0.0624 -0.0174 -0.4527 0.256 -0.877 -0.406 32 28 23 0 0
-0.0589 -0.0313 -0.4819 0.763 -0.498 0.411 101 88 64 0 0
-0.0408 -0.1343 -0.8273 0.760 -0.476 0.443 174 158 112 0 0
-0.0441 -0.1321 -0.8660 0.861 -0.430 0.270 108 107 102 0 0
-0.0438 -0.1335 -0.8693 0.861 -0.430 0.270 147 146 145 0 0
-0.0435 -0.1345 -0.8706 0.756 -0.435 0.490 162 161 159 0 0
