ply
format ascii 1.0
element vertex 674
property float x
property float y
property float z
property uchar diffuse_red
property uchar diffuse_green
property uchar diffuse_blue
end_header
-0.05794110786654148 0.0806487262656862 -0.40212892915632564 101 86 64
-0.05758653920725998 0.08199392747947937 -0.4032610306076631 96 81 60
-0.05760377124492656 0.08178095232400519 -0.4050093960513306 121 107 80
-0.05783775837310783 0.08065909766602672 -0.40712293016400647 155 141 110
-0.057657317855746945 0.08127429380610673 -0.40854674137870967 163 149 116
-0.057409037587159845 0.08217395708390007 -0.4098561756813298 146 131 103
-0.05720996118211972 0.08286734867211051 -0.41124794349790894 105 90 67
-0.056832531780911744 0.08430884906234634 -0.4123361381311128 73 59 39
-0.05656616825559238 0.0852846615870903 -0.413611148374073 83 70 51
-0.05629126922666093 0.08629638850279776 -0.41487026345350564 75 61 42
-0.055977584008189335 0.08747098360468131 -0.416061186560214 72 58 39
-0.05602309122406929 0.08713827642200811 -0.4178714935429945 74 61 40
-0.055969473316835244 0.0872213669575448 -0.4195129166126619 73 61 40
-0.056083409604626086 0.08660091059068119 -0.4214485017547729 78 67 44
-0.05611102394048006 0.0863425321049609 -0.4232371957996383 80 67 45
-0.055947098445820326 0.08688821963531099 -0.42469199673355246 65 49 31
-0.05584100668662561 0.08719099536123827 -0.4262492176557706 61 49 32
-0.055750877254399756 0.08742663201868053 -0.4278358615370146 75 63 46
-0.0556556794741334 0.0876834509273325 -0.42941482111263457 69 57 38
-0.05557872463214945 0.08786351544096516 -0.43102768672470354 74 62 42
-0.05549520932047637 0.08807102210670577 -0.43263031441406086 82 70 49
-0.055391388539221695 0.08836375087512217 -0.4341977694754314 88 75 56
-0.05494473790992341 0.09009745890618137 -0.43514546110917823 89 76 58
-0.054877044802722874 0.09023832455922132 -0.436778369150644 82 69 52
-0.05577451080243616 0.08632085813552336 -0.44017543557840766 71 58 41
-0.05548962421269314 0.08737421881208113 -0.44142072109219316 67 54 38
-0.05481841371565181 0.09005255115346485 -0.4419532151444907 77 64 48
-0.054407908803695504 0.09163481921467342 -0.44296029568230105 99 87 71
-0.05408684138426502 0.09284109266633127 -0.444129937004523 106 95 77
-0.05369713319458928 0.09433636232723722 -0.4451695529205131 105 94 74
-0.05363865722484143 0.09443793887096312 -0.4468258157590947 88 76 57
-0.05359364539120728 0.09448269329605023 -0.44850922645656194 63 50 30
-0.0535486246960441 0.09452731638211517 -0.4501946809473155 71 56 35
-0.05339799090539062 0.09501642652631109 -0.45168218315058534 77 62 41
-0.05345091125670219 0.09464836099244718 -0.45355720216019674 76 62 42
-0.05335303372500781 0.0949150860861614 -0.45514790133269445 73 59 41
-0.053344793145312056 0.09480414679980696 -0.4569116801289893 65 53 37
-0.05331713028206445 0.09477481183157896 -0.45864072933084493 62 50 35
-0.05323352468419355 0.09498099061046131 -0.4602640548652657 63 52 37
-0.05315205261489564 0.09517805566022333 -0.4618930224613677 76 64 44
-0.052622909534567275 0.09726175115308261 -0.4626518034562539 127 112 84
-0.052550204226000694 0.09742189100952915 -0.4642975581567948 181 165 130
-0.05206390532615886 0.09932554715213061 -0.4651332679720128 176 155 122
-0.0516385279337396 0.10097271180082672 -0.46608432532511623 160 138 106
-0.05113751429559579 0.10293915137585284 -0.4668820151467069 168 147 114
-0.050745673048248674 0.1044455324595585 -0.46789155745980404 160 141 107
-0.05032199801592668 0.10608646744252134 -0.46883438219741447 144 127 94
-0.04993631073091823 0.1075674389275519 -0.46984946977004904 144 127 95
-0.04984774991881446 0.10779489881523056 -0.4714582976274507 136 117 86
-0.04979661772620868 0.1078642818079692 -0.4731440408873838 126 109 76
-0.049598345510361574 0.10855456735450254 -0.47453391326852395 124 108 78
-0.048940420693809286 0.11118532960250191 -0.47498935418955796 97 81 57
-0.04872674531328475 0.11194098866662726 -0.4763436702979197 90 74 53
-0.04857963190772701 0.11241560923586359 -0.4778337822594456 79 66 46
-0.04836831832813748 0.11316133570196626 -0.4791924351778517 68 54 36
-0.04823953832498504 0.11355846927182718 -0.48072092199663363 67 51 35
-0.048061135607032054 0.11416518107288469 -0.48214742841433206 79 63 47
-0.04795581813704019 0.11446307459537758 -0.48372593686340903 75 59 43
-0.04779027377490459 0.11501539368406999 -0.4851799231507429 75 59 42
-0.047568899909635004 0.11580366835840727 -0.48651717695155233 81 64 45
-0.04736934165670649 0.11649977352832733 -0.48789966411315283 86 69 48
-0.04721797353266356 0.11699215538331904 -0.48938357638603125 86 66 45
-0.047090447310778424 0.11738368030677411 -0.49091846886526713 87 69 45
-0.04679826786826579 0.11847150445493436 -0.4921040164458551 90 72 48
-0.04700980574385433 0.11742877341573218 -0.4943631097234137 77 59 37
-0.047027559117548766 0.11720535671235262 -0.49621322107007865 65 47 27
-0.046869405523007404 0.117725988431353 -0.4976881748926641 69 52 34
-0.04669604982572083 0.11831092428091095 -0.49913067628187097 71 55 35
-0.046572048154339116 0.11868695587175745 -0.5006802362391519 75 59 37
-0.046500325426440364 0.11884160416149389 -0.5023444034402701 77 59 40
-0.04650000529277161 0.11869379858307968 -0.5041661825481751 59 40 24
-0.04639766599656292 0.11897775916156063 -0.5057673650072688 65 47 29
-0.04631373331711244 0.11918365993806192 -0.5074102933405421 84 66 45
-0.04621959075935178 0.119432679664544 -0.5090322610806426 87 69 49
-0.04612538177379236 0.11968186534542849 -0.510655492496561 87 69 49
-0.04602617270711176 0.11995212163598931 -0.5122690212018233 86 68 48
-0.04592951595570709 0.12021145230191663 -0.5138895801780329 80 62 42
-0.045764350156786246 0.12076104653240718 -0.5153581024078405 78 59 37
-0.04554857737347892 0.12152515086206263 -0.5167131539257239 89 70 46
-0.04546305535621295 0.12173705742309425 -0.5183614503141154 79 60 39
-0.04543838622477882 0.12169078799114795 -0.5201490758131275 72 52 28
-0.04536881469578992 0.12183474766956855 -0.5218372517692742 74 56 31
-0.045200898050720306 0.12239572243167257 -0.5233030223173729 79 62 38
-0.04526538264929954 0.12197071023771694 -0.5253008458163825 80 63 39
-0.04518968628719355 0.12214018212465627 -0.5269807795225834 71 53 29
-0.04510390893837979 0.12235229301165136 -0.5286392304856184 63 45 21
-0.04444120381830392 0.12501306993388978 -0.5289647989234498 65 47 23
-0.044703623358802784 0.1237471371913459 -0.5314299488554246 69 50 26
-0.04445589986012405 0.12464661828275345 -0.5327140225262594 77 57 33
-0.044224220690908964 0.1254780546086216 -0.534034522110597 88 68 43
-0.044199868294137364 0.12542898844362965 -0.5358406251901047 83 63 38
-0.04410078468167994 0.12569716091115124 -0.5374733984923619 81 61 36
-0.04397947513859429 0.1260596494077172 -0.5390550420712984 100 80 53
-0.044502338069065825 0.1236847735982366 -0.542165125147596 118 99 69
-0.044331602298663446 0.12425671550673201 -0.5436365779055138 123 104 75
-0.04443699075920954 0.12365492868491254 -0.5457675793656338 124 107 76
-0.044391307215234294 0.1236950065928218 -0.5475414103023544 121 105 72
-0.044188346420010106 0.12440364444668482 -0.5489393585504541 109 90 57
-0.04425637967208512 0.1239598457251729 -0.5509908921768859 117 101 70
-0.04430246830240681 0.12360904017384346 -0.5529935208428578 123 107 75
-0.04434865994028439 0.1232574794361363 -0.5550002727439867 121 102 70
-0.04435936966104968 0.12305656913621132 -0.5569243926796821 135 116 85
-0.044356236325966567 0.12291429825642464 -0.5588179351826892 130 112 81
-0.04442531348994799 0.12246443530078485 -0.5608918394548492 126 112 79
-0.04412007102170695 0.12360765307288098 -0.5620478187396489 135 123 87
-0.06306885026059801 0.04123849938076274 -0.6295833314306151 50 44 31
-0.06240525725692854 0.04389624577569243 -0.6299899199528008 52 46 34
-0.06172445520449415 0.046628048676942535 -0.6303443390078082 51 44 34
-0.06078583587699922 0.050460384048548246 -0.6300264694926112 52 45 35
-0.06009667628893622 0.0532293927400353 -0.6303403969281651 48 41 31
-0.05995935463598472 0.05364416504067704 -0.6320765886760285 58 49 40
-0.05949641944882864 0.05544861521996275 -0.6329667999947011 64 55 46
-0.05907430942686997 0.057079164299551566 -0.6339589791866828 62 55 45
-0.058545939544574696 0.05916371667470713 -0.6346689805097796 71 64 54
-0.05771732649837096 0.06253086770291866 -0.634584274857537 63 57 45
-0.057037018953889 0.06526550784763216 -0.6348795262320905 67 61 49
-0.05653055329767981 0.06725823475648099 -0.6356261667919436 58 52 40
-0.0555809745759585 0.07114458567049353 -0.6351913367272833 53 47 35
-0.055024209755369084 0.0733534588452899 -0.6357892638250552 60 54 42
-0.05462533330431923 0.07488805288249353 -0.6368026723520115 64 58 46
-0.054172026787388576 0.07665560714879299 -0.6376666074636039 54 47 36
-0.053494097764071415 0.07938387256958848 -0.6379218964042608 71 63 53
-0.05287603814221941 0.08185683130309959 -0.6383301860252049 71 64 53
-0.05236284383621191 0.08388191582326104 -0.6390148635507183 79 72 61
-0.051818349703079934 0.08604134887770531 -0.6396088763524928 70 63 52
-0.05133177324427489 0.08795350449139341 -0.640354490364414 83 76 65
-0.05082655431049734 0.08994585712256303 -0.6410439318000083 64 56 47
-0.05016543964423395 0.0926058549452477 -0.6413002162361052 57 49 39
-0.049724664508528735 0.09432338296939227 -0.642154481647517 47 41 32
-0.0492385997625884 0.09623516674100849 -0.6428792847466411 50 42 34
-0.04859883584438394 0.09880550935704308 -0.6431731152812812 63 54 45
-0.047865675539624765 0.10177649523960813 -0.6431993767083698 68 59 49
-0.04724773788034493 0.10425473301782598 -0.6435371229819121 58 48 39
-0.047185128291452307 0.10435449285805906 -0.6454203936215307 68 58 46
-0.04696647976826341 0.10512266898129125 -0.6468681812242221 59 47 34
-0.046617636685348254 0.10644884909111046 -0.6479489975694555 46 36 23
-0.04627260844504773 0.10775890939189464 -0.6490377525218974 71 61 48
-0.04627666251448055 0.107572639128238 -0.6511127692946161 61 52 36
-0.04603465280022216 0.10844116372718879 -0.652491971015468 37 29 17
-0.04569399463453591 0.10973282700296805 -0.6535889776211774 33 25 13
-0.045238146761142135 0.1115188022356271 -0.6543537599386247 74 67 52
-0.04510860128495975 0.11190529841990418 -0.6560501437614431 68 57 43
-0.044734285386760934 0.11334197675595639 -0.657042988543941 63 51 39
-0.04443243861952557 0.11446791916788951 -0.6582417926505243 52 40 28
-0.044089064259212905 0.11577227864405251 -0.6593182555778483 59 47 34
-0.04409502923649357 0.11557710859293877 -0.6614073307571965 78 66 52
-0.04401684228847643 0.11574297737205957 -0.6632546905230842 69 56 42
-0.04369013733370393 0.11697596887909709 -0.6643772118823591 61 48 33
-0.04292177067874339 0.12010627822549608 -0.6642012189452533 63 48 32
-0.042709914857937924 0.12084660391562033 -0.6656527263513128 59 45 29
-0.042628791399417665 0.12102521341698208 -0.6674899145881008 75 62 44
-0.04265141346998969 0.12075778841781015 -0.6696364955227241 95 82 63
-0.04237561141284186 0.12177279688712117 -0.670900258836569 98 86 64
-0.04241969832997001 0.12141266183750832 -0.673116057235889 94 83 63
-0.0421358738737814 0.12246217816734545 -0.6743556875409668 67 56 43
-0.04221730441253907 0.12194096431557716 -0.6766892906694579 54 44 34
-0.042061329123880706 0.12244053575290978 -0.6783136332429042 40 29 20
-0.0416596874543389 0.12399697992768932 -0.6791970825254917 48 37 28
-0.042528252699542524 0.12008796412528855 -0.683922861045719 45 35 25
-0.04260258022476988 0.11959557818336405 -0.6862561765472147 59 49 36
-0.041393488637626354 0.124627402051944 -0.6846839788090333 67 55 39
-0.04137010524045845 0.12455586629684184 -0.6867166080840512 42 33 20
-0.04135634704408155 0.12444261986863184 -0.6887819607279764 35 26 18
-0.041259236138561146 0.12468809059649863 -0.6905943653705926 26 20 16
-0.0411822794501073 0.12484659320542832 -0.6924707700080127 14 10 7
-0.041828377729484674 0.12188962482933349 -0.6965869555788242 17 13 10
-0.042795329476701886 0.11754869029936141 -0.7017151845469395 19 15 12
-0.042606450082382744 0.11818765726069139 -0.7032666854700067 18 14 14
-0.04237324893763383 0.1190176802443989 -0.7046798637992251 17 13 12
-0.04177374258056105 0.1214271444903447 -0.7049446713959587 24 19 14
-0.04147717469682598 0.1225308433462797 -0.7061536955064276 34 29 19
-0.04100212478639922 0.12440453807009993 -0.7067981191687808 76 66 52
-0.04056888580276524 0.12609830421098986 -0.7075693135297646 86 76 58
-0.04008036055244697 0.12803099992599642 -0.7081605225659475 65 57 40
-0.03969280298465682 0.12952842692871885 -0.7090672214781636 91 82 65
-0.040021738875523814 0.12793348673021793 -0.7122565219311771 98 89 73
-0.03920171773322101 0.13129799404972217 -0.7117784092885494 89 80 65
-0.038563457561336854 0.1338786575612501 -0.7118716300766197 83 74 59
-0.03848659804103311 0.13403545554059168 -0.713764047759266 92 82 65
-0.03816956089213488 0.13522953954010913 -0.7148829318859421 99 88 69
-0.037705313211359504 0.1370598319788711 -0.7155224283889384 110 99 79
-0.03742154542939987 0.1381106696530526 -0.7167431061795104 112 101 82
-0.035986855714829215 0.14413595587966185 -0.714210441402653 112 101 85
-0.035765864362255484 0.14491664543994476 -0.7156214190080321 98 84 66
-0.03550019387220155 0.14589055898487854 -0.7168852931112336 131 115 82
-0.0350403124213662 0.14770444661481152 -0.7175088904779736 157 143 99
-0.03462491960385161 0.14932634559132799 -0.7182739368565974 116 101 67
-0.03434735777356125 0.15035234358019736 -0.719490620647333 89 75 48
-0.03408779689639939 0.15130059487280975 -0.7207653243906192 76 62 39
-0.034059588884908926 0.15124773398145172 -0.7228088286826583 65 49 29
-0.03381513282695314 0.15213063965402648 -0.7241335301471898 75 58 36
-0.033536690016992804 0.15316077297166067 -0.725343338128825 106 92 56
-0.033562740884745756 0.1528725467984019 -0.7275741831276593 151 135 88
-0.033079332658845315 0.15479041722814882 -0.7280929940271522 158 135 88
-0.03391226049382293 0.15100667202790136 -0.7330539406530474 140 119 84
-0.034823454077259695 0.14688214342657804 -0.7383007639439803 103 89 56
-0.03545499682442156 0.14396764468956375 -0.7426192391097833 76 60 35
-0.03595772566761271 0.1416100967632012 -0.746515202727934 107 92 67
-0.03703970661925899 0.13674027863180213 -0.7524060116027649 101 87 61
-0.03856676961505277 0.1299384963875219 -0.7598491797875663 109 94 68
-0.039183634927835005 0.1270811608399151 -0.7641964558595659 108 94 69
-0.039797600731210823 0.12423504637818589 -0.7685502942984898 68 55 37
-0.0393345430506556 0.126060169827943 -0.7691939848411641 47 36 24
-0.03967714292145965 0.12438977267535917 -0.7726282154052562 36 31 19
-0.0397758555199817 0.12377696645399172 -0.7752246270616545 22 16 9
-0.03963435445178552 0.12420641594080006 -0.7769885701524394 35 28 21
-0.03918243684930967 0.12598353160270673 -0.7776668648794316 24 17 10
-0.04000223615318415 0.1222384800556024 -0.7828055323294288 26 17 13
-0.03975327498621325 0.12313384146434397 -0.784201264593365 28 18 16
-0.03927545083891255 0.12502354035207436 -0.7847876030917041 29 19 13
-0.03849064610709354 0.12824759236802033 -0.7842807115054198 33 22 14
-0.03824856193261129 0.1291139677007439 -0.7856898627046611 44 30 20
-0.03798117725872266 0.13009039497414224 -0.787007957304205 56 41 28
-0.03760350790102498 0.13154642605781708 -0.7879305023758166 57 43 29
-0.03754392065882143 0.1316195612497133 -0.7899893280704744 75 60 47
-0.03720736471148338 0.1328971135286841 -0.7910554904437946 64 50 35
-0.03687965442900511 0.1341364213898134 -0.7921506489516086 64 50 33
-0.036721260429700295 0.13463923302840386 -0.7938552434581894 59 45 28
-0.03647793428992752 0.13551160080527005 -0.7952527142282726 47 33 17
-0.036325964878189974 0.13598638355444656 -0.796981448162767 52 39 21
-0.035776781942281156 0.13819044330210428 -0.7972625223534151 83 71 48
-0.03549871889661739 0.13921449530453428 -0.7985278166099823 80 67 41
-0.03533565097653095 0.13973783070413118 -0.8002132294425598 88 75 54
-0.03511142291562456 0.14052753894146847 -0.801674386275568 86 73 52
-0.034981448786573 0.1409066111879638 -0.803482715938139 100 86 62
-0.03440003988460611 0.1432529438958369 -0.8036221912049819 86 71 49
-0.03409085279091415 0.1444133501196928 -0.8047636054281766 88 73 52
-0.03450880803812889 0.14240375431799582 -0.8086085518405619 72 56 35
-0.03432664744239085 0.14300999336478706 -0.8102270283389744 67 51 29
-0.03422209574360025 0.14327770927126654 -0.8121363106227015 60 44 19
-0.03399865724302867 0.14406389687209042 -0.8136013624454771 68 52 28
-0.03393307342721804 0.14416135965511936 -0.8156600648226905 84 69 43
-0.03401247914385015 0.143625826182332 -0.8182689529652177 90 76 49
-0.03383989986414273 0.14418973680862793 -0.8199298749751899 80 65 39
-0.03365043057198803 0.14482734294724514 -0.821527230724476 66 50 27
-0.03279024533058695 0.1483938499305885 -0.8205710822496649 62 45 25
-0.03255190254404248 0.14924548687427763 -0.8219749331023549 61 45 25
-0.03217455167615333 0.1507044707987704 -0.822845619381619 71 55 31
-0.031960742598433345 0.1514491756673055 -0.8243404003550974 82 66 39
-0.03258397203930128 0.1485357041022132 -0.8290582298248803 76 58 32
-0.03248737695382611 0.14876733914759302 -0.8310141238694437 90 72 40
-0.03138716287550923 0.1533868210719389 -0.8290853792858934 94 76 40
-0.03132208418668345 0.1534811677652475 -0.831157126815413 122 102 63
-0.03125141425353745 0.15359973203363256 -0.8332100121260403 136 117 77
-0.031179606517702158 0.15372304494203162 -0.8352612530394532 124 106 75
-0.032127222310595185 0.14938532646692007 -0.8413082380229081 90 75 48
-0.03176218312744743 0.15079065107872477 -0.8422245295995542 78 63 35
-0.03152612223212823 0.15163165858371447 -0.8436451907323839 97 82 54
-0.02981233875794599 0.1589429869712763 -0.8392278430154059 89 75 46
-0.030346962677247298 0.1564103064280799 -0.8436832860278771 87 72 38
-0.029863785223245683 0.1583346196450943 -0.844111943504961 109 90 51
-0.02965733389853286 0.15904704291075003 -0.845636588264137 124 105 63
-0.02961786117894421 0.15902775135411854 -0.8478280753149072 137 119 76
-0.02998058083210501 0.15724532041858832 -0.8516342691800227 136 119 76
-0.029448082930162843 0.15899980854594786 -0.8565815930768376 150 131 94
-0.02942131313623849 0.15892334237055855 -0.8588422510627675 103 96 69
-0.02954141287283251 0.15820213710169748 -0.8617034216653008 63 60 44
-0.029739472449883578 0.15713820282027366 -0.8648893978032506 48 44 34
-0.030316132278278014 0.1544116391358839 -0.8696309636798798 65 57 44
-0.02978180077129424 0.15656143604474446 -0.8698391789030245 94 89 78
-0.028713757448951008 0.1610556152919189 -0.867847422558788 131 131 127
-0.08129963090733348 -0.006801388990899049 -0.2327781986640815 179 179 180
-0.08345080112813948 -0.015865870700024987 -0.23622629477021787 179 179 176
-0.08275575158441116 -0.013116836774255028 -0.2372334676254015 169 168 161
-0.08196019537238212 -0.009949973568524506 -0.2381465799082355 132 121 108
-0.08123481371518336 -0.0070738744734173825 -0.23911394559021376 117 101 83
-0.08114463416657124 -0.006835208100603077 -0.24063743682107686 119 103 82
-0.08100731835095418 -0.006400856643899583 -0.2421200157178334 121 105 85
-0.08098382158966463 -0.006439361970070903 -0.24370539427234203 120 105 82
-0.08095644104959052 -0.006461898246392678 -0.24528922378494883 96 85 65
-0.08070089270488832 -0.0055365402173905565 -0.24666720998754527 58 47 33
-0.07925348520721376 0.00034179452978792824 -0.24695167487073832 70 60 49
-0.078953556749734 0.0014523777541953498 -0.2482795481438479 97 87 75
-0.07852543096479996 0.003095956725387969 -0.24948685550644156 113 102 91
-0.07757645918333378 0.006905045863076137 -0.2502039617003354 125 113 98
-0.07704972851388787 0.008959386181084952 -0.25130909508011867 145 127 105
-0.07678308760194373 0.009932575761013682 -0.25265643254502873 186 166 140
-0.07644127194085187 0.011218489316110858 -0.25393099363594374 195 177 153
-0.07607841512091512 0.012592088808349541 -0.2551833489492312 146 132 109
-0.07576076168027941 0.013777842669594198 -0.25647712105761433 104 91 71
-0.07558309269174854 0.014381357156971988 -0.25790534464677173 76 62 44
-0.07534582402431436 0.0152328553295374 -0.2592752635497771 52 39 24
-0.07516879725929346 0.015833722143078113 -0.26070382619297766 52 39 28
-0.07505033535795338 0.016190841346023943 -0.262190502751024 48 37 29
-0.07494364571945149 0.016498892376335034 -0.2636897093546468 48 38 30
-0.07418929143550057 0.019503097457366975 -0.26453955056475187 114 99 84
-0.07390028002937973 0.02057044036899358 -0.2658523313528688 170 154 126
-0.07373537664475366 0.021121103976511735 -0.2672899209850341 197 184 156
-0.07339335007951543 0.02240940039422823 -0.26854650885470865 185 170 145
-0.07304890843839223 0.023707929301499703 -0.2697985649395429 162 143 111
-0.07269608346454383 0.02504155684556139 -0.27103985775251316 146 126 94
-0.07232950161321369 0.0264326843235798 -0.2722646238028906 129 112 83
-0.07206072097518673 0.02741649825714683 -0.27358955169353344 124 106 81
-0.07178379824275688 0.028434338588392033 -0.27490476066574726 94 80 54
-0.07158758295282505 0.02911590784133379 -0.27630437316775414 79 68 47
-0.07154264854784571 0.02916689808166044 -0.2778652705162536 66 51 35
-0.07155886943027227 0.02896279035218162 -0.27949356782719587 33 21 14
-0.07165211120818846 0.028437333659910746 -0.28120758337570956 45 25 17
-0.0718363050062343 0.02753230906335946 -0.2830239435226011 135 111 86
-0.07168903107770527 0.028009292340910416 -0.2844826424804038 215 197 163
-0.07133170560240502 0.02936238542613126 -0.285710801508393 182 166 137
-0.07097624507087069 0.030707891563379164 -0.28693874602198455 127 106 73
-0.07055402787915588 0.032332110630085203 -0.28809016810886034 145 132 98
-0.07013952218163351 0.033924416429004914 -0.28924709355898975 124 108 80
-0.06906138864726162 0.03828648883232906 -0.2896541459551617 121 104 79
-0.0690364954849176 0.03825349429008959 -0.2912416920888773 140 123 96
-0.06875837985175956 0.03927737832226562 -0.2925429842053248 153 136 103
-0.06868345506030007 0.039453062217154486 -0.29407561708833174 174 155 121
-0.06840564044206988 0.04047579492468842 -0.2953760098968749 177 157 122
-0.06823483157261993 0.041051776053373706 -0.29679901936790914 154 137 99
-0.06799757734808527 0.041905262899053136 -0.2981447714585673 147 131 100
-0.06778459607472352 0.04265742220813552 -0.2995181887049448 111 93 62
-0.06741148420277886 0.04407859646434843 -0.30070261596509884 101 86 54
-0.06739568807405906 0.04400702958648703 -0.30230757348352494 109 95 67
-0.06733035352107825 0.0441422928039462 -0.30385569490061376 99 87 63
-0.06686334100666044 0.04595618915628333 -0.30492444176520656 81 70 50
-0.06666608212675373 0.04664285621570853 -0.3063141150862309 48 38 22
-0.06655479229982485 0.04697015128052852 -0.30780760026776016 37 27 16
-0.06636661622922368 0.047618835188371164 -0.30920841564894797 33 23 13
-0.06631436552921627 0.04769914323477381 -0.3107754218689124 40 28 16
-0.06629412583892429 0.04764543364317381 -0.31238348676706357 65 51 33
-0.06612663280883202 0.048207465750982365 -0.3138115387802721 106 92 66
-0.06599541411196365 0.04861773851742664 -0.3152848528657366 134 120 91
-0.06575288337432812 0.049493670065740875 -0.31661965897563693 130 118 89
-0.06588107927818185 0.04881839853788221 -0.3184195285565443 85 73 49
-0.06575971583874336 0.04918718046924972 -0.3199082063873479 57 44 27
-0.06571957169680208 0.04921594940174687 -0.32150081655444773 51 37 24
-0.06542969930708696 0.050289950870018404 -0.32277644818092976 47 34 20
-0.06529341274647657 0.05072106258773562 -0.32424772603758717 56 39 25
-0.06479219583524398 0.05268017904075578 -0.32524876415070814 102 87 68
-0.06450680743942927 0.0537358110228046 -0.3265253876972254 124 112 88
-0.06426730292225229 0.0545993843001074 -0.3278604007656317 106 90 70
-0.06402508235699317 0.0554744036314289 -0.3291910447039122 112 92 71
-0.06369718168423848 0.05670845421497572 -0.3304079913421486 156 139 106
-0.0634150206657446 0.0577510211240191 -0.33168348220785865 187 175 136
-0.06309954115957443 0.058933333079432146 -0.33291324530671196 168 154 120
-0.06298639791686036 0.059267759874620574 -0.3344117629408601 115 100 71
-0.06287589848270413 0.05959102856516614 -0.335914728061309 90 75 50
-0.06256303437221 0.06076261203552166 -0.33714523551338493 72 55 37
-0.062448762363531946 0.06110165769179357 -0.3386435663738719 62 46 31
-0.06249831449291433 0.06075362316163532 -0.3403663332374797 68 53 37
-0.06265550796998967 0.059953862115128556 -0.3422398426056225 53 43 26
-0.06247747927427412 0.06055987182082431 -0.3436559288511277 62 54 36
-0.06229340846686395 0.06119122828854266 -0.34506366574483943 60 48 33
-0.06223526997418255 0.06129419412267227 -0.3466466322462126 41 28 17
-0.0621674027354568 0.06143784503583889 -0.3482176560152686 47 33 19
-0.062090435912922584 0.06161955710198795 -0.3497774244652541 58 45 28
-0.06236611334908386 0.06032088246276057 -0.35183674906883794 55 42 27
-0.06244284911152932 0.059856873568579966 -0.3536199600774529 55 43 31
-0.06242636837234638 0.05978396067587197 -0.3552737548695583 50 40 28
-0.06254921556735342 0.059125765361192115 -0.35712951584179503 45 36 27
-0.06274031867582051 0.05818054174389031 -0.35908778298696054 34 25 18
-0.06275869040894064 0.057960448155806685 -0.36080123455198554 26 19 13
-0.06268562596725845 0.05812425616694113 -0.36238449495749775 28 19 12
-0.06257769046595221 0.05843445565946985 -0.3639183080465713 46 36 28
-0.06186436335139815 0.06128861821195193 -0.3645643916075321 63 53 42
-0.06132126594794718 0.06342794977072139 -0.3654541410908264 84 74 62
-0.060838458088743066 0.0653142832078471 -0.36642817542128864 102 92 78
-0.060138061443205486 0.06811573967588874 -0.3670739809991585 95 84 65
-0.059509855673549224 0.07061427378168995 -0.36782049320853316 88 75 58
-0.05908282337908471 0.07226734934965162 -0.36886308497862297 84 71 53
-0.05886775367743489 0.07302923023973007 -0.370222278792721 78 65 48
-0.05857085447721398 0.07413536780108591 -0.3714568229019276 71 58 39
-0.05893609094234954 0.07245599074961177 -0.3736989277994706 79 67 45
-0.058854180071204645 0.07265741248313654 -0.3752640293008731 83 71 49
-0.058682344908325135 0.07323714313047137 -0.37669218050466835 90 78 56
-0.058897409700882114 0.07218845103508155 -0.378718363110788 103 88 67
-0.05915208303826926 0.07097255305486308 -0.3808116408405304 92 77 58
-0.05892788307294576 0.07177222541242893 -0.38216423898599167 71 58 39
-0.058553184286539245 0.07320565315028645 -0.3832804214588345 77 63 44
-0.05838203731105901 0.0737821010835866 -0.38471419462290884 93 78 57
-0.058656364553369165 0.07248224996032383 -0.38685239049325343 99 84 63
-0.05838092829146353 0.07349772434325413 -0.38812397931058223 96 81 60
-0.0581238456726232 0.07443598814147971 -0.38942348837697316 99 84 64
-0.05683765683085724 0.07971069972131617 -0.3890727763385323 101 85 63
-0.056693448253394764 0.08017408913578715 -0.39054438217084764 95 78 52
-0.05691460487607623 0.07909744768691997 -0.3926072386996404 114 97 69
-0.056898053345703886 0.07902238476801315 -0.3942898167780456 177 163 133
-0.056771322372465516 0.07941165513576312 -0.3957950186861509 221 211 181
-0.05646978482920794 0.08053797786269229 -0.39701456991014955 233 224 196
-0.056148617560769276 0.08174723548910888 -0.3982000572089434 222 211 182
-0.05583948281380073 0.08290591352539081 -0.3994033869291772 202 190 162
-0.055650690831038296 0.08355707219654494 -0.40080463768316293 145 131 106
-0.055859686410558176 0.08252988899767816 -0.40286907242921444 87 73 49
-0.055798314013993225 0.0826431348128161 -0.4044863572810906 88 74 51
-0.05578168038687544 0.08256741608588386 -0.406180627013572 98 84 59
-0.05597196285690884 0.08161808709775438 -0.4082268463253197 103 89 63
-0.05538157638860747 0.08396404321433035 -0.40895392264050817 110 94 69
-0.055313408318994575 0.08410553839054823 -0.41056486904071704 97 81 56
-0.05513249814372553 0.08472299685257906 -0.41198451657321533 80 67 44
-0.05478190324357119 0.08605712928000102 -0.4131125156835965 87 75 53
-0.05460789593331113 0.0866455361245492 -0.4145428112306857 72 57 37
-0.054324349930674865 0.08769671495483887 -0.4157833184496481 79 64 44
-0.05388455031446848 0.08940826196018259 -0.4167502892297369 78 63 42
-0.054007811480797904 0.08874060714040635 -0.41869777301197725 74 61 39
-0.054147877086119844 0.08800154487817582 -0.4206792485085494 77 65 42
-0.05412623131687507 0.08794568485773915 -0.42238036961182196 81 69 45
-0.05393192858718686 0.08861960875177427 -0.4237781651964328 72 58 39
-0.0538088564679408 0.0889923462407881 -0.4253023965962984 69 58 40
-0.05380146782838603 0.08887576222410433 -0.4270340196034554 72 61 42
-0.05375679055631043 0.08891668409159756 -0.42870137475459247 77 64 43
-0.05369752704209925 0.08901914040233878 -0.430344502928252 94 82 59
-0.05358428873810693 0.08934981553005038 -0.4318918756373905 96 84 61
-0.05338170765923193 0.09005848003469809 -0.43327808069965246 93 81 60
-0.053155508160394487 0.09086713411589627 -0.4346209091541404 100 87 67
-0.052898061098861276 0.09180811723380145 -0.43590586380352336 93 80 61
-0.053777880095703855 0.0879344115842069 -0.43927976868036844 86 73 55
-0.05331014103213161 0.08976530072988784 -0.44018292431420447 76 63 47
-0.05262009687286702 0.09253800251584571 -0.44066984102212825 74 61 47
-0.05229331996962766 0.09377271245881032 -0.4418249177819288 88 76 59
-0.05218146825395363 0.09409714084530264 -0.4433792814709612 92 81 62
-0.052105511751038974 0.09426939760296629 -0.44500202061380806 79 68 48
-0.051952540324949795 0.09476786982378485 -0.44648131633407806 74 60 40
-0.05184750418427331 0.09506314917013936 -0.44805167920423855 75 59 36
-0.0517877308458392 0.09516647074074436 -0.4497091331273539 81 65 41
-0.05169513809251747 0.09540877114910122 -0.4513058819369504 78 61 40
-0.05135863729962366 0.09668514777805985 -0.45243719663331283 79 63 42
-0.05155501275134272 0.09570193888237392 -0.4545900308592753 77 62 41
-0.05136425843527362 0.09636020561770717 -0.4560018356531177 77 64 43
-0.05137656285998849 0.09615710187624807 -0.45780678457534135 77 65 43
-0.051514102095444485 0.09542241309566879 -0.45985823691068295 70 58 36
-0.051370255143581046 0.095881325207138 -0.4613652816584491 101 87 62
-0.050948851124907366 0.09751813874307631 -0.4623289168021372 141 124 93
-0.050571066493475765 0.09897011710251552 -0.4633746757647072 178 163 124
-0.05019682770563741 0.10040729967029847 -0.46442440119593087 177 158 123
-0.04980405428660491 0.10192343298784329 -0.4654343788337712 149 130 100
-0.04940325898701481 0.10347391056822856 -0.4664250999318153 134 118 88
-0.04909759580093345 0.10462062474232596 -0.4676025470398999 135 119 88
-0.04872231829387941 0.1060632212287181 -0.4686383678882489 144 124 94
-0.04838500369424052 0.10734478543027301 -0.46974762432438727 136 113 88
-0.04836711682811137 0.10726922318803012 -0.47150036623163555 107 89 62
-0.048224318953005565 0.10772430808268878 -0.4730020897183119 107 91 62
-0.04809819041262173 0.1081084878724019 -0.47453837863783965 112 96 71
-0.04739427745562662 0.1109489073959489 -0.4748935579285676 108 91 71
-0.04708655407594774 0.11210545481387876 -0.47605410473206844 108 94 73
-0.04696770522402212 0.11245896517925597 -0.4776019993896981 82 69 49
-0.04676660991276749 0.1131622092409373 -0.4789806693433587 71 56 38
-0.04661856905928116 0.11363979083596991 -0.4804692190913906 65 49 33
-0.04647520578958615 0.11409742775565646 -0.4819680346160027 68 52 36
-0.04634020040335936 0.11451944976807078 -0.48348493167380063 72 56 40
-0.04603438760532036 0.1156683585747417 -0.4846436771509295 67 51 35
-0.045933454079783706 0.11594534213808212 -0.48623251802461503 63 45 29
-0.04579897890246583 0.11636501530019606 -0.4877516185456955 59 39 22
-0.04569028731506171 0.11667484036316507 -0.48932624176403444 77 56 37
-0.045578269934714685 0.1169987315725283 -0.49089491911726657 84 63 43
-0.04549942905491214 0.11718122005158463 -0.49253572326833406 88 68 47
-0.0456227472358955 0.11650237014295503 -0.49461259492520926 85 65 43
-0.0453763502857263 0.11739834907603633 -0.4958968712479381 79 60 37
-0.045227941850114056 0.11787685151633791 -0.4973922444950303 72 55 36
-0.045155850426887946 0.11803004212614417 -0.4990539867267969 62 45 27
-0.04505343211503389 0.11831235960517741 -0.5006513367319085 63 45 29
-0.04493848052558827 0.11864800416594609 -0.5022225182380448 58 39 24
-0.0448164569351628 0.11901371384873853 -0.503779230273782 56 37 22
-0.04482575432772978 0.11881928457855886 -0.5056265273930864 70 51 33
-0.0447511929353874 0.11898229182045257 -0.5072912881142995 67 49 27
-0.04467655676929236 0.11914547088312807 -0.5089576197938894 66 47 30
-0.04460184559436299 0.11930882256828619 -0.5106255242842554 71 52 34
-0.044521285787022254 0.11949698596265516 -0.5122820822096024 67 49 31
-0.04443266117183143 0.11971943206332282 -0.5139221762423899 63 43 27
-0.04429075027438262 0.12016922541632995 -0.5154436633445157 67 46 28
-0.04418432357631974 0.12046745860569219 -0.5170460912837451 79 59 39
-0.04402184759386943 0.12100493636171478 -0.5185224770076503 79 58 40
-0.04384109951832968 0.12162042794139473 -0.5199575370650708 75 54 34
-0.04384429952143651 0.12145014067023008 -0.5218133648123425 69 49 27
-0.043661396694473074 0.12207470661556276 -0.5232450324820088 68 49 26
-0.04362445234611516 0.12207557360333482 -0.5250129524005644 81 63 39
-0.043616362851408165 0.12195291607930894 -0.5268499916166419 80 63 38
-0.043548966111072646 0.12208352509799637 -0.5285522993018291 66 49 25
-0.04353028473227309 0.12200570233996821 -0.5303699616986832 75 57 33
-0.04341956939322911 0.12232118130796683 -0.5319752580279026 75 56 31
-0.043128760595261995 0.12340675667497251 -0.5331593565276346 77 57 33
-0.04302632846033386 0.12368672984900037 -0.5347850409210407 89 69 44
-0.04286253742760465 0.12422908743967627 -0.5362671256554375 81 61 36
-0.04270838940930606 0.12473015812967361 -0.5377723825406509 73 53 28
-0.04264271714097823 0.12485255710766573 -0.5394885908602224 86 66 40
-0.043151632847741275 0.1225154348870015 -0.5425784854448265 104 85 55
-0.04302436544955171 0.12290077436349008 -0.5441559008353982 117 98 69
-0.043001611587498545 0.12283854523170638 -0.545985527648491 129 112 82
-0.043003609299855694 0.1226700914671857 -0.547877582052254 125 110 76
-0.04271585265271201 0.12374240912055276 -0.5490712552983507 123 104 70
-0.04273359683342422 0.1235061767142526 -0.5510053925867252 108 92 58
-0.04277812800045459 0.12315488593258468 -0.5530082537370173 134 118 84
-0.04282275879230701 0.12280283949596926 -0.5550152386390348 121 102 72
-0.042772446171108244 0.12285738573441594 -0.5567930223229232 126 108 80
-0.04282577488152477 0.12246746262154452 -0.5588284176035145 118 102 74
-0.04259265754901833 0.12330530254869149 -0.5601597342383227 112 99 70
-0.04264922898853096 0.12290099350242734 -0.5622088476374449 97 81 55
-0.06151507725793249 0.0402314210629903 -0.6299070375663836 46 40 27
-0.060808675492163386 0.043087564913828647 -0.6301964154891886 45 38 27
-0.06014193369575037 0.04577404003634572 -0.6305794815909935 46 39 29
-0.05922905670043296 0.04951900998058209 -0.6303161031642475 53 46 36
-0.0586781569741779 0.05170911386309973 -0.6309821335631498 54 47 37
-0.05836798011865475 0.05286483691828972 -0.6322704972550444 63 55 45
-0.05778808409412351 0.055180486525786776 -0.6328503604402171 68 59 50
-0.05708272164324907 0.058036288451001894 -0.6330937511783297 65 58 48
-0.05660898915761256 0.059896517348502154 -0.6339390860299152 67 60 50
-0.05578991749633822 0.06324285167306187 -0.6338657706592135 62 56 44
-0.054939014330721916 0.06672708322638879 -0.6336969673552539 69 63 51
-0.05471933221690931 0.06749575193322996 -0.6351980448028739 65 59 47
-0.05415315338880609 0.06975590849776608 -0.635772657935451 55 49 37
-0.053573790906302876 0.07207337771960468 -0.6363053651153777 66 60 48
-0.05287732527172053 0.07489565710016552 -0.6365162027594004 66 60 48
-0.05257779680483985 0.07600922242658295 -0.6377896274672283 56 48 37
-0.05185785524664471 0.07893383357205178 -0.6379225859786753 57 48 39
-0.05125263382634394 0.0813650054190142 -0.6383579032714288 80 73 60
-0.050711904768226776 0.08351890614458968 -0.6389617077577838 78 72 60
-0.050184707652063995 0.08561501348129921 -0.6395963288364328 72 64 54
-0.049654653267708085 0.08772394266890082 -0.6402171397032477 80 74 62
-0.04917827942106526 0.08960195498723278 -0.6409797127965519 70 65 55
-0.04872869787501407 0.09136487001170679 -0.6418112133151279 57 48 39
-0.04832077366100398 0.09294851813195856 -0.6427535519742021 40 34 26
-0.04790556825168179 0.09456390136966936 -0.6436717793887341 47 39 31
-0.047420897893538975 0.09647931563545545 -0.6443922252219474 60 52 43
-0.04655802831183341 0.10002712707504374 -0.6440489595047943 64 55 45
-0.04590052653468051 0.1026896395391238 -0.6442701217032363 49 39 30
-0.045882524548488846 0.10259240620350779 -0.646284181330059 65 55 43
-0.04552242285932046 0.10397187351552839 -0.6473346746336243 80 68 54
-0.044928252951180206 0.10636234100321629 -0.6477184967245724 51 41 28
-0.0446613384249331 0.10734004046345305 -0.6490257747403877 47 37 26
-0.04463079030099793 0.10729682271729393 -0.6510061586001774 72 62 48
-0.044474372061757826 0.10779717192030527 -0.6526291980007733 43 34 23
-0.044363889614393026 0.10809896364309163 -0.6543848312600712 22 14 7
-0.04407326305719789 0.10917921780181883 -0.6556229629117355 54 45 37
-0.043833737114513195 0.11003872590545746 -0.6570069871356272 75 64 53
-0.04349419863499795 0.11133072316179882 -0.6581001422065369 58 46 34
-0.04311216645073995 0.11280671117708113 -0.6590669601017024 60 47 38
-0.042823630358955506 0.11387860928961616 -0.6603031001709379 51 38 28
-0.0425657371237244 0.11481809869574741 -0.6616271592147989 49 37 25
-0.042483719271529934 0.11499671943470816 -0.6634665225597071 66 57 42
-0.04224816341470982 0.11583961063669534 -0.6648555882020414 67 57 42
-0.04204502852236288 0.11654224085134993 -0.6663396694030174 61 50 35
-0.04153239764358566 0.11858474254600301 -0.6669058992162857 59 45 32
-0.04111918245778081 0.12019728959357534 -0.6677618106677413 64 51 37
-0.04150477902430402 0.11835074097408602 -0.6709970442917095 77 64 47
-0.041090712310342684 0.11996704459721916 -0.6718496026325563 110 97 79
-0.04119023735602409 0.11935864787934528 -0.6742401152655588 98 87 67
-0.040885130797006085 0.12050311026574373 -0.6754173487174099 76 66 45
-0.0407237494814934 0.1210248560505188 -0.6770267268753234 63 55 39
-0.040598463433878795 0.12139008800481871 -0.6787461013237954 51 42 32
-0.04045575458249962 0.12183074937251817 -0.680413776283664 36 27 18
-0.04014070179271753 0.12301867645563128 -0.6815567277367527 51 43 33
-0.03984937583157882 0.124103894399648 -0.6827699361450779 50 40 29
-0.0399163032206637 0.12363517591824891 -0.6850808155331745 63 50 36
-0.03994958536486751 0.12331201653701268 -0.6872930727647191 52 42 28
-0.03995868544301115 0.12309343072230736 -0.6894349786436199 32 22 16
-0.04004036294450921 0.12255949967226173 -0.6918056095663236 20 14 12
-0.04010029340042852 0.12211952975424806 -0.6941139453439664 15 11 8
-0.04100707994975296 0.11800205162130242 -0.6990670544282491 16 12 9
-0.041977535007274504 0.11342393269720566 -0.7063925563361579 19 16 13
-0.04138456678525996 0.11581743481281695 -0.7066827238494757 32 28 23
-0.04089798332385788 0.11774931344657438 -0.7073009248164004 36 31 22
-0.04008256009059392 0.12111086310092153 -0.7068724268814226 42 36 25
-0.03980223091183517 0.12214739082449108 -0.708131028807208 69 59 44
-0.03941090254167283 0.12366666461129419 -0.7090343894676823 81 71 55
-0.03932127823450537 0.12387426179939273 -0.7108978561746143 77 69 53
-0.038889084351059214 0.12557168257859222 -0.7116654859612733 87 78 61
-0.03805529950755569 0.12901654218133615 -0.7111374624196501 90 81 66
-0.037506207399844164 0.13122373054187464 -0.7115148485170005 89 81 65
-0.03742127693268853 0.13141149397736887 -0.7133864893939469 89 81 65
-0.03634030311964967 0.1359346623260551 -0.7120288825527482 87 79 62
-0.03537990062280203 0.13993439298442603 -0.7110460752646408 100 90 72
-0.034882984490932474 0.14191716797676396 -0.711560880289722 101 90 73
-0.03534284152399126 0.13973339736536805 -0.7152020374241863 107 95 80
-0.033798222005777825 0.14628036571937744 -0.7122737058759898 100 88 75
-0.03376640938723249 0.1462382994213408 -0.7143013604165115 105 91 69
-0.033894981957144375 0.14549702873957168 -0.7168620675687891 177 162 129
-0.03342927453221129 0.1473455068919079 -0.7174598418965341 138 121 84
-0.033051532611904036 0.14881096043754893 -0.7183445018719715 89 73 44
-0.03278301507888029 0.14980046917480586 -0.7195895524367237 91 77 55
-0.032645341224509294 0.15021946789371557 -0.7212705673562682 70 58 42
-0.03209476951158628 0.1524394795615224 -0.721567818342447 65 51 33
-0.031900673485990017 0.15310481715696594 -0.7230570064531361 106 91 62
-0.03189418634792116 0.15295147054773733 -0.7251791366979432 134 119 78
-0.03189558327752172 0.15276339705756628 -0.7273316724140134 133 113 73
-0.03156292269323176 0.15403333185153267 -0.7283541865662166 142 122 81
-0.032375806257666825 0.15030161741706496 -0.7332738557197003 144 127 87
-0.03325937593921703 0.14625946884015747 -0.7384553155266628 107 92 59
-0.033913603770491275 0.14321725529624887 -0.7428732195920995 84 68 42
-0.03446127255627541 0.14063913116565777 -0.7469423740414899 108 94 68
-0.03531556251013341 0.13671983494322015 -0.7520830972385804 90 76 49
-0.03671463821208619 0.13041761488936396 -0.7591278509766249 118 103 76
-0.037159502958812936 0.1282840368054464 -0.7628981892472833 92 78 51
-0.03719287838097607 0.12794856049758316 -0.7652513296691391 77 65 46
-0.03745244022043145 0.12662349425072283 -0.7683977988259032 47 36 23
-0.0377020042929474 0.12534136141860505 -0.7715187369993574 40 34 23
-0.03813537049585513 0.12325429601701801 -0.7752935325986745 21 16 8
-0.03817216504781062 0.12290150313469972 -0.7776864902834387 26 20 14
-0.03821147891848238 0.12253726966022152 -0.780093221331088 22 15 10
-0.03791055471021745 0.12366208299115436 -0.7813010673038605 20 12 9
-0.03759181921484786 0.12486506465562608 -0.7824435851232681 24 15 11
-0.03685719548176493 0.12788963417817756 -0.7821034286586107 33 24 15
-0.036615699738590884 0.12875506969082406 -0.7835123012143023 45 35 23
-0.036343013512192344 0.12975723531685882 -0.7848086082087055 50 36 22
-0.036035841758913265 0.13091065380806086 -0.7859795346298094 67 51 36
-0.03572455107905381 0.13208231973339896 -0.7871333387725972 61 46 29
-0.03554490857238634 0.1326770513191728 -0.7887602106772594 69 53 37
-0.03529758768691862 0.1335685077337899 -0.7901423343629754 69 53 35
-0.03516458669140415 0.13395867755289265 -0.7919387001085478 69 54 31
-0.03474868976744288 0.1355896863945405 -0.7927057865565545 74 59 38
-0.03460238850267009 0.13603823200933152 -0.7944533112101123 69 54 35
-0.03452317593932061 0.13619227172844492 -0.7964477762408754 62 50 28
-0.03420561117699745 0.13739230059200902 -0.7975687969633205 84 71 47
-0.033985440003919225 0.13816496620186336 -0.7990462389571277 82 67 41
-0.03376677286022804 0.13893106774103675 -0.8005287647620474 109 93 71
-0.03346324552087961 0.1400699157553112 -0.8016962540878123 89 72 50
-0.03330616898666225 0.14056560594634285 -0.8034059664191692 89 73 48
-0.03283299114462355 0.14245012447274322 -0.8039379233009109 80 66 44
-0.03249354958360569 0.14374740590634866 -0.8049640461891135 75 62 40
-0.03227457914171196 0.14451539438820732 -0.8064388989347748 85 70 47
-0.03286121780747367 0.141741486342162 -0.8109431850911611 77 61 37
-0.03259249804088459 0.14272758810724415 -0.8122381806671418 64 47 23
-0.03191106680957024 0.14552910207757133 -0.811970491289806 50 33 12
-0.03180066462149562 0.145819349102773 -0.8138585199651363 55 39 18
-0.03234494009383818 0.1432286748041551 -0.8182391221235621 84 70 44
-0.03217844995102852 0.14376484875616877 -0.8199241000681856 93 78 50
-0.03172767442160062 0.14555242286172587 -0.8205220245121122 84 68 42
-0.03118162080611877 0.14775997934255133 -0.820748821429096 65 49 26
-0.03098736225491138 0.14841888401916178 -0.8223217576567421 60 44 26
-0.030701415289933524 0.1494816612798631 -0.8235409320385841 53 37 18
-0.03056352348628367 0.14989229498312984 -0.8253311665634651 74 57 32
-0.030288640622451735 0.1509065059637688 -0.8265910315435322 75 55 29
-0.030762619872137763 0.14862009087005504 -0.8307639580003086 89 70 38
-0.02998653610268514 0.15184350896524 -0.830072351325205 102 83 50
-0.029680618767753193 0.15299477061237238 -0.8312083584059675 120 100 64
-0.029637821316110424 0.15298573660228781 -0.8333748498298317 145 126 86
-0.02947781251037987 0.15349348546469407 -0.8350833694638837 113 95 64
-0.029234125250024473 0.15437038740039255 -0.8364623865069414 102 86 61
-0.02828809257081869 0.15834708574035933 -0.8350597946711127 86 69 42
-0.028083145028508137 0.1590538181310708 -0.8365827030946407 90 74 45
-0.028028915875631888 0.15909510311485672 -0.8387055100078041 104 90 60
-0.02820750346370912 0.15810794567807243 -0.8417610876794976 89 74 40
-0.027996207565796412 0.15884225454216638 -0.8432640698823456 99 81 43
-0.027962037086435756 0.1587940261658248 -0.8454779386401133 109 89 49
-0.028002900971566644 0.1584139011221067 -0.8479976296677804 139 119 78
-0.028745895304969613 0.15492986751252402 -0.8533578107485857 132 115 74
-0.02793609495580221 0.1583089448979296 -0.8524518060180831 142 126 84
-0.02798599522579559 0.15788762620476646 -0.8550227660117047 150 131 89
-0.027953854082185634 0.1578286924457885 -0.8572653138529278 147 127 91
-0.02791208101909516 0.1578120475093998 -0.8594723301758818 104 96 70
-0.027746638979260094 0.15834231804729187 -0.861176538415318 61 58 41
-0.02772449274460309 0.15823831871642757 -0.8634699199594017 41 37 28
-0.027650598698617544 0.15836305364161996 -0.8655542767262943 63 56 42
-0.02756219924424093 0.1585517715109693 -0.8675816170747412 95 90 78
-0.026815874098764313 0.16165407288746506 -0.8668872123071705 133 133 128
-0.08049041992767048 -0.010050685574795631 -0.2317608399923598 180 178 181
-0.08052185635880305 -0.010322017737787459 -0.23338586257107002 178 178 176
-0.08020572918415234 -0.009141870627997734 -0.23471237597581615 174 176 169
-0.0804293271164975 -0.010216203833398205 -0.23650820046784246 146 142 133
-0.07968321644440243 -0.0072396349282730366 -0.23745692421040432 122 107 95
-0.07932462230251276 -0.00588167065409205 -0.23874161793413307 122 105 88
-0.0792301180488606 -0.005627141354160342 -0.24025945932631051 125 111 89
-0.07900539969518189 -0.004828475522623554 -0.2416615584212055 129 116 93
-0.07895432185170038 -0.004755591663662809 -0.24322000669417232 121 107 83
-0.07894061118430876 -0.00483906798210941 -0.24481407498158575 88 78 62
-0.07861185266242988 -0.003605467312527741 -0.24612171705380453 37 30 22
-0.07719919191808117 0.0021608348740802807 -0.24642816518272198 39 30 23
-0.07706363350408588 0.0025873362519578252 -0.24790477257269222 85 76 64
-0.07680417490783178 0.003532034302306142 -0.24926617635339934 109 101 89
-0.07605747680156695 0.006515099576691566 -0.25016826126955366 110 100 87
-0.07543045281167765 0.008998081771402058 -0.2511766155802053 131 117 93
-0.0750947620044771 0.010262491132818158 -0.25245709857031495 147 130 102
-0.0748969430152258 0.010950080394079437 -0.2538679309748073 157 139 114
-0.07456197899713443 0.012211711645081377 -0.25514610485025646 146 129 105
-0.07426476950212177 0.013315469187458615 -0.25645904370593703 91 74 52
-0.07385974440492243 0.014870738367214462 -0.2576650404298111 78 61 43
-0.07366977186400969 0.015525792061615667 -0.25907995991139077 82 67 51
-0.07336749932757478 0.016651138008123095 -0.26038347993690475 93 79 65
-0.07314537392113664 0.017440939696101262 -0.2617653912284226 77 62 54
-0.0729608752715948 0.018073175024947583 -0.2631845390649342 49 33 27
-0.07250791152714911 0.01983012056873945 -0.2643325078651254 92 76 65
-0.0723615137892198 0.020302872989074836 -0.2657885738433438 129 113 92
-0.07209042979333005 0.021298086102948935 -0.26711756458073205 131 114 87
-0.07180440343038065 0.02235602476773954 -0.26843002581319847 143 122 94
-0.0714502054182925 0.023699831307601907 -0.26967055771942433 145 122 93
