ply
format ascii 1.0
element vertex 859
property float x
property float y
property float z
property float nx
property float ny
property float nz
property uchar diffuse_red
property uchar diffuse_green
property uchar diffuse_blue
property uchar class
property uchar detection
end_header
-0.0060 0.0086 -0.2514 -0.532 0.807 0.256 52 43 34 0 0
-0.1264 0.0702 -0.5029 -0.872 0.305 0.383 94 85 71 0 0
-0.1272 0.0712 -0.5148 -0.745 0.336 0.576 62 55 45 0 0
-0.1109 0.0665 -0.5478 -0.171 0.823 -0.541 60 56 54 0 0
-0.0882 0.0621 -0.6344 -0.012 0.846 0.533 46 40 33 0 0
-0.0892 0.0626 -0.6357 -0.400 0.864 0.305 53 49 40 0 0
-0.0931 0.0641 -0.6350 -0.560 0.178 0.809 58 54 45 0 0
-0.1280 0.0788 -0.6496 -0.274 0.351 0.895 58 50 43 0 0
-0.1466 0.0869 -0.6631 -0.990 0.056 0.130 93 77 57 0 0
-0.1487 0.0881 -0.6693 -0.927 -0.260 0.271 73 56 39 0 0
-0.1533 0.0901 -0.6716 -0.947 0.228 0.228 97 76 52 0 0
-0.1569 0.0920 -0.6804 -0.929 0.346 0.130 132 112 80 0 0
-0.1571 0.0922 -0.6823 -0.915 0.376 0.146 142 120 89 0 0
-0.1582 0.0926 -0.6834 -0.698 0.418 0.581 125 105 72 0 0
-0.1603 0.0938 -0.6895 -0.625 0.466 0.626 48 41 30 0 0
-0.1596 0.0937 -0.6920 -0.918 0.334 0.213 25 18 13 0 0
-0.1655 0.0972 -0.7129 -0.847 0.168 0.505 78 67 46 0 0
-0.1688 0.0991 -0.7240 -0.801 0.336 0.496 123 112 82 0 0
-0.1648 0.1037 -0.8393 -0.712 0.561 0.423 129 108 68 0 0
-0.0027 0.0064 -0.2026 -0.717 0.691 0.095 87 72 45 0 0
-0.0113 0.0116 -0.2354 -0.926 0.218 0.309 68 54 29 0 0
-0.0119 0.0119 -0.2369 -0.876 0.436 0.205 76 61 40 0 0
-0.0059 0.0103 -0.2512 -0.891 0.398 -0.219 50 42 32 0 0
-0.0058 0.0103 -0.2528 -0.881 0.472 -0.014 30 21 14 0 0
-0.0060 0.0105 -0.2544 -0.731 0.677 0.079 38 29 23 0 0
-0.0037 0.0100 -0.2615 -0.946 0.146 0.290 34 27 19 0 0
-0.0093 0.0127 -0.2714 -0.948 0.277 0.158 22 16 12 0 0
-0.0737 0.0578 -0.6278 0.181 0.726 0.664 67 59 50 0 0
-0.0844 0.0622 -0.6305 -0.637 0.067 0.768 60 50 43 0 0
-0.0828 0.0617 -0.6336 -0.029 0.077 0.997 52 44 36 0 0
-0.0854 0.0628 -0.6338 -0.031 0.279 0.960 45 37 30 0 0
-0.0872 0.0635 -0.6346 -0.102 0.354 0.930 54 47 39 0 0
-0.1288 0.0809 -0.6505 -0.334 0.165 0.928 63 54 45 0 0
-0.1304 0.0816 -0.6512 -0.334 0.165 0.928 67 58 49 0 0
-0.1321 0.0823 -0.6519 -0.334 0.165 0.928 71 63 53 0 0
-0.1343 0.0832 -0.6523 -0.559 -0.187 0.808 73 65 53 0 0
-0.1501 0.0903 -0.6677 -0.831 -0.114 0.544 108 91 74 0 0
-0.1521 0.0913 -0.6720 -0.770 0.466 0.435 110 88 64 0 0
-0.1533 0.0919 -0.6730 -0.841 0.339 0.422 94 73 46 0 0
-0.1547 0.0926 -0.6758 -0.812 0.331 0.481 76 55 31 0 0
-0.1565 0.0937 -0.6821 -0.924 0.273 0.269 124 106 77 0 0
-0.1575 0.0941 -0.6833 -0.679 0.266 0.684 111 95 68 0 0
-0.1581 0.0945 -0.6848 -0.644 0.324 0.694 103 89 56 0 0
-0.1654 0.0989 -0.7123 -0.789 0.428 0.442 79 66 48 0 0
-0.1659 0.0991 -0.7139 -0.879 0.338 0.336 80 66 40 0 0
-0.1535 0.0979 -0.7814 -0.932 -0.034 0.361 29 21 18 0 0
-0.1549 0.0986 -0.7842 -0.910 -0.070 0.409 29 22 14 0 0
-0.1676 0.1056 -0.8189 -0.841 0.500 0.206 57 44 26 0 0
-0.1710 0.1090 -0.8563 -0.636 0.338 0.693 91 82 57 0 0
-0.0017 0.0077 -0.2026 -0.852 0.511 0.116 78 63 38 0 0
-0.0019 0.0078 -0.2041 -0.599 0.782 0.174 77 62 39 0 0
-0.0024 0.0081 -0.2056 -0.648 0.747 0.148 72 58 34 0 0
-0.0099 0.0126 -0.2323 -0.874 0.174 0.453 119 104 76 0 0
-0.0110 0.0133 -0.2368 -0.868 0.448 0.213 66 51 29 0 0
-0.0088 0.0143 -0.2713 -0.948 0.277 0.158 19 14 10 0 0
-0.0997 0.0528 -0.3166 -0.321 0.549 0.771 187 173 144 0 0
-0.1102 0.0694 -0.5437 -0.130 0.861 -0.492 50 46 42 0 0
-0.0802 0.0625 -0.6328 -0.383 0.292 0.876 62 52 45 0 0
-0.0832 0.0638 -0.6347 -0.464 -0.189 0.865 53 44 37 0 0
-0.0997 0.0708 -0.6432 -0.763 0.515 0.391 35 32 27 0 0
-0.1275 0.0822 -0.6509 -0.287 0.443 0.849 62 53 44 0 0
-0.1481 0.0910 -0.6628 -0.869 0.262 0.419 80 64 44 0 0
-0.1487 0.0913 -0.6643 -0.869 0.262 0.419 77 60 41 0 0
-0.1566 0.0955 -0.6835 -0.846 0.362 0.392 93 76 51 0 0
-0.1563 0.0965 -0.7033 -0.672 0.534 0.513 70 61 55 0 0
-0.1618 0.0991 -0.7107 -0.629 0.507 0.589 61 48 31 0 0
-0.1663 0.1020 -0.7308 -0.926 0.376 0.025 78 65 42 0 0
-0.1421 0.0949 -0.7761 -0.840 0.519 0.157 111 97 69 0 0
-0.1429 0.0953 -0.7775 -0.778 0.529 0.339 92 79 53 0 0
-0.1668 0.1071 -0.8190 -0.691 0.675 0.260 48 36 24 0 0
-0.1630 0.1063 -0.8332 -0.796 0.601 0.073 92 75 44 0 0
-0.1644 0.1070 -0.8340 -0.788 0.339 0.514 126 107 65 0 0
-0.1703 0.1100 -0.8477 -0.923 0.374 0.094 118 103 68 0 0
-0.1705 0.1103 -0.8517 -0.938 0.343 0.049 124 108 75 0 0
-0.1708 0.1105 -0.8536 -0.952 0.288 0.100 114 100 68 0 0
-0.1705 0.1106 -0.8561 -0.710 0.295 0.639 93 84 60 0 0
-0.1709 0.1110 -0.8600 -0.682 0.719 0.134 67 61 47 0 0
-0.0036 0.0109 -0.2162 -0.972 0.226 0.064 79 63 37 0 0
-0.0045 0.0114 -0.2191 -0.907 0.319 0.275 92 77 47 0 0
-0.0041 0.0132 -0.2544 -0.935 0.353 -0.009 36 29 23 0 0
-0.0647 0.0393 -0.2933 -0.356 0.061 0.932 83 72 59 0 0
-0.0658 0.0398 -0.2945 -0.273 0.598 0.754 118 107 87 0 0
-0.1064 0.0697 -0.5436 -0.086 0.917 -0.389 47 45 40 0 0
-0.0801 0.0643 -0.6323 -0.263 0.691 0.673 64 54 45 0 0
-0.0834 0.0657 -0.6341 -0.589 0.039 0.807 62 54 44 0 0
-0.0839 0.0660 -0.6358 -0.678 0.287 0.676 54 47 37 0 0
-0.0927 0.0696 -0.6376 -0.615 -0.037 0.788 61 52 45 0 0
-0.0963 0.0711 -0.6411 -0.867 0.233 0.440 41 37 31 0 0
-0.0985 0.0722 -0.6435 -0.973 0.213 0.089 36 33 28 0 0
-0.1018 0.0739 -0.6510 -0.515 0.685 0.515 42 37 33 0 0
-0.1039 0.0747 -0.6515 -0.764 0.137 0.631 43 38 34 0 0
-0.1309 0.0853 -0.6498 -0.128 0.497 0.859 68 60 50 0 0
-0.1534 0.0955 -0.6737 -0.925 0.217 0.313 70 48 32 0 0
-0.1556 0.0980 -0.7033 -0.680 0.415 0.604 75 66 57 0 0
-0.1604 0.1003 -0.7113 -0.887 0.229 0.402 65 52 35 0 0
-0.1617 0.1009 -0.7122 -0.854 0.479 0.202 59 46 29 0 0
-0.1648 0.1032 -0.7315 -0.796 0.602 0.056 81 68 47 0 0
-0.1419 0.0968 -0.7777 -0.742 0.539 0.398 96 84 59 0 0
-0.1570 0.1028 -0.7790 -0.854 -0.026 0.519 30 22 14 0 0
-0.1587 0.1036 -0.7817 -0.872 0.205 0.443 37 28 18 0 0
-0.1596 0.1040 -0.7829 -0.922 0.339 0.188 40 31 21 0 0
-0.1628 0.1070 -0.8135 -0.860 0.229 0.457 59 47 33 0 0
-0.1619 0.1078 -0.8335 -0.738 0.552 0.388 104 86 52 0 0
-0.1698 0.1116 -0.8474 -0.952 0.288 0.100 130 114 80 0 0
-0.1693 0.1120 -0.8565 -0.884 0.187 0.428 93 83 60 0 0
-0.1700 0.1123 -0.8580 -0.825 0.134 0.549 67 60 46 0 0
-0.0031 0.0124 -0.2161 -0.900 0.430 0.065 75 59 32 0 0
-0.0041 0.0130 -0.2206 -0.731 0.347 0.588 94 80 51 0 0
-0.0069 0.0154 -0.2422 -0.791 0.533 0.301 53 43 30 0 0
-0.1002 0.0749 -0.6477 -0.544 0.348 0.764 38 34 30 0 0
-0.1006 0.0753 -0.6513 -0.635 0.385 0.670 44 39 35 0 0
-0.1491 0.0951 -0.6668 -0.931 0.210 0.300 73 56 35 0 0
-0.1598 0.1019 -0.7111 -0.847 0.449 0.286 84 72 52 0 0
-0.1561 0.1023 -0.7443 -0.749 0.596 -0.288 88 76 55 0 0
-0.1548 0.1021 -0.7495 -0.721 0.671 -0.174 77 67 47 0 0
-0.1619 0.1092 -0.8264 -0.958 0.259 0.119 80 66 40 0 0
-0.1623 0.1094 -0.8282 -0.966 0.165 0.199 93 78 50 0 0
-0.1690 0.1132 -0.8475 -0.923 0.374 0.094 138 122 87 0 0
-0.0060 0.0167 -0.2422 -0.791 0.533 0.301 48 35 25 0 0
-0.0039 0.0161 -0.2459 -0.890 0.411 0.197 36 28 20 0 0
0.0004 0.0160 -0.2731 -0.953 0.234 0.195 28 20 13 0 0
0.0005 0.0160 -0.2748 -0.975 0.219 -0.049 22 15 9 0 0
-0.0007 0.0171 -0.2843 -0.654 0.568 0.500 15 11 9 0 0
-0.0886 0.0617 -0.4647 -0.780 0.509 0.364 37 32 29 0 0
-0.0900 0.0626 -0.4711 -0.843 0.282 0.457 38 33 30 0 0
-0.0907 0.0630 -0.4725 -0.843 0.282 0.457 32 27 24 0 0
-0.0926 0.0640 -0.4768 -0.865 0.289 0.409 53 43 40 0 0
-0.1077 0.0708 -0.4936 -0.129 0.389 0.912 91 82 75 0 0
-0.0666 0.0628 -0.6343 -0.386 0.156 0.909 69 60 51 0 0
-0.1207 0.0848 -0.6483 -0.414 0.241 0.878 61 54 48 0 0
-0.1251 0.0866 -0.6510 -0.367 -0.267 0.891 57 52 42 0 0
-0.1471 0.0957 -0.6600 -0.947 0.228 0.227 72 57 36 0 0
-0.1474 0.0960 -0.6617 -0.947 0.228 0.227 83 68 47 0 0
-0.1478 0.0962 -0.6634 -0.947 0.228 0.227 81 65 45 0 0
-0.1618 0.1058 -0.7349 -0.708 0.648 -0.281 70 57 40 0 0
-0.1605 0.1054 -0.7379 -0.649 0.662 -0.375 84 71 52 0 0
-0.1448 0.1010 -0.7676 -0.693 0.479 -0.539 47 39 26 0 0
-0.1625 0.1105 -0.8124 -0.856 0.447 0.259 45 33 19 0 0
-0.1683 0.1146 -0.8452 -0.902 0.373 0.216 123 109 77 0 0
-0.1683 0.1147 -0.8474 -0.923 0.374 0.094 127 114 77 0 0
-0.1684 0.1149 -0.8494 -0.923 0.374 0.094 128 115 79 0 0
-0.0036 0.0163 -0.2219 -0.640 0.506 0.578 65 48 28 0 0
-0.0046 0.0179 -0.2423 -0.718 0.588 0.371 45 29 18 0 0
-0.0003 0.0181 -0.2743 -0.988 0.136 -0.079 27 20 12 0 0
-0.0002 0.0186 -0.2842 -0.992 -0.123 -0.020 20 15 12 0 0
0.0028 0.0178 -0.2901 -0.631 0.728 0.270 14 10 7 0 0
0.0025 0.0182 -0.2950 -0.847 0.385 0.366 21 17 16 0 0
0.0020 0.0185 -0.2965 -0.847 0.385 0.366 14 10 9 0 0
-0.0778 0.0582 -0.4469 0.238 0.656 0.716 18 14 14 0 0
-0.0802 0.0592 -0.4475 0.161 0.634 0.756 18 16 14 0 0
-0.0864 0.0623 -0.4602 -0.862 0.506 0.040 23 17 17 0 0
-0.0870 0.0628 -0.4634 -0.960 0.207 0.189 28 24 21 0 0
-0.0899 0.0645 -0.4742 -0.802 0.510 0.311 100 92 89 0 0
-0.1043 0.0712 -0.4932 -0.112 0.375 0.920 93 84 77 0 0
-0.1116 0.0744 -0.4999 -0.327 0.920 0.215 36 33 31 0 0
-0.1125 0.0753 -0.5082 -0.472 0.875 0.109 31 27 24 0 0
-0.0626 0.0630 -0.6325 -0.599 0.051 0.799 78 71 63 0 0
-0.0962 0.0767 -0.6435 -0.493 0.411 0.767 38 34 31 0 0
-0.1182 0.0855 -0.6476 -0.573 0.678 0.461 55 48 42 0 0
-0.1466 0.0973 -0.6598 -0.947 0.228 0.227 77 61 41 0 0
-0.1470 0.0975 -0.6615 -0.947 0.228 0.227 77 61 40 0 0
-0.1525 0.1016 -0.6942 -0.845 0.443 0.299 97 83 64 0 0
-0.1604 0.1070 -0.7354 -0.737 0.620 -0.269 83 70 52 0 0
-0.1677 0.1164 -0.8494 -0.910 0.383 0.160 119 106 73 0 0
-0.0011 0.0176 -0.2302 -0.795 0.594 0.122 58 41 25 0 0
-0.0036 0.0198 -0.2520 -0.938 0.131 0.321 54 42 27 0 0
-0.0028 0.0196 -0.2539 -0.973 0.201 0.112 45 34 19 0 0
-0.0021 0.0194 -0.2557 -0.901 0.411 0.136 39 29 22 0 0
-0.0006 0.0198 -0.2724 -0.674 0.510 0.534 37 30 18 0 0
-0.0792 0.0573 -0.3929 -0.896 0.263 0.357 36 27 22 0 0
-0.0795 0.0575 -0.3944 -0.878 0.382 0.290 29 19 15 0 0
-0.0843 0.0613 -0.4280 -0.598 0.107 0.794 36 29 21 0 0
-0.0842 0.0614 -0.4297 -0.823 -0.399 0.405 34 27 21 0 0
-0.0781 0.0594 -0.4360 -0.552 0.377 -0.744 50 47 46 0 0
-0.0829 0.0623 -0.4528 -0.824 0.044 0.565 33 28 25 0 0
-0.1001 0.0713 -0.4933 -0.389 0.745 0.542 96 89 81 0 0
-0.1036 0.0727 -0.4932 -0.343 -0.074 0.936 94 87 79 0 0
-0.1042 0.0730 -0.4947 -0.227 0.277 0.934 99 91 84 0 0
-0.1061 0.0738 -0.4954 -0.227 0.277 0.934 103 98 88 0 0
-0.1102 0.0759 -0.5056 -0.332 0.903 0.273 31 28 23 0 0
-0.1106 0.0762 -0.5071 -0.332 0.903 0.273 30 26 22 0 0
-0.1088 0.0756 -0.5099 -0.547 0.781 -0.300 32 28 26 0 0
-0.1087 0.0757 -0.5117 -0.447 0.792 0.415 35 32 30 0 0
-0.0973 0.0791 -0.6461 -0.943 0.330 0.046 38 33 28 0 0
-0.1167 0.0867 -0.6482 -0.391 0.697 0.601 51 44 38 0 0
-0.1180 0.0873 -0.6492 -0.498 0.414 0.762 56 49 43 0 0
-0.1529 0.1032 -0.6894 -0.808 0.573 0.136 130 112 75 0 0
-0.1519 0.1035 -0.7020 -0.710 0.703 0.030 27 18 15 0 0
-0.1568 0.1058 -0.7079 -0.572 0.203 0.795 116 102 78 0 0
-0.1621 0.1090 -0.7273 -0.856 0.516 0.030 101 87 55 0 0
-0.1592 0.1084 -0.7358 -0.738 0.648 -0.190 84 71 53 0 0
-0.1524 0.1063 -0.7456 -0.928 0.372 -0.010 66 55 36 0 0
-0.1523 0.1064 -0.7477 -0.928 0.372 -0.010 73 62 44 0 0
-0.1520 0.1064 -0.7500 -0.937 0.333 0.102 69 59 44 0 0
-0.1513 0.1063 -0.7526 -0.973 0.168 -0.158 53 45 33 0 0
-0.1538 0.1102 -0.8043 -0.894 0.358 0.268 54 41 28 0 0
-0.1598 0.1131 -0.8136 -0.830 0.510 0.228 59 45 27 0 0
-0.1669 0.1165 -0.8239 -0.958 0.254 -0.134 125 107 67 0 0
-0.1660 0.1167 -0.8331 -0.896 0.436 0.084 131 114 76 0 0
-0.1666 0.1175 -0.8433 -0.919 0.365 0.146 96 85 56 0 0
-0.1650 0.1177 -0.8578 -0.752 0.595 0.284 92 83 58 0 0
-0.1655 0.1180 -0.8595 -0.752 0.595 0.284 62 56 41 0 0
-0.1660 0.1183 -0.8612 -0.714 0.420 0.560 67 61 45 0 0
-0.0032 0.0214 -0.2519 -0.790 0.506 0.347 56 43 27 0 0
-0.0026 0.0212 -0.2537 -0.854 0.499 0.146 55 42 26 0 0
0.0041 0.0208 -0.2899 -0.890 -0.097 0.445 26 20 15 0 0
-0.0821 0.0623 -0.4286 -0.367 0.876 0.314 33 26 16 0 0
-0.1030 0.0757 -0.5198 -0.298 0.954 0.015 28 25 23 0 0
-0.0927 0.0789 -0.6409 -0.613 -0.212 0.761 35 30 23 0 0
-0.0942 0.0795 -0.6419 -0.732 -0.271 0.625 23 21 16 0 0
-0.0984 0.0813 -0.6449 -0.855 0.490 0.169 38 33 28 0 0
-0.1513 0.1047 -0.6959 -0.729 0.646 0.226 74 64 45 0 0
-0.1509 0.1047 -0.6982 -0.718 0.492 0.492 44 36 26 0 0
-0.1509 0.1050 -0.7021 -0.890 0.413 0.191 29 20 17 0 0
-0.1506 0.1050 -0.7043 -0.837 0.140 0.529 27 21 17 0 0
-0.1592 0.1101 -0.7351 -0.463 0.846 0.263 79 68 49 0 0
-0.1576 0.1097 -0.7385 -0.725 0.657 -0.205 76 63 45 0 0
-0.1512 0.1077 -0.7459 -0.658 0.724 0.207 67 55 37 0 0
-0.1516 0.1079 -0.7477 -0.658 0.724 0.207 69 59 43 0 0
-0.1514 0.1080 -0.7498 -0.937 0.333 0.102 51 43 31 0 0
-0.1511 0.1080 -0.7521 -0.982 0.144 -0.123 41 32 21 0 0
-0.1366 0.1040 -0.7790 -0.668 0.733 -0.123 56 43 24 0 0
-0.1610 0.1156 -0.8159 -0.762 0.316 0.565 65 50 32 0 0
-0.1658 0.1191 -0.8455 -0.821 0.552 0.147 119 108 77 0 0
-0.1642 0.1192 -0.8579 -0.687 0.620 0.380 92 83 61 0 0
-0.1645 0.1195 -0.8597 -0.740 0.546 0.393 65 59 44 0 0
-0.1652 0.1198 -0.8612 -0.741 0.410 0.531 69 62 47 0 0
-0.0050 0.0235 -0.2480 -0.895 0.271 0.354 51 36 20 0 0
0.0042 0.0225 -0.2897 -0.889 0.350 0.295 26 20 16 0 0
-0.0877 0.0602 -0.3285 -0.525 0.851 0.021 89 81 65 0 0
-0.0799 0.0631 -0.4275 -0.512 0.633 0.580 48 41 31 0 0
-0.0802 0.0652 -0.4621 -0.603 0.226 0.765 36 31 28 0 0
-0.0969 0.0736 -0.4942 -0.389 0.745 0.542 49 44 40 0 0
-0.1024 0.0769 -0.5144 -0.217 0.976 0.013 24 21 20 0 0
-0.1005 0.0765 -0.5208 -0.298 0.954 0.015 23 22 20 0 0
-0.1338 0.0970 -0.6503 -0.432 0.386 0.815 95 85 70 0 0
-0.1449 0.1018 -0.6595 -0.886 0.348 0.304 70 54 31 0 0
-0.1517 0.1061 -0.6872 -0.778 0.560 0.284 138 117 76 0 0
-0.1516 0.1062 -0.6893 -0.816 0.507 0.279 139 120 78 0 0
-0.1507 0.1062 -0.6938 -0.855 0.439 0.277 116 102 72 0 0
-0.1506 0.1064 -0.6979 -0.534 0.562 0.632 50 43 30 0 0
-0.1500 0.1065 -0.7043 -0.891 -0.139 0.433 19 15 11 0 0
-0.1588 0.1112 -0.7269 -0.867 0.481 0.126 102 88 61 0 0
-0.1583 0.1112 -0.7293 -0.826 0.560 -0.063 101 89 62 0 0
-0.1582 0.1114 -0.7334 -0.666 0.741 0.081 85 74 53 0 0
-0.1558 0.1107 -0.7374 -0.443 0.619 0.648 77 67 48 0 0
-0.1539 0.1102 -0.7410 -0.963 0.039 0.265 76 66 48 0 0
-0.1498 0.1089 -0.7465 -0.959 0.186 0.212 64 53 38 0 0
-0.1364 0.1056 -0.7786 -0.783 0.122 0.610 69 56 35 0 0
-0.1516 0.1128 -0.8007 -0.794 0.468 0.388 63 51 33 0 0
-0.1573 0.1156 -0.8102 -0.916 0.135 0.377 114 97 67 0 0
-0.1593 0.1165 -0.8127 -0.774 0.383 0.504 77 65 45 0 0
-0.1598 0.1169 -0.8164 -0.867 0.258 0.426 60 46 30 0 0
-0.1616 0.1193 -0.8445 -0.732 0.523 0.437 133 119 83 0 0
-0.1634 0.1208 -0.8579 -0.856 0.289 0.428 89 79 59 0 0
-0.1639 0.1211 -0.8595 -0.848 0.119 0.517 67 61 45 0 0
0.0322 0.0087 -0.2097 -0.388 0.127 0.913 176 176 174 0 0
0.0136 0.0161 -0.2138 -0.344 -0.024 0.939 165 151 125 0 0
-0.0029 0.0243 -0.2451 -0.880 0.257 0.399 63 48 25 0 0
0.0057 0.0241 -0.2966 -0.933 0.161 0.323 20 15 11 0 0
-0.0738 0.0599 -0.3858 -0.750 0.412 0.517 24 16 8 0 0
-0.0794 0.0645 -0.4257 -0.420 0.496 0.760 46 38 30 0 0
-0.0794 0.0645 -0.4274 -0.726 0.159 0.669 46 39 29 0 0
-0.0810 0.0674 -0.4649 -0.895 0.309 0.322 28 23 20 0 0
-0.0936 0.0739 -0.4920 -0.477 0.739 0.476 43 36 32 0 0
-0.0944 0.0743 -0.4933 -0.477 0.739 0.476 36 33 29 0 0
-0.0953 0.0747 -0.4947 -0.511 0.693 0.509 29 25 22 0 0
-0.0996 0.0763 -0.4941 -0.209 0.301 0.930 33 29 26 0 0
-0.1459 0.1040 -0.6601 -0.737 0.377 0.561 78 59 37 0 0
-0.1471 0.1049 -0.6669 -0.784 0.432 0.446 91 70 44 0 0
-0.1486 0.1072 -0.6950 -0.962 0.270 -0.045 115 100 70 0 0
-0.1582 0.1123 -0.7188 -0.883 0.348 0.316 120 100 66 0 0
-0.1590 0.1127 -0.7201 -0.715 0.283 0.640 121 106 69 0 0
-0.1599 0.1132 -0.7234 -0.866 0.251 0.433 124 106 72 0 0
-0.1574 0.1127 -0.7315 -0.699 0.675 -0.234 91 81 58 0 0
-0.1569 0.1127 -0.7339 -0.687 0.722 0.087 91 82 60 0 0
-0.1550 0.1123 -0.7395 -0.940 0.338 -0.046 68 60 45 0 0
-0.1439 0.1094 -0.7632 -0.783 0.308 -0.540 69 57 35 0 0
-0.1350 0.1070 -0.7791 -0.862 0.499 0.090 80 68 45 0 0
-0.1570 0.1173 -0.8099 -0.916 0.135 0.377 103 85 55 0 0
-0.1585 0.1180 -0.8127 -0.774 0.383 0.504 77 65 43 0 0
-0.1610 0.1207 -0.8423 -0.831 0.253 0.495 135 120 82 0 0
-0.1607 0.1208 -0.8447 -0.732 0.523 0.437 144 128 92 0 0
-0.1603 0.1209 -0.8494 -0.897 0.416 0.152 118 103 72 0 0
-0.1613 0.1215 -0.8528 -0.797 0.563 0.220 110 97 63 0 0
-0.1607 0.1216 -0.8577 -0.915 0.371 0.160 96 83 54 0 0
0.0323 0.0104 -0.2095 -0.604 -0.082 0.793 176 176 174 0 0
0.0100 0.0193 -0.2160 -0.404 0.516 0.756 186 170 136 0 0
0.0011 0.0241 -0.2395 -0.826 0.511 0.239 56 41 21 0 0
-0.0009 0.0250 -0.2422 -0.718 0.538 0.442 80 66 41 0 0
-0.0026 0.0260 -0.2466 -0.829 0.398 0.393 72 55 33 0 0
0.0025 0.0256 -0.2722 -0.851 0.463 0.249 47 37 25 0 0
0.0076 0.0245 -0.2869 -0.775 0.138 0.617 22 18 13 0 0
0.0049 0.0256 -0.2878 -0.904 0.192 0.381 17 13 9 0 0
0.0065 0.0254 -0.2949 -0.885 0.220 0.410 55 47 39 0 0
-0.0713 0.0598 -0.3715 -0.797 0.441 0.412 30 25 18 0 0
-0.0909 0.0744 -0.4895 -0.444 0.839 0.314 102 95 89 0 0
-0.0770 0.0781 -0.6382 -0.639 -0.337 0.691 75 67 56 0 0
-0.1451 0.1055 -0.6601 -0.569 0.518 0.638 73 54 31 0 0
-0.1556 0.1123 -0.7065 -0.906 0.193 0.377 79 69 48 0 0
-0.1555 0.1139 -0.7345 -0.901 0.428 0.076 76 69 48 0 0
-0.1499 0.1127 -0.7493 -0.995 -0.014 0.095 91 80 54 0 0
-0.1372 0.1097 -0.7808 -0.573 0.533 0.623 43 32 20 0 0
-0.1551 0.1179 -0.8025 -0.974 0.155 0.166 84 69 43 0 0
-0.1557 0.1185 -0.8083 -0.912 0.322 0.253 110 91 63 0 0
-0.1572 0.1194 -0.8132 -0.879 0.219 0.423 81 69 43 0 0
-0.1585 0.1199 -0.8141 -0.825 0.359 0.437 81 68 47 0 0
-0.1602 0.1229 -0.8531 -0.840 0.475 0.262 115 102 68 0 0
0.0345 0.0113 -0.2098 -0.289 -0.080 0.954 177 176 176 0 0
0.0172 0.0182 -0.2141 -0.340 -0.175 0.924 183 168 139 0 0
-0.0001 0.0265 -0.2421 -0.862 0.428 0.271 86 71 48 0 0
-0.0008 0.0268 -0.2436 -0.770 0.453 0.448 67 53 31 0 0
-0.0019 0.0274 -0.2465 -0.741 0.452 0.496 75 61 41 0 0
0.0038 0.0288 -0.3056 -0.963 0.216 0.162 22 20 17 0 0
-0.0738 0.0648 -0.4104 -0.774 -0.180 0.607 39 29 21 0 0
-0.0776 0.0686 -0.4483 -0.828 0.525 0.200 16 15 15 0 0
-0.0876 0.0748 -0.4891 -0.454 0.838 0.304 86 77 69 0 0
-0.1539 0.1129 -0.6974 -0.967 0.252 0.030 25 18 15 0 0
-0.1542 0.1132 -0.7012 -0.811 -0.144 0.567 75 64 51 0 0
-0.1550 0.1136 -0.7024 -0.869 -0.162 0.468 143 127 102 0 0
-0.1498 0.1144 -0.7487 -0.995 -0.014 0.095 94 81 55 0 0
-0.1463 0.1162 -0.7993 -0.918 0.235 0.318 62 47 25 0 0
-0.1529 0.1190 -0.8039 -0.800 0.079 0.595 75 55 30 0 0
-0.1545 0.1196 -0.8045 -0.876 0.384 0.291 79 61 36 0 0
-0.1545 0.1198 -0.8066 -0.851 0.380 0.362 71 55 29 0 0
-0.1549 0.1200 -0.8083 -0.845 0.454 0.281 77 60 31 0 0
-0.1554 0.1203 -0.8100 -0.845 0.454 0.281 106 88 56 0 0
-0.1561 0.1207 -0.8114 -0.827 0.434 0.357 116 98 68 0 0
-0.1567 0.1210 -0.8130 -0.879 0.219 0.423 105 88 59 0 0
-0.1590 0.1239 -0.8470 -0.964 0.239 0.115 123 108 75 0 0
-0.1592 0.1241 -0.8490 -0.966 0.244 0.091 123 108 76 0 0
-0.1621 0.1257 -0.8570 -0.877 0.179 0.445 85 75 55 0 0
-0.1625 0.1260 -0.8587 -0.804 0.229 0.548 65 58 41 0 0
-0.1634 0.1264 -0.8600 -0.775 0.351 0.526 69 63 47 0 0
0.0065 0.0285 -0.2877 -0.792 0.114 0.599 28 23 17 0 0
0.0066 0.0293 -0.3011 -0.852 0.417 0.317 25 16 13 0 0
-0.0646 0.0601 -0.3635 -0.513 0.670 0.537 64 58 48 0 0
-0.0700 0.0643 -0.3982 -0.756 0.612 0.231 31 20 14 0 0
-0.0859 0.0759 -0.4878 -0.610 0.701 0.371 70 61 52 0 0
-0.1372 0.1053 -0.6495 -0.510 -0.559 0.654 165 149 110 0 0
-0.1499 0.1123 -0.6844 -0.753 0.518 0.405 146 125 82 0 0
-0.1495 0.1123 -0.6867 -0.948 0.238 0.213 153 132 88 0 0
-0.1532 0.1143 -0.6974 -0.976 0.106 0.191 24 18 12 0 0
-0.1494 0.1158 -0.7444 -0.981 0.177 0.078 88 75 54 0 0
-0.1495 0.1159 -0.7463 -0.981 0.177 0.078 102 87 59 0 0
-0.1496 0.1161 -0.7482 -0.981 0.177 0.078 96 81 54 0 0
-0.1320 0.1112 -0.7777 -0.700 0.148 0.699 60 46 31 0 0
-0.1331 0.1117 -0.7789 -0.700 0.148 0.699 48 37 22 0 0
-0.1525 0.1206 -0.8035 -0.800 0.079 0.595 70 50 26 0 0
-0.1539 0.1213 -0.8065 -0.905 0.224 0.361 78 59 34 0 0
-0.1546 0.1218 -0.8101 -0.845 0.454 0.281 112 92 57 0 0
-0.1551 0.1221 -0.8117 -0.750 0.545 0.374 129 108 73 0 0
-0.1556 0.1224 -0.8133 -0.750 0.545 0.374 132 113 78 0 0
-0.1561 0.1227 -0.8150 -0.866 0.269 0.422 120 103 70 0 0
-0.1582 0.1255 -0.8471 -0.903 0.408 0.134 121 107 73 0 0
-0.1584 0.1256 -0.8491 -0.903 0.408 0.134 123 108 77 0 0
-0.1590 0.1261 -0.8529 -0.787 0.283 0.548 119 106 71 0 0
-0.1598 0.1265 -0.8542 -0.787 0.283 0.548 121 105 71 0 0
-0.1616 0.1273 -0.8568 -0.770 0.508 0.387 86 77 56 0 0
0.0009 0.0302 -0.2532 -0.809 0.572 0.136 91 78 55 0 0
0.0007 0.0304 -0.2548 -0.809 0.572 0.136 89 75 56 0 0
0.0052 0.0314 -0.2988 -0.920 0.132 0.370 20 15 11 0 0
0.0051 0.0318 -0.3038 -0.861 0.492 -0.128 39 31 27 0 0
-0.0757 0.0712 -0.4467 -0.861 0.326 0.390 31 26 23 0 0
-0.0759 0.0713 -0.4484 -0.979 0.167 0.121 24 19 16 0 0
-0.1138 0.0980 -0.6465 -0.320 0.334 0.887 80 70 58 0 0
-0.1154 0.0987 -0.6473 -0.326 0.386 0.863 84 72 58 0 0
-0.1337 0.1057 -0.6496 -0.440 -0.040 0.897 100 86 60 0 0
-0.1364 0.1068 -0.6496 -0.645 0.488 0.588 144 127 91 0 0
-0.1369 0.1070 -0.6511 -0.346 0.736 0.582 194 175 130 0 0
-0.1437 0.1106 -0.6672 -0.874 0.274 0.401 85 61 36 0 0
-0.1534 0.1165 -0.7026 -0.745 0.405 0.530 89 75 50 0 0
-0.1543 0.1169 -0.7038 -0.892 0.365 0.268 131 115 88 0 0
-0.1540 0.1186 -0.7339 -0.990 -0.038 0.133 47 38 24 0 0
-0.1493 0.1177 -0.7479 -0.981 0.177 0.078 104 88 60 0 0
-0.1414 0.1154 -0.7586 -0.772 0.318 -0.550 81 70 43 0 0
-0.1496 0.1209 -0.7971 -0.803 0.402 0.440 70 51 27 0 0
-0.1526 0.1226 -0.8048 -0.874 0.354 0.332 78 54 30 0 0
-0.1533 0.1229 -0.8064 -0.893 0.370 0.258 89 65 38 0 0
-0.1537 0.1232 -0.8081 -0.893 0.370 0.258 102 79 47 0 0
-0.1541 0.1234 -0.8098 -0.893 0.370 0.258 112 90 53 0 0
-0.1545 0.1237 -0.8116 -0.893 0.370 0.258 114 92 57 0 0
-0.1547 0.1239 -0.8135 -0.750 0.545 0.374 121 102 68 0 0
-0.1579 0.1274 -0.8510 -0.903 0.408 0.134 121 106 72 0 0
0.0115 0.0256 -0.2155 -0.660 0.584 0.473 233 218 183 0 0
0.0107 0.0260 -0.2169 -0.790 0.489 0.370 240 226 189 0 0
0.0074 0.0275 -0.2225 -0.908 0.124 0.400 59 44 21 0 0
0.0021 0.0306 -0.2405 -0.745 0.567 0.351 54 40 24 0 0
0.0022 0.0307 -0.2421 -0.934 0.356 0.020 47 33 17 0 0
0.0018 0.0316 -0.2532 -0.809 0.572 0.136 88 76 54 0 0
0.0018 0.0317 -0.2549 -0.902 0.374 0.215 91 78 56 0 0
0.0051 0.0315 -0.2720 -0.530 0.563 0.634 45 34 26 0 0
0.0026 0.0342 -0.2994 -0.661 0.330 0.674 27 22 17 0 0
-0.0685 0.0679 -0.4101 -0.683 0.566 0.461 43 34 23 0 0
-0.0688 0.0693 -0.4305 -0.661 0.743 0.109 22 14 8 0 0
-0.0693 0.0697 -0.4337 -0.906 0.365 0.214 31 22 17 0 0
-0.0745 0.0724 -0.4452 -0.861 0.326 0.390 49 40 34 0 0
-0.0750 0.0726 -0.4467 -0.793 0.420 0.441 43 37 33 0 0
-0.0830 0.0782 -0.4867 -0.735 0.524 0.431 51 43 37 0 0
-0.0349 0.0698 -0.6419 0.114 0.324 0.939 83 76 69 0 0
-0.0554 0.0772 -0.6365 -0.048 0.469 0.882 70 63 53 0 0
-0.0802 0.0866 -0.6379 -0.797 -0.365 0.482 78 71 60 0 0
-0.1143 0.1000 -0.6476 -0.161 0.551 0.819 84 74 59 0 0
-0.1344 0.1077 -0.6486 -0.516 0.236 0.823 102 88 63 0 0
-0.1355 0.1082 -0.6497 -0.645 0.488 0.588 133 113 78 0 0
-0.1359 0.1084 -0.6513 -0.518 0.560 0.647 170 148 103 0 0
-0.1369 0.1089 -0.6525 -0.518 0.560 0.647 163 141 100 0 0
-0.1379 0.1093 -0.6537 -0.518 0.560 0.647 141 123 91 0 0
-0.1409 0.1107 -0.6572 -0.906 0.263 0.332 72 54 35 0 0
-0.1532 0.1168 -0.6807 -0.886 0.392 0.247 139 117 76 0 0
-0.1540 0.1172 -0.6820 -0.666 0.215 0.714 152 131 88 0 0
-0.1460 0.1153 -0.7000 -0.889 0.443 -0.117 46 37 29 0 0
-0.1564 0.1207 -0.7233 -0.905 0.261 0.335 95 85 59 0 0
-0.1490 0.1194 -0.7475 -0.981 0.177 0.078 108 93 64 0 0
-0.1531 0.1249 -0.8100 -0.852 0.397 0.340 106 84 48 0 0
-0.1536 0.1252 -0.8117 -0.852 0.397 0.340 104 83 47 0 0
-0.1542 0.1255 -0.8133 -0.852 0.397 0.340 114 96 61 0 0
-0.1546 0.1258 -0.8149 -0.784 0.489 0.382 123 106 71 0 0
-0.1548 0.1259 -0.8169 -0.890 0.270 0.368 133 116 76 0 0
-0.1553 0.1262 -0.8186 -0.902 0.262 0.344 151 135 92 0 0
0.0112 0.0274 -0.2168 -0.610 0.527 0.592 212 194 159 0 0
0.0076 0.0291 -0.2224 -0.908 0.124 0.400 103 88 57 0 0
0.0070 0.0295 -0.2238 -0.908 0.124 0.400 57 43 20 0 0
0.0066 0.0297 -0.2253 -0.909 0.319 0.268 48 34 15 0 0
0.0076 0.0318 -0.2643 -0.802 0.382 0.460 70 57 38 0 0
0.0065 0.0327 -0.2722 -0.896 0.136 0.424 37 30 20 0 0
0.0067 0.0334 -0.2837 -0.736 0.567 0.370 35 28 20 0 0
0.0019 0.0364 -0.3023 -0.623 0.711 0.324 27 21 15 0 0
0.0064 0.0352 -0.3104 -0.903 0.404 -0.147 27 22 19 0 0
-0.0542 0.0601 -0.3451 0.166 0.913 0.372 91 89 83 0 0
-0.0573 0.0616 -0.3505 -0.205 0.946 -0.250 60 55 48 0 0
-0.0643 0.0667 -0.3895 -0.838 0.545 0.011 38 28 19 0 0
-0.0685 0.0694 -0.4063 -0.896 0.397 -0.199 62 52 41 0 0
-0.0720 0.0724 -0.4339 -0.863 0.254 0.437 35 26 21 0 0
-0.0716 0.0724 -0.4358 -0.753 0.332 0.568 45 35 30 0 0
-0.0814 0.0791 -0.4836 -0.721 0.577 0.382 73 64 57 0 0
-0.0817 0.0793 -0.4852 -0.754 0.580 0.308 43 35 29 0 0
-0.0264 0.0686 -0.6427 0.264 0.215 0.940 33 28 24 0 0
-0.0330 0.0711 -0.6425 0.114 0.324 0.939 86 79 73 0 0
-0.0787 0.0878 -0.6364 -0.686 0.071 0.724 72 65 55 0 0
-0.0800 0.0883 -0.6375 -0.690 0.154 0.707 75 68 57 0 0
-0.0906 0.0927 -0.6440 -0.863 0.259 0.434 53 46 39 0 0
-0.1115 0.1009 -0.6490 -0.621 0.010 0.784 80 71 56 0 0
-0.1350 0.1097 -0.6495 -0.838 0.357 0.412 158 136 99 0 0
-0.1356 0.1100 -0.6510 -0.838 0.357 0.412 181 157 113 0 0
-0.1453 0.1168 -0.7000 -0.889 0.443 -0.117 41 33 25 0 0
-0.1538 0.1207 -0.7109 -0.900 0.177 0.398 121 104 75 0 0
-0.1553 0.1219 -0.7216 -0.896 0.383 0.223 106 95 69 0 0
-0.1523 0.1260 -0.8038 -0.592 0.402 0.698 76 53 26 0 0
-0.1520 0.1260 -0.8062 -0.832 0.469 0.297 81 57 30 0 0
-0.1537 0.1272 -0.8151 -0.800 0.420 0.428 120 101 66 0 0
-0.1548 0.1278 -0.8184 -0.902 0.262 0.344 146 127 84 0 0
-0.1551 0.1298 -0.8479 -0.749 0.477 0.459 135 121 83 0 0
-0.1563 0.1305 -0.8511 -0.782 0.481 0.397 121 106 74 0 0
-0.1570 0.1310 -0.8547 -0.811 0.432 0.394 108 92 62 0 0
0.0077 0.0310 -0.2254 -0.914 0.361 0.183 78 65 43 0 0
0.0072 0.0313 -0.2269 -0.830 0.508 0.229 44 29 12 0 0
0.0065 0.0345 -0.2719 -0.921 0.387 0.041 35 28 18 0 0
0.0066 0.0352 -0.2835 -0.674 0.556 0.486 32 25 17 0 0
0.0044 0.0375 -0.3078 -0.994 -0.097 -0.046 29 22 18 0 0
0.0059 0.0371 -0.3099 -0.954 0.300 -0.026 33 28 25 0 0
-0.0511 0.0619 -0.3641 -0.088 0.342 0.936 113 106 94 0 0
-0.0637 0.0682 -0.3894 -0.853 0.511 0.103 56 45 32 0 0
-0.0664 0.0711 -0.4188 -0.758 0.336 0.559 85 76 65 0 0
-0.0674 0.0723 -0.4322 -0.823 0.538 0.183 32 23 15 0 0
-0.0705 0.0736 -0.4342 -0.762 0.452 0.464 36 27 21 0 0
-0.0385 0.0750 -0.6425 0.178 0.265 0.948 77 68 59 0 0
-0.0795 0.0900 -0.6373 -0.690 0.154 0.707 76 69 58 0 0
-0.0913 0.0949 -0.6450 -0.206 0.854 0.478 60 53 46 0 0
-0.0982 0.0974 -0.6441 -0.185 0.131 0.974 62 55 46 0 0
-0.1109 0.1024 -0.6489 -0.600 0.105 0.793 81 72 57 0 0
-0.1113 0.1027 -0.6506 -0.972 0.115 0.206 81 72 56 0 0
-0.1332 0.1108 -0.6503 -0.386 0.006 0.923 130 106 69 0 0
-0.1386 0.1133 -0.6579 -0.850 0.493 0.184 76 59 42 0 0
-0.1389 0.1136 -0.6596 -0.881 0.272 0.387 64 45 28 0 0
-0.1552 0.1234 -0.7191 -0.793 0.256 0.553 87 76 43 0 0
-0.1560 0.1238 -0.7204 -0.786 0.267 0.557 92 84 57 0 0
-0.1553 0.1237 -0.7230 -0.949 0.170 0.267 66 57 41 0 0
-0.1520 0.1235 -0.7377 -0.886 0.450 -0.114 99 84 57 0 0
-0.1515 0.1235 -0.7422 -0.808 0.572 -0.141 112 96 69 0 0
-0.1528 0.1288 -0.8174 -0.809 0.482 0.337 135 116 76 0 0
-0.1538 0.1293 -0.8186 -0.861 0.261 0.436 136 115 74 0 0
-0.1551 0.1317 -0.8494 -0.816 0.321 0.481 136 122 86 0 0
-0.1564 0.1326 -0.8546 -0.867 0.464 0.181 113 98 68 0 0
0.0120 0.0308 -0.2214 -0.754 0.491 0.436 108 90 58 0 0
0.0076 0.0365 -0.2835 -0.757 0.126 0.641 34 27 19 0 0
0.0069 0.0369 -0.2850 -0.858 -0.110 0.501 32 25 17 0 0
0.0082 0.0376 -0.3037 -0.862 0.370 0.348 34 25 18 0 0
0.0064 0.0387 -0.3098 -0.954 0.300 -0.026 30 22 19 0 0
0.0072 0.0385 -0.3118 -0.861 0.457 -0.223 24 19 16 0 0
-0.0497 0.0630 -0.3644 -0.132 0.352 0.927 127 120 108 0 0
-0.0617 0.0682 -0.3748 -0.735 0.264 0.625 52 39 23 0 0
-0.0632 0.0697 -0.3893 -0.959 0.188 0.210 68 56 42 0 0
-0.0672 0.0733 -0.4233 -0.886 0.306 0.347 41 33 22 0 0
-0.0686 0.0746 -0.4347 -0.697 0.375 0.612 37 28 21 0 0
-0.0726 0.0770 -0.4485 -0.807 0.461 0.369 43 34 28 0 0
-0.0722 0.0772 -0.4539 -0.808 0.435 0.399 33 24 22 0 0
-0.0749 0.0902 -0.6399 -0.514 0.112 0.851 75 69 57 0 0
-0.0852 0.0941 -0.6408 -0.404 0.315 0.859 66 60 48 0 0
-0.1103 0.1040 -0.6488 -0.643 0.620 0.450 82 73 57 0 0
-0.1210 0.1081 -0.6509 -0.221 0.097 0.970 83 74 58 0 0
-0.1333 0.1131 -0.6574 -0.767 0.565 0.304 92 77 51 0 0
-0.1448 0.1204 -0.7052 -0.404 0.434 0.805 68 56 42 0 0
-0.1538 0.1246 -0.7177 -0.860 0.487 0.153 114 96 66 0 0
-0.1543 0.1249 -0.7193 -0.696 0.508 0.508 113 96 65 0 0
-0.1552 0.1256 -0.7244 -0.954 0.014 0.298 34 24 16 0 0
-0.1504 0.1249 -0.7424 -0.808 0.572 -0.141 116 98 70 0 0
-0.1409 0.1249 -0.7959 -0.868 0.094 0.488 69 54 33 0 0
-0.1417 0.1252 -0.7973 -0.840 0.133 0.527 88 72 47 0 0
-0.1505 0.1291 -0.8062 -0.717 0.216 0.663 80 60 34 0 0
-0.1544 0.1315 -0.8216 -0.692 0.497 0.524 146 130 84 0 0
-0.1550 0.1328 -0.8380 -0.912 0.202 0.358 140 122 79 0 0
0.0123 0.0326 -0.2228 -0.772 0.475 0.423 103 88 60 0 0
0.0099 0.0336 -0.2255 -0.737 0.666 0.119 84 69 40 0 0
0.0099 0.0337 -0.2271 -0.850 0.527 -0.007 88 73 46 0 0
0.0080 0.0381 -0.2834 -0.757 0.126 0.641 27 20 12 0 0
0.0087 0.0390 -0.3019 -0.937 0.240 0.253 34 27 17 0 0
0.0084 0.0393 -0.3035 -0.911 0.281 0.301 35 29 17 0 0
0.0080 0.0395 -0.3050 -0.911 0.281 0.301 57 51 39 0 0
-0.0673 0.0742 -0.4092 -0.687 0.452 0.568 45 35 23 0 0
-0.0668 0.0749 -0.4231 -0.582 0.680 0.446 42 32 24 0 0
-0.0777 0.0826 -0.4790 -0.805 0.530 0.266 66 56 45 0 0
-0.0670 0.0892 -0.6407 -0.205 0.586 0.784 70 63 53 0 0
-0.1196 0.1093 -0.6514 -0.067 0.713 0.698 83 74 58 0 0
-0.1326 0.1145 -0.6574 -0.876 0.395 0.278 82 69 41 0 0
-0.1513 0.1232 -0.6839 -0.704 0.334 0.627 156 132 91 0 0
-0.1507 0.1231 -0.6863 -0.903 0.237 0.359 153 131 92 0 0
-0.1540 0.1265 -0.7189 -0.891 0.103 0.442 119 103 72 0 0
-0.1502 0.1266 -0.7420 -0.874 0.403 -0.271 118 103 72 0 0
-0.1403 0.1264 -0.7958 -0.825 0.163 0.542 69 55 38 0 0
-0.1513 0.1325 -0.8258 -0.927 0.208 0.311 149 133 88 0 0
0.0151 0.0329 -0.2169 -0.514 0.540 0.667 129 119 90 0 0
0.0141 0.0333 -0.2183 -0.773 0.222 0.595 95 85 57 0 0
0.0138 0.0335 -0.2198 -0.862 0.183 0.473 86 73 45 0 0
0.0109 0.0349 -0.2255 -0.632 0.766 0.122 93 78 51 0 0
0.0109 0.0397 -0.2973 -0.874 0.201 0.442 26 18 12 0 0
0.0059 0.0423 -0.3092 -0.986 0.106 0.130 34 28 22 0 0
-0.0594 0.0707 -0.3751 -0.776 0.510 0.371 54 42 27 0 0
-0.0647 0.0743 -0.3998 -0.953 0.296 0.061 72 59 43 0 0
-0.0650 0.0745 -0.4014 -0.776 0.449 0.443 53 43 30 0 0
-0.0675 0.0776 -0.4345 -0.910 0.131 0.394 43 34 25 0 0
-0.0670 0.0776 -0.4365 -0.965 0.227 0.134 40 30 21 0 0
-0.1582 0.1167 -0.5197 -0.843 0.280 0.459 57 47 32 0 0
-0.0614 0.0888 -0.6380 -0.290 0.534 0.794 68 59 50 0 0
-0.0621 0.0891 -0.6395 -0.415 0.651 0.636 68 59 50 0 0
-0.0643 0.0900 -0.6400 -0.505 0.480 0.718 67 59 50 0 0
-0.0698 0.0920 -0.6403 -0.174 0.172 0.969 67 60 50 0 0
-0.0890 0.0993 -0.6431 -0.650 0.738 0.181 55 48 39 0 0
-0.1309 0.1155 -0.6542 -0.892 0.423 0.159 131 113 78 0 0
-0.1315 0.1158 -0.6557 -0.876 0.395 0.278 103 89 58 0 0
-0.1319 0.1160 -0.6574 -0.876 0.395 0.278 81 68 40 0 0
-0.1404 0.1194 -0.6607 -0.718 0.456 0.526 57 40 23 0 0
-0.1497 0.1262 -0.7119 -0.950 0.274 0.148 100 86 51 0 0
-0.1514 0.1270 -0.7145 -0.837 0.514 0.189 105 90 61 0 0
-0.1519 0.1273 -0.7160 -0.908 0.393 0.147 111 94 63 0 0
-0.1515 0.1274 -0.7204 -0.570 0.641 0.514 119 102 69 0 0
-0.1412 0.1258 -0.7530 -0.641 0.535 -0.550 59 51 33 0 0
-0.1416 0.1288 -0.7960 -0.747 0.361 0.557 54 41 26 0 0
-0.1426 0.1292 -0.7973 -0.939 0.190 0.285 58 45 28 0 0
-0.1520 0.1342 -0.8203 -0.876 0.461 0.145 142 120 79 0 0
0.0120 0.0370 -0.2367 -0.826 0.441 0.351 101 84 54 0 0
0.0115 0.0373 -0.2382 -0.826 0.441 0.351 103 86 58 0 0
0.0109 0.0376 -0.2397 -0.833 0.506 0.223 63 49 28 0 0
-0.0294 0.0609 -0.3678 0.004 -0.147 0.989 178 180 185 0 0
-0.0559 0.0705 -0.3661 -0.298 0.898 0.323 193 181 155 0 0
-0.0574 0.0716 -0.3739 -0.839 0.422 0.343 41 31 16 0 0
-0.0598 0.0727 -0.3763 -0.783 0.552 0.288 76 63 46 0 0
-0.0619 0.0743 -0.3888 -0.699 0.266 0.664 67 53 37 0 0
-0.0651 0.0784 -0.4335 -0.695 0.564 0.446 39 31 20 0 0
-0.0768 0.0860 -0.4840 -0.949 0.272 0.157 30 23 18 0 0
-0.1591 0.1201 -0.5413 -0.895 0.446 -0.008 161 144 109 0 0
-0.1591 0.1202 -0.5430 -0.864 0.503 -0.036 125 110 83 0 0
-0.0183 0.0755 -0.6494 0.281 0.632 0.722 13 11 11 0 0
-0.0622 0.0910 -0.6389 -0.826 -0.515 0.227 66 59 49 0 0
-0.0863 0.1002 -0.6444 -0.349 0.887 0.304 60 53 43 0 0
-0.1220 0.1136 -0.6486 -0.978 0.026 -0.205 90 81 65 0 0
-0.1300 0.1168 -0.6524 -0.909 0.288 0.302 148 126 84 0 0
-0.1305 0.1170 -0.6540 -0.909 0.288 0.302 136 117 80 0 0
-0.1309 0.1173 -0.6556 -0.909 0.288 0.302 109 92 62 0 0
-0.1313 0.1175 -0.6573 -0.940 0.225 0.258 98 85 58 0 0
-0.1499 0.1282 -0.7151 -0.681 0.703 0.205 109 93 62 0 0
-0.1479 0.1336 -0.8065 -0.666 0.488 0.564 82 67 41 0 0
-0.1540 0.1381 -0.8412 -0.837 0.499 0.224 149 132 89 0 0
0.0078 0.0402 -0.2355 -0.873 0.407 0.268 114 97 65 0 0
0.0075 0.0410 -0.2467 -0.783 0.187 0.594 56 43 28 0 0
-0.0592 0.0741 -0.3762 -0.629 0.649 0.428 70 57 38 0 0
-0.0602 0.0758 -0.3960 -0.897 0.178 0.404 77 64 50 0 0
-0.0750 0.0871 -0.4845 -0.910 -0.109 0.399 32 25 19 0 0
-0.1585 0.1201 -0.5204 -0.897 0.293 0.330 27 23 18 0 0
-0.0140 0.0760 -0.6516 0.166 0.856 0.489 14 11 11 0 0
-0.0178 0.0774 -0.6512 0.283 0.666 0.690 18 15 13 0 0
-0.0622 0.0929 -0.6404 0.091 0.042 0.995 66 58 48 0 0
-0.0647 0.0938 -0.6407 -0.125 -0.319 0.939 65 57 48 0 0
-0.0848 0.1013 -0.6429 -0.598 -0.073 0.798 61 54 44 0 0
-0.1124 0.1120 -0.6510 -0.955 0.088 0.284 81 72 56 0 0
-0.1334 0.1198 -0.6533 -0.908 0.029 0.418 120 103 70 0 0
-0.1312 0.1194 -0.6587 -0.940 0.225 0.258 79 65 40 0 0
-0.1381 0.1219 -0.6594 -0.777 0.510 0.369 69 49 32 0 0
-0.1407 0.1233 -0.6652 -0.528 0.652 0.543 87 63 40 0 0
-0.1412 0.1241 -0.6744 -0.892 0.233 0.387 89 63 34 0 0
-0.1455 0.1258 -0.6769 -0.731 0.301 0.613 108 86 54 0 0
-0.1402 0.1257 -0.7045 -0.556 0.347 0.755 28 22 8 0 0
-0.1413 0.1262 -0.7056 -0.556 0.347 0.755 88 76 56 0 0
-0.1482 0.1293 -0.7139 -0.619 0.783 0.065 105 89 56 0 0
-0.1484 0.1295 -0.7157 -0.512 0.834 0.206 120 104 70 0 0
-0.1505 0.1303 -0.7160 -0.885 0.458 -0.084 116 100 64 0 0
-0.1384 0.1309 -0.7913 -0.810 0.504 0.298 54 46 25 0 0
-0.1395 0.1315 -0.7946 -0.761 0.534 0.368 53 45 27 0 0
-0.1401 0.1318 -0.7961 -0.665 0.600 0.445 62 52 34 0 0
0.0112 0.0420 -0.2555 -0.807 0.341 0.481 90 78 56 0 0
0.0121 0.0418 -0.2573 -0.909 0.321 0.265 85 72 54 0 0
0.0050 0.0478 -0.3081 -0.831 0.314 0.459 54 42 32 0 0
-0.0577 0.0761 -0.3883 -0.791 0.415 0.450 77 61 44 0 0
-0.0597 0.0773 -0.3959 -0.869 0.307 0.389 105 91 77 0 0
-0.0602 0.0776 -0.3973 -0.869 0.307 0.389 53 40 24 0 0
-0.0607 0.0781 -0.4022 -0.820 0.532 0.209 62 48 37 0 0
-0.0760 0.0891 -0.4818 -0.893 0.413 0.177 44 35 25 0 0
-0.0750 0.0888 -0.4842 -0.921 0.278 0.273 38 30 21 0 0
-0.1576 0.1213 -0.5188 -0.888 0.226 0.400 51 47 39 0 0
-0.1581 0.1215 -0.5202 -0.866 0.373 0.334 40 35 26 0 0
-0.1585 0.1218 -0.5217 -0.866 0.373 0.334 41 35 23 0 0
-0.1586 0.1220 -0.5233 -0.885 0.393 0.251 55 47 30 0 0
-0.0033 0.0743 -0.6559 -0.385 -0.170 0.907 11 10 8 0 0
-0.0885 0.1044 -0.6419 -0.358 0.132 0.924 66 58 49 0 0
-0.1373 0.1234 -0.6595 -0.842 0.425 0.333 70 50 33 0 0
-0.1431 0.1287 -0.7075 -0.299 0.544 0.784 93 79 48 0 0
-0.1448 0.1294 -0.7081 -0.533 0.636 0.558 114 95 55 0 0
-0.1466 0.1305 -0.7147 -0.979 0.203 0.018 133 116 83 0 0
-0.1369 0.1320 -0.7899 -0.668 0.408 0.623 100 87 58 0 0
-0.1511 0.1419 -0.8597 -0.827 0.500 0.255 73 66 48 0 0
-0.1519 0.1423 -0.8611 -0.744 0.456 0.489 67 63 47 0 0
-0.1528 0.1427 -0.8624 -0.655 0.395 0.644 85 79 66 0 0
0.0124 0.0433 -0.2555 -0.720 0.582 0.378 67 54 35 0 0
-0.0547 0.0756 -0.3724 -0.859 0.356 0.368 36 24 13 0 0
-0.0542 0.0756 -0.3759 -0.764 0.638 -0.094 55 46 30 0 0
-0.0554 0.0762 -0.3771 -0.516 0.623 0.588 86 75 59 0 0
-0.0573 0.0778 -0.3915 -0.846 0.450 0.285 64 52 31 0 0
-0.0586 0.0804 -0.4216 -0.908 0.398 0.134 89 78 63 0 0
-0.0616 0.0832 -0.4480 -0.697 0.370 0.615 112 101 87 0 0
-0.0639 0.0846 -0.4557 -0.556 0.767 0.321 43 33 23 0 0
-0.1102 0.1143 -0.6457 -0.446 0.594 0.669 76 67 50 0 0
-0.1106 0.1146 -0.6473 -0.457 0.271 0.847 77 68 52 0 0
-0.1342 0.1237 -0.6554 -0.726 0.374 0.576 92 78 52 0 0
-0.1366 0.1248 -0.6595 -0.884 0.324 0.337 70 51 33 0 0
-0.1421 0.1292 -0.6940 -0.841 0.538 -0.064 50 37 20 0 0
-0.1470 0.1339 -0.7376 -0.922 0.371 0.111 125 110 75 0 0
-0.1405 0.1321 -0.7451 -0.777 0.480 -0.407 100 87 61 0 0
-0.1162 0.1258 -0.7820 -0.277 0.358 0.892 67 54 38 0 0
-0.1175 0.1265 -0.7851 -0.706 0.666 0.242 78 65 46 0 0
-0.1199 0.1275 -0.7872 -0.805 0.545 0.235 106 92 66 0 0
0.0119 0.0440 -0.2391 -0.449 0.654 0.609 86 72 43 0 0
0.0140 0.0444 -0.2557 -0.515 0.751 0.412 41 28 11 0 0
0.0134 0.0463 -0.2801 -0.790 0.318 0.525 38 29 20 0 0
0.0125 0.0467 -0.2815 -0.866 0.306 0.396 29 20 13 0 0
0.0102 0.0499 -0.3159 -0.799 0.595 -0.083 21 15 12 0 0
-0.0536 0.0771 -0.3758 -0.835 0.540 0.106 57 47 32 0 0
-0.0547 0.0776 -0.3771 -0.408 0.719 0.562 58 48 33 0 0
-0.0592 0.0839 -0.4453 -0.730 0.511 0.455 91 79 61 0 0
-0.0603 0.0849 -0.4535 -0.908 0.282 0.311 58 48 39 0 0
-0.0626 0.0859 -0.4559 -0.966 0.238 -0.098 55 45 34 0 0
-0.0636 0.0869 -0.4660 -0.875 0.450 0.178 21 14 10 0 0
-0.1513 0.1216 -0.5096 -0.846 0.308 0.435 68 56 33 0 0
-0.1547 0.1230 -0.5128 -0.829 0.477 0.292 85 72 47 0 0
-0.1549 0.1234 -0.5161 -0.819 0.536 0.203 97 90 71 0 0
-0.1570 0.1256 -0.5374 -0.619 0.575 0.535 127 106 64 0 0
-0.1098 0.1161 -0.6474 -0.457 0.271 0.847 71 60 45 0 0
-0.1326 0.1248 -0.6542 -0.707 0.295 0.642 128 111 79 0 0
-0.1416 0.1306 -0.6919 -0.964 0.162 0.211 75 60 36 0 0
-0.1412 0.1306 -0.6942 -0.946 0.319 -0.063 44 31 16 0 0
-0.1464 0.1339 -0.7136 -0.941 0.338 -0.036 126 108 74 0 0
-0.1491 0.1350 -0.7153 -0.920 0.353 0.171 99 85 56 0 0
-0.1474 0.1355 -0.7326 -0.848 0.459 0.264 131 116 77 0 0
-0.1159 0.1275 -0.7817 -0.466 0.680 0.566 67 53 37 0 0
-0.1164 0.1278 -0.7833 -0.587 0.552 0.593 66 54 38 0 0
-0.1168 0.1281 -0.7851 -0.845 0.382 0.374 80 68 50 0 0
-0.1507 0.1456 -0.8630 -0.587 0.630 0.508 94 89 75 0 0
0.0138 0.0448 -0.2361 -0.643 0.708 0.290 82 65 41 0 0
0.0144 0.0488 -0.2968 -0.836 0.495 0.236 57 42 27 0 0
-0.0543 0.0798 -0.3870 -0.884 0.311 0.350 65 52 35 0 0
-0.0565 0.0835 -0.4288 -0.641 0.618 0.455 76 66 55 0 0
-0.0586 0.0854 -0.4452 -0.649 0.437 0.623 113 101 80 0 0
-0.0631 0.0881 -0.4606 -0.644 0.673 0.364 36 29 22 0 0
-0.1370 0.1151 -0.4664 -0.952 0.281 0.123 81 72 63 0 0
-0.1399 0.1179 -0.4919 -0.987 -0.007 0.160 103 88 72 0 0
-0.1416 0.1191 -0.5012 -0.800 0.270 0.536 47 36 33 0 0
-0.1269 0.1241 -0.6482 -0.741 0.171 0.650 130 110 78 0 0
-0.1277 0.1244 -0.6495 -0.610 0.465 0.641 153 129 89 0 0
-0.1287 0.1249 -0.6508 -0.610 0.465 0.641 179 153 115 0 0
-0.1402 0.1320 -0.6943 -0.849 0.529 -0.004 45 33 18 0 0
-0.1444 0.1351 -0.7166 -0.834 0.280 0.475 118 102 69 0 0
-0.1463 0.1369 -0.7329 -0.971 0.211 0.112 137 119 83 0 0
-0.1168 0.1294 -0.7781 -0.774 0.600 -0.202 69 56 39 0 0
-0.1145 0.1290 -0.7842 -0.632 0.397 0.665 54 40 27 0 0
-0.1161 0.1296 -0.7850 -0.845 0.382 0.374 68 55 40 0 0
-0.1214 0.1319 -0.7910 -0.929 0.080 0.362 175 159 121 0 0
-0.1336 0.1372 -0.8034 -0.949 0.242 0.201 73 61 36 0 0
-0.1484 0.1465 -0.8602 -0.833 0.518 0.196 70 63 48 0 0
0.0158 0.0472 -0.2557 -0.526 0.683 0.506 99 84 63 0 0
0.0131 0.0513 -0.3012 -0.784 0.224 0.579 41 27 16 0 0
0.0113 0.0531 -0.3174 -0.997 0.072 -0.003 27 20 12 0 0
0.0229 0.0498 -0.3296 -0.854 0.295 0.428 41 34 27 0 0
0.0230 0.0501 -0.3348 -0.990 0.109 -0.091 139 139 139 0 0
-0.0548 0.0845 -0.4275 -0.723 0.549 0.418 43 33 24 0 0
-0.0564 0.0852 -0.4285 -0.783 0.256 0.567 122 113 100 0 0
-0.0591 0.0879 -0.4534 -0.873 0.411 0.264 46 35 24 0 0
-0.0598 0.0882 -0.4548 -0.820 0.285 0.496 61 49 36 0 0
-0.0604 0.0890 -0.4633 -0.757 0.652 0.038 35 28 19 0 0
-0.1366 0.1165 -0.4662 -0.748 0.449 0.489 100 89 75 0 0
-0.1395 0.1190 -0.4865 -0.953 0.220 0.208 138 126 111 0 0
-0.1397 0.1196 -0.4933 -0.939 0.028 0.341 61 49 36 0 0
-0.1394 0.1196 -0.4951 -0.894 0.064 0.442 32 22 12 0 0
-0.1403 0.1202 -0.4998 -0.761 0.413 0.501 46 38 29 0 0
-0.1408 0.1205 -0.5012 -0.791 0.505 0.347 33 22 19 0 0
-0.1417 0.1209 -0.5024 -0.761 0.413 0.501 37 23 22 0 0
-0.1392 0.1334 -0.6945 -0.839 0.544 0.019 46 37 19 0 0
-0.1440 0.1363 -0.7104 -0.784 0.486 0.385 104 86 52 0 0
-0.1440 0.1364 -0.7124 -0.925 0.362 0.117 135 116 77 0 0
-0.1442 0.1366 -0.7142 -0.981 0.192 -0.034 133 115 73 0 0
-0.1128 0.1301 -0.7830 -0.306 0.658 0.688 71 58 42 0 0
-0.1128 0.1303 -0.7851 -0.424 0.196 0.884 52 39 25 0 0
-0.1150 0.1311 -0.7853 -0.587 0.296 0.754 50 38 24 0 0
-0.1209 0.1336 -0.7907 -0.931 0.165 0.324 128 112 82 0 0
-0.1216 0.1342 -0.7965 -0.686 0.724 0.070 147 133 93 0 0
-0.1216 0.1344 -0.7986 -0.686 0.724 0.070 126 112 74 0 0
-0.1280 0.1364 -0.7951 -0.195 0.914 0.355 107 93 58 0 0
0.0192 0.0474 -0.2515 -0.794 0.607 -0.037 76 62 41 0 0
0.0196 0.0474 -0.2532 -0.867 0.490 0.095 79 64 41 0 0
0.0164 0.0514 -0.2935 -0.910 0.179 0.373 66 49 30 0 0
0.0147 0.0522 -0.2964 -0.913 0.358 0.197 64 46 27 0 0
0.0141 0.0525 -0.2979 -0.905 0.355 0.236 62 45 29 0 0
0.0121 0.0546 -0.3174 -0.999 -0.025 -0.041 43 33 23 0 0
0.0114 0.0551 -0.3205 -0.819 0.574 0.023 28 19 15 0 0
-0.0522 0.0822 -0.3839 -0.891 0.263 0.371 74 57 39 0 0
-0.0533 0.0856 -0.4260 -0.944 0.251 0.213 41 30 21 0 0
-0.0546 0.0861 -0.4272 -0.870 0.162 0.465 100 90 79 0 0
-0.0558 0.0867 -0.4284 -0.817 0.082 0.570 140 130 117 0 0
-0.0584 0.0893 -0.4533 -0.873 0.411 0.264 58 45 34 0 0
-0.0592 0.0897 -0.4547 -0.820 0.285 0.496 73 61 46 0 0
-0.0700 0.0949 -0.4741 -0.631 0.435 0.642 87 72 49 0 0
-0.1363 0.1183 -0.4694 -0.916 0.104 0.386 91 79 62 0 0
-0.1393 0.1209 -0.4914 -0.859 0.429 0.279 85 70 52 0 0
-0.1392 0.1210 -0.4931 -0.887 0.319 0.334 63 52 38 0 0
-0.1389 0.1210 -0.4950 -0.855 0.468 0.224 32 22 12 0 0
-0.1391 0.1212 -0.4966 -0.897 0.424 0.125 76 67 56 0 0
-0.1394 0.1214 -0.4981 -0.855 0.468 0.224 64 56 45 0 0
-0.1397 0.1216 -0.4997 -0.855 0.301 0.422 61 52 42 0 0
-0.1402 0.1219 -0.5011 -0.855 0.301 0.422 27 17 14 0 0
-0.1408 0.1222 -0.5025 -0.808 0.281 0.518 29 19 17 0 0
-0.1329 0.1304 -0.6581 -0.706 0.321 0.632 78 62 36 0 0
-0.1338 0.1308 -0.6593 -0.838 0.432 0.334 103 87 63 0 0
-0.1339 0.1313 -0.6669 -0.887 0.172 0.430 87 67 43 0 0
-0.1375 0.1345 -0.6933 -0.991 0.135 0.017 86 73 43 0 0
-0.1381 0.1348 -0.6948 -0.797 0.603 -0.033 46 39 18 0 0
-0.1348 0.1343 -0.7053 -0.853 0.162 0.496 103 91 66 0 0
-0.1426 0.1374 -0.7090 -0.951 0.045 0.306 148 128 89 0 0
-0.1433 0.1380 -0.7143 -0.972 0.235 0.025 140 120 78 0 0
-0.1434 0.1382 -0.7162 -0.987 0.055 0.149 121 104 66 0 0
-0.1444 0.1398 -0.7333 -0.970 0.050 0.236 139 122 82 0 0
-0.1103 0.1310 -0.7823 -0.344 0.804 0.485 89 77 60 0 0
-0.1112 0.1314 -0.7837 -0.202 0.581 0.788 88 76 58 0 0
-0.1198 0.1350 -0.7910 -0.846 0.226 0.482 101 86 64 0 0
-0.1204 0.1354 -0.7927 -0.917 0.338 0.211 112 98 69 0 0
-0.1204 0.1355 -0.7947 -0.941 0.320 0.111 125 109 75 0 0
-0.1206 0.1357 -0.7967 -0.941 0.320 0.111 132 117 80 0 0
-0.1228 0.1365 -0.7969 -0.795 0.597 0.104 131 117 78 0 0
-0.1249 0.1374 -0.7993 -0.551 0.631 0.546 104 89 56 0 0
-0.1246 0.1375 -0.8016 -0.574 0.483 0.662 98 84 50 0 0
-0.1256 0.1379 -0.8028 -0.574 0.483 0.662 86 70 39 0 0
-0.1362 0.1425 -0.8145 -0.810 0.534 0.242 160 140 93 0 0
-0.1505 0.1515 -0.8697 -0.825 0.459 -0.329 177 176 174 0 0
0.0204 0.0483 -0.2451 -0.842 0.529 0.112 52 39 21 0 0
0.0200 0.0486 -0.2482 -0.595 0.802 -0.049 55 41 25 0 0
0.0199 0.0488 -0.2498 -0.804 0.592 0.052 55 42 26 0 0
0.0200 0.0488 -0.2515 -0.975 0.187 0.123 66 53 36 0 0
0.0151 0.0538 -0.2962 -0.862 0.489 0.134 68 51 29 0 0
0.0125 0.0564 -0.3206 -0.737 0.669 0.089 30 21 15 0 0
0.0162 0.0554 -0.3252 -0.980 -0.068 0.186 28 22 17 0 0
-0.0542 0.0870 -0.4167 -0.613 0.443 0.654 65 54 39 0 0
-0.0543 0.0877 -0.4270 -0.900 0.289 0.326 123 112 99 0 0
-0.0571 0.0902 -0.4483 -0.788 0.349 0.507 124 108 83 0 0
-0.0682 0.0962 -0.4764 -0.843 0.270 0.465 84 70 47 0 0
-0.1375 0.1216 -0.4869 -0.943 0.275 0.189 63 50 32 0 0
-0.1383 0.1219 -0.4882 -0.862 0.500 0.078 76 61 38 0 0
-0.1384 0.1222 -0.4915 -0.827 0.509 0.238 76 63 46 0 0
-0.1385 0.1226 -0.4966 -0.897 0.424 0.125 53 44 34 0 0
-0.1387 0.1228 -0.4981 -0.855 0.468 0.224 63 54 45 0 0
-0.1528 0.1306 -0.5382 -0.593 0.628 0.503 145 128 89 0 0
-0.1525 0.1307 -0.5401 -0.863 0.492 0.109 153 136 96 0 0
-0.1484 0.1299 -0.5497 -0.544 0.793 0.274 164 146 105 0 0
-0.1489 0.1302 -0.5512 -0.433 0.805 0.405 136 120 81 0 0
-0.1425 0.1391 -0.7085 -0.965 0.119 0.232 134 115 78 0 0
-0.1431 0.1397 -0.7139 -0.901 0.409 0.142 152 131 91 0 0
-0.1433 0.1399 -0.7158 -0.901 0.409 0.142 118 99 64 0 0
-0.1417 0.1402 -0.7289 -0.710 0.523 0.472 106 89 57 0 0
-0.1218 0.1380 -0.7971 -0.906 0.399 0.143 129 113 78 0 0
-0.1312 0.1418 -0.8035 -0.953 0.147 0.266 93 84 49 0 0
-0.1414 0.1472 -0.8281 -0.681 0.361 0.637 125 109 73 0 0
-0.1434 0.1479 -0.8285 -0.927 0.302 0.223 126 109 74 0 0
0.0152 0.0572 -0.3212 -0.963 0.235 -0.134 34 26 19 0 0
0.0238 0.0553 -0.3359 -0.979 0.203 -0.027 86 85 81 0 0
0.0200 0.0568 -0.3381 -0.787 -0.085 -0.612 176 177 180 0 0
-0.0547 0.0883 -0.4093 -0.801 0.512 0.310 82 67 48 0 0
-0.0551 0.0886 -0.4108 -0.801 0.512 0.310 67 51 35 0 0
-0.0669 0.0976 -0.4784 -0.908 0.328 0.259 82 70 45 0 0
-0.0704 0.0989 -0.4802 -0.827 0.247 0.505 78 64 42 0 0
-0.1382 0.1235 -0.4878 -0.960 0.142 0.240 73 59 40 0 0
-0.1383 0.1241 -0.4963 -0.986 0.145 0.083 38 30 25 0 0
-0.1386 0.1244 -0.4978 -0.966 0.183 0.180 40 32 28 0 0
-0.1398 0.1249 -0.4988 -0.858 0.358 0.369 32 23 18 0 0
-0.1403 0.1251 -0.5003 -0.858 0.358 0.369 31 22 20 0 0
-0.1408 0.1254 -0.5017 -0.830 0.250 0.499 29 22 18 0 0
-0.1417 0.1261 -0.5063 -0.842 0.491 0.224 38 30 19 0 0
-0.1516 0.1320 -0.5402 -0.879 0.455 0.143 141 125 82 0 0
-0.1517 0.1322 -0.5419 -0.866 0.492 0.090 147 128 86 0 0
-0.1507 0.1321 -0.5461 -0.709 0.698 0.096 161 143 102 0 0
-0.1073 0.1241 -0.6484 -0.263 0.423 0.867 86 76 59 0 0
-0.1342 0.1348 -0.6656 -0.840 0.441 0.316 75 53 29 0 0
-0.1351 0.1354 -0.6688 -0.860 0.431 0.273 68 48 23 0 0
-0.1337 0.1358 -0.6815 -0.863 0.121 0.490 140 117 75 0 0
-0.1336 0.1359 -0.6835 -0.844 0.422 0.331 156 133 88 0 0
-0.1389 0.1393 -0.7049 -0.733 0.573 0.367 130 109 73 0 0
-0.1400 0.1397 -0.7060 -0.823 0.502 0.265 148 128 86 0 0
-0.1198 0.1389 -0.7940 -0.767 0.129 0.629 72 61 34 0 0
-0.1208 0.1393 -0.7952 -0.767 0.129 0.629 101 85 57 0 0
-0.1210 0.1395 -0.7971 -0.924 0.337 0.180 117 101 72 0 0
-0.1215 0.1398 -0.7988 -0.966 0.201 0.160 122 107 76 0 0
-0.1310 0.1435 -0.8030 -0.985 0.165 0.055 96 86 52 0 0
-0.1389 0.1475 -0.8192 -0.857 0.441 0.266 83 77 47 0 0
-0.1427 0.1495 -0.8284 -0.968 0.219 0.121 125 110 73 0 0
0.0148 0.0580 -0.3056 -0.844 0.525 0.111 42 29 20 0 0
0.0160 0.0589 -0.3229 -0.972 0.160 -0.170 38 31 22 0 0
-0.0668 0.0991 -0.4763 -0.852 0.240 0.466 94 81 60 0 0
-0.0668 0.0993 -0.4781 -0.909 0.264 0.323 88 73 49 0 0
-0.0709 0.1012 -0.4849 -0.750 0.072 0.658 74 58 36 0 0
-0.1425 0.1282 -0.5089 -0.768 0.623 0.149 49 40 30 0 0
-0.1480 0.1319 -0.5333 -0.466 0.884 0.045 99 85 57 0 0
-0.1329 0.1374 -0.6835 -0.841 0.330 0.429 156 134 89 0 0
-0.1353 0.1389 -0.6934 -0.985 0.142 -0.094 101 86 55 0 0
-0.1396 0.1415 -0.7076 -0.701 0.368 0.611 165 144 104 0 0
-0.1407 0.1424 -0.7147 -0.754 0.638 0.158 146 126 83 0 0
-0.1203 0.1410 -0.7950 -0.767 0.129 0.629 44 36 14 0 0
-0.1207 0.1412 -0.7967 -0.920 0.072 0.384 70 57 35 0 0
-0.1213 0.1415 -0.7983 -0.933 0.012 0.359 92 78 53 0 0
-0.1305 0.1453 -0.8049 -0.808 0.379 0.450 103 92 63 0 0
-0.1449 0.1529 -0.8406 -0.750 0.594 0.291 130 111 73 0 0
0.0250 0.0524 -0.2537 -0.833 0.319 0.451 97 82 60 0 0
0.0159 0.0606 -0.3226 -0.974 0.147 -0.170 48 39 27 0 0
-0.0660 0.1009 -0.4817 -0.808 0.576 0.125 84 67 40 0 0
-0.1386 0.1264 -0.4817 -0.996 0.006 -0.087 73 63 53 0 0
-0.1387 0.1277 -0.4987 -0.936 -0.113 0.333 20 16 14 0 0
-0.0319 0.1017 -0.6572 0.244 0.643 0.726 40 37 35 0 0
-0.0650 0.1128 -0.6491 0.062 0.563 0.824 90 82 72 0 0
-0.1296 0.1363 -0.6603 -0.866 0.425 0.264 86 68 43 0 0
-0.1384 0.1427 -0.7060 -0.807 0.398 0.437 164 142 98 0 0
-0.1391 0.1430 -0.7074 -0.797 0.150 0.586 165 144 102 0 0
-0.1392 0.1435 -0.7133 -0.835 0.528 0.156 153 132 87 0 0
-0.1397 0.1438 -0.7149 -0.805 0.593 0.024 148 127 86 0 0
-0.1200 0.1428 -0.7967 -0.677 0.588 0.443 44 37 18 0 0
-0.1413 0.1526 -0.8283 -0.772 0.579 0.261 129 114 78 0 0
