ply
format ascii 1.0
element vertex 864
property float x
property float y
property float z
property float nx
property float ny
property float nz
property uchar diffuse_red
property uchar diffuse_green
property uchar diffuse_blue
property uchar class
property uchar detection
end_header
-0.0836 0.1297 -0.5327 0.223 0.316 0.922 131 118 103 0 0
-0.0793 0.1321 -0.5340 0.599 0.421 0.681 163 148 120 0 0
-0.0782 0.1327 -0.5353 0.577 0.549 0.605 173 159 124 0 0
-0.1427 0.0984 -0.6535 -0.359 0.087 0.929 207 207 205 0 0
-0.0986 0.1227 -0.6473 0.054 0.439 0.897 105 93 77 0 0
-0.0893 0.1278 -0.6513 0.096 0.633 0.768 129 114 88 0 0
-0.0635 0.1423 -0.6763 0.518 0.777 0.357 106 90 63 0 0
-0.0629 0.1427 -0.6779 0.518 0.777 0.357 111 97 72 0 0
-0.0666 0.1409 -0.7079 0.822 0.362 0.440 108 95 70 0 0
-0.0838 0.1322 -0.7844 0.206 0.570 0.796 159 144 109 0 0
-0.0693 0.1404 -0.7944 0.257 0.798 0.545 112 101 77 0 0
-0.1180 0.1085 -0.5078 0.529 -0.719 0.450 55 45 35 0 0
-0.1012 0.1179 -0.5219 0.624 -0.362 0.693 49 41 37 0 0
-0.1011 0.1180 -0.5238 0.510 -0.486 0.710 52 45 37 0 0
-0.0995 0.1189 -0.5248 0.642 -0.490 0.590 60 53 44 0 0
-0.0975 0.1200 -0.5256 0.740 -0.452 0.498 63 54 45 0 0
-0.0946 0.1217 -0.5278 0.453 -0.325 0.830 81 75 64 0 0
-0.0667 0.1372 -0.5424 0.047 0.917 0.395 127 112 76 0 0
-0.0733 0.1337 -0.5598 0.294 0.798 -0.526 145 130 91 0 0
-0.0898 0.1255 -0.6503 0.258 0.712 0.653 115 100 78 0 0
-0.0853 0.1280 -0.6533 0.322 0.196 0.926 120 105 82 0 0
-0.0818 0.1300 -0.6551 0.304 0.416 0.857 149 133 103 0 0
-0.0661 0.1392 -0.7082 0.737 0.643 0.208 116 103 78 0 0
-0.0821 0.1311 -0.7859 0.485 0.234 0.843 67 59 39 0 0
-0.0676 0.1392 -0.7916 0.544 0.607 0.579 107 93 70 0 0
-0.0652 0.1406 -0.7939 0.620 0.593 0.514 116 101 74 0 0
-0.0643 0.1410 -0.7954 0.620 0.593 0.514 145 130 101 0 0
-0.0528 0.1476 -0.8098 0.738 0.639 0.218 127 106 75 0 0
-0.0520 0.1480 -0.8113 0.887 0.455 0.075 185 160 122 0 0
-0.1742 0.0748 -0.4522 -0.101 0.507 0.856 122 116 104 0 0
-0.1719 0.0761 -0.4531 -0.144 0.469 0.871 124 113 98 0 0
-0.1010 0.1161 -0.5242 0.687 -0.499 0.528 50 43 35 0 0
-0.0993 0.1171 -0.5251 0.638 -0.411 0.651 55 48 37 0 0
-0.0976 0.1180 -0.5262 0.684 -0.400 0.610 76 70 59 0 0
-0.0697 0.1338 -0.5581 0.234 0.864 -0.447 148 133 100 0 0
-0.0599 0.1403 -0.6792 0.611 0.720 0.328 80 68 44 0 0
-0.0368 0.1536 -0.7279 0.400 0.874 -0.277 128 113 84 0 0
-0.0376 0.1532 -0.7307 0.404 0.846 -0.348 143 126 89 0 0
-0.0796 0.1304 -0.7847 0.985 0.116 0.131 54 47 29 0 0
-0.0801 0.1301 -0.7874 0.183 0.162 0.970 69 60 42 0 0
-0.0662 0.1379 -0.7912 0.555 0.649 0.520 117 103 77 0 0
-0.0638 0.1393 -0.7936 0.711 0.430 0.556 143 127 101 0 0
-0.0631 0.1396 -0.7952 0.620 0.593 0.514 129 114 85 0 0
-0.0319 0.1574 -0.8430 0.467 0.747 0.473 144 126 88 0 0
-0.0285 0.1594 -0.8578 0.406 0.882 0.238 122 117 91 0 0
-0.0259 0.1610 -0.8689 0.247 0.926 0.284 162 163 162 0 0
-0.1755 0.0720 -0.4512 -0.196 0.574 0.795 155 153 148 0 0
-0.1722 0.0739 -0.4517 -0.131 0.511 0.850 114 105 95 0 0
-0.0900 0.1203 -0.5282 0.166 0.181 0.970 103 96 90 0 0
-0.0625 0.1357 -0.5372 0.027 0.693 0.720 201 189 149 0 0
-0.0663 0.1357 -0.7899 0.329 0.755 0.567 108 95 69 0 0
-0.0649 0.1365 -0.7909 0.555 0.649 0.520 115 102 76 0 0
-0.0640 0.1370 -0.7924 0.555 0.649 0.520 138 123 97 0 0
-0.0599 0.1394 -0.7977 0.486 0.618 0.618 96 83 61 0 0
-0.0509 0.1444 -0.8077 0.835 0.492 0.247 163 140 108 0 0
-0.0505 0.1447 -0.8095 0.836 0.502 0.222 124 105 77 0 0
-0.0290 0.1570 -0.8434 0.774 0.512 0.373 138 120 88 0 0
-0.0239 0.1600 -0.8634 0.270 0.931 0.245 108 106 91 0 0
-0.0246 0.1596 -0.8663 0.253 0.922 0.294 130 128 123 0 0
-0.0218 0.1612 -0.8681 0.125 0.663 0.738 166 166 168 0 0
-0.0210 0.1617 -0.8741 0.235 0.401 0.885 188 188 187 0 0
-0.1804 0.0672 -0.4479 -0.118 0.685 0.719 170 169 168 0 0
-0.1783 0.0684 -0.4490 -0.123 0.688 0.715 190 187 187 0 0
-0.1754 0.0700 -0.4497 -0.187 0.652 0.735 161 159 154 0 0
-0.1034 0.1108 -0.5245 0.178 0.415 0.892 51 43 41 0 0
-0.0657 0.1319 -0.5358 0.254 0.283 0.925 179 168 130 0 0
-0.0643 0.1327 -0.5369 0.437 0.302 0.847 188 178 139 0 0
-0.0628 0.1336 -0.5379 0.567 0.342 0.750 176 164 125 0 0
-0.0621 0.1340 -0.5394 0.730 0.571 0.376 156 142 107 0 0
-0.1025 0.1123 -0.6442 0.014 0.026 1.000 101 91 81 0 0
-0.0589 0.1368 -0.6757 0.682 0.487 0.546 101 89 69 0 0
-0.0604 0.1361 -0.6914 0.532 0.819 0.214 109 95 67 0 0
-0.0601 0.1363 -0.6932 0.532 0.819 0.214 95 81 54 0 0
-0.0590 0.1371 -0.7133 0.374 0.407 0.833 105 92 71 0 0
-0.0578 0.1378 -0.7145 0.347 0.359 0.866 95 79 64 0 0
-0.0677 0.1328 -0.7852 0.352 0.912 0.210 91 79 60 0 0
-0.0668 0.1333 -0.7867 0.252 0.897 0.363 107 94 70 0 0
-0.0501 0.1428 -0.8055 0.495 0.832 0.251 131 113 80 0 0
-0.0496 0.1431 -0.8074 0.653 0.703 0.280 150 131 99 0 0
-0.0491 0.1434 -0.8092 0.614 0.755 0.230 125 108 80 0 0
-0.0217 0.1591 -0.8645 0.276 0.951 0.141 113 113 104 0 0
-0.1020 0.1096 -0.5243 -0.006 0.568 0.823 67 61 54 0 0
-0.1022 0.1095 -0.5263 0.064 0.199 0.978 94 88 83 0 0
-0.0845 0.1194 -0.5280 -0.078 0.484 0.872 91 86 82 0 0
-0.0660 0.1299 -0.5346 0.307 0.723 0.619 151 136 104 0 0
-0.0647 0.1306 -0.5357 0.428 0.483 0.764 171 157 121 0 0
-0.0633 0.1314 -0.5368 0.513 0.468 0.719 181 166 130 0 0
-0.0614 0.1325 -0.5395 0.555 0.582 0.594 137 119 89 0 0
-0.0920 0.1161 -0.6440 -0.043 0.715 0.697 92 83 69 0 0
-0.0340 0.1491 -0.7195 0.633 0.645 0.428 123 106 73 0 0
-0.0333 0.1495 -0.7211 0.633 0.645 0.428 153 139 107 0 0
-0.0691 0.1299 -0.7828 -0.110 0.920 0.377 105 93 77 0 0
-0.0214 0.1572 -0.8606 0.347 0.875 0.339 52 53 39 0 0
-0.0180 0.1591 -0.8663 0.154 0.771 0.618 152 151 151 0 0
-0.0178 0.1593 -0.8707 0.157 0.540 0.827 176 176 174 0 0
-0.1018 0.1077 -0.5246 0.232 -0.024 0.972 60 56 49 0 0
-0.0824 0.1186 -0.5273 -0.109 0.546 0.831 93 88 83 0 0
-0.0798 0.1201 -0.5277 -0.048 0.364 0.930 89 84 78 0 0
-0.0671 0.1273 -0.5338 0.459 0.243 0.854 143 129 106 0 0
-0.0657 0.1281 -0.5349 0.493 0.172 0.853 151 136 109 0 0
-0.0636 0.1292 -0.5356 0.460 0.466 0.756 163 148 115 0 0
-0.0622 0.1301 -0.5366 0.529 0.470 0.706 162 145 111 0 0
-0.1044 0.1071 -0.6468 -0.069 0.114 0.991 94 86 75 0 0
-0.0598 0.1326 -0.7112 0.640 0.405 0.653 131 115 94 0 0
-0.0430 0.1427 -0.8099 0.496 0.699 0.515 73 56 36 0 0
-0.0398 0.1445 -0.8137 0.688 0.500 0.526 80 64 39 0 0
-0.0395 0.1447 -0.8156 0.813 0.517 0.267 80 64 38 0 0
-0.0391 0.1449 -0.8175 0.774 0.502 0.386 83 68 40 0 0
-0.0177 0.1572 -0.8647 0.253 0.922 0.294 111 108 99 0 0
-0.0161 0.1581 -0.8654 0.156 0.734 0.661 139 138 134 0 0
-0.0150 0.1588 -0.8666 0.151 0.678 0.719 160 160 160 0 0
0.0000 0.1672 -0.8629 0.748 0.524 0.408 194 192 193 0 0
-0.0836 0.1160 -0.5266 -0.014 0.174 0.985 98 91 85 0 0
-0.0806 0.1177 -0.5268 -0.029 0.332 0.943 103 96 90 0 0
-0.0781 0.1191 -0.5273 0.011 0.283 0.959 92 86 82 0 0
-0.0755 0.1206 -0.5277 0.011 0.283 0.959 91 83 78 0 0
-0.0630 0.1277 -0.5357 0.607 0.357 0.710 188 173 145 0 0
-0.0609 0.1288 -0.5364 0.603 0.234 0.762 178 162 130 0 0
-0.0597 0.1295 -0.5376 0.687 0.432 0.584 149 131 96 0 0
-0.0417 0.1408 -0.7167 0.026 0.350 0.936 115 101 75 0 0
-0.0369 0.1434 -0.7171 0.136 0.703 0.698 125 109 84 0 0
-0.0308 0.1469 -0.7184 0.683 0.664 0.304 125 107 76 0 0
-0.0365 0.1443 -0.8182 0.440 0.707 0.553 93 79 53 0 0
-0.0224 0.1524 -0.8341 0.402 0.894 0.198 122 107 78 0 0
-0.0171 0.1554 -0.8493 0.468 0.864 0.185 144 129 90 0 0
-0.0154 0.1565 -0.8657 0.299 0.945 0.130 122 120 112 0 0
-0.0126 0.1580 -0.8652 0.266 0.686 0.678 149 149 146 0 0
-0.0744 0.1192 -0.5257 -0.234 0.640 0.732 104 96 90 0 0
-0.0613 0.1267 -0.5333 0.700 0.679 0.222 159 145 124 0 0
-0.0611 0.1269 -0.5638 0.135 0.966 -0.221 125 112 84 0 0
-0.0808 0.1163 -0.6486 0.306 0.655 0.691 104 94 76 0 0
-0.0538 0.1318 -0.6871 0.757 0.593 0.274 72 60 38 0 0
-0.0533 0.1320 -0.6888 0.757 0.593 0.274 71 57 33 0 0
-0.0536 0.1319 -0.6911 0.652 0.724 0.226 98 84 59 0 0
-0.0373 0.1412 -0.7161 0.113 0.508 0.854 127 112 92 0 0
-0.0352 0.1424 -0.7165 0.091 0.711 0.698 110 94 71 0 0
-0.0598 0.1289 -0.7841 0.551 0.635 0.541 66 58 49 0 0
-0.0502 0.1344 -0.7958 0.881 0.076 0.468 139 124 96 0 0
-0.0239 0.1494 -0.8276 0.756 0.557 0.344 129 113 80 0 0
-0.0156 0.1542 -0.8465 0.715 0.663 0.224 154 138 103 0 0
-0.0100 0.1575 -0.8658 0.258 0.540 0.801 158 157 155 0 0
-0.0596 0.1257 -0.5348 0.524 0.733 0.434 155 141 114 0 0
-0.0588 0.1261 -0.5362 0.438 0.656 0.614 169 155 126 0 0
-0.0580 0.1266 -0.5376 0.587 0.402 0.702 163 149 120 0 0
-0.1269 0.0881 -0.6510 -0.258 -0.108 0.960 91 87 76 0 0
-0.0797 0.1148 -0.6485 0.547 0.398 0.737 96 88 71 0 0
-0.0593 0.1265 -0.6567 0.655 0.339 0.676 84 74 55 0 0
-0.0527 0.1303 -0.6870 0.757 0.593 0.274 73 60 41 0 0
-0.0517 0.1309 -0.6904 0.795 0.561 0.230 84 68 46 0 0
-0.0521 0.1307 -0.6948 0.694 0.697 -0.181 107 94 67 0 0
-0.0584 0.1276 -0.7837 0.567 0.617 0.546 77 68 58 0 0
-0.0495 0.1327 -0.7938 0.568 0.822 0.041 152 137 106 0 0
-0.0487 0.1331 -0.7953 0.805 0.104 0.585 133 117 89 0 0
-0.0472 0.1340 -0.7962 0.580 0.216 0.786 110 94 69 0 0
-0.0118 0.1544 -0.8618 0.295 0.880 0.373 49 51 36 0 0
-0.0111 0.1548 -0.8634 0.295 0.880 0.373 86 86 71 0 0
-0.0095 0.1557 -0.8640 0.266 0.686 0.678 122 119 109 0 0
-0.0075 0.1568 -0.8666 0.258 0.716 0.649 166 165 164 0 0
-0.0607 0.1231 -0.5227 -0.003 0.957 0.289 125 113 91 0 0
-0.0543 0.1268 -0.5416 0.701 0.225 0.677 146 133 101 0 0
-0.0790 0.1132 -0.6486 0.271 0.613 0.742 81 74 56 0 0
-0.0768 0.1144 -0.6492 0.409 0.239 0.881 102 90 71 0 0
-0.0552 0.1268 -0.6668 0.577 0.660 0.482 93 80 60 0 0
-0.0307 0.1410 -0.7164 0.921 0.308 0.237 90 75 52 0 0
-0.0232 0.1453 -0.7376 0.463 0.795 -0.392 115 99 68 0 0
-0.0546 0.1277 -0.7835 0.401 0.765 0.503 94 87 69 0 0
-0.0495 0.1306 -0.7902 0.556 0.784 0.277 154 135 106 0 0
-0.0486 0.1311 -0.7917 0.871 0.492 -0.013 142 124 93 0 0
-0.0386 0.1368 -0.7961 0.158 0.799 0.580 135 119 92 0 0
-0.0359 0.1384 -0.8003 0.702 0.712 -0.023 133 118 88 0 0
-0.0196 0.1477 -0.8209 0.860 0.389 0.329 135 121 83 0 0
-0.0079 0.1545 -0.8635 0.266 0.686 0.678 104 102 89 0 0
-0.0068 0.1552 -0.8646 0.266 0.686 0.678 136 132 126 0 0
-0.0047 0.1564 -0.8670 0.320 0.604 0.730 173 173 172 0 0
-0.0513 0.1266 -0.5423 0.403 0.503 0.764 96 84 58 0 0
-0.0775 0.1120 -0.6482 0.247 0.532 0.810 81 73 56 0 0
-0.0550 0.1249 -0.6652 0.709 0.396 0.584 64 53 38 0 0
-0.0533 0.1259 -0.6681 0.756 0.569 0.325 66 57 38 0 0
-0.0504 0.1276 -0.6804 0.550 0.797 0.252 97 85 64 0 0
-0.0500 0.1279 -0.6946 0.791 0.611 -0.046 91 77 57 0 0
-0.0300 0.1394 -0.7166 0.438 0.452 0.777 91 78 60 0 0
-0.0542 0.1258 -0.7818 0.195 0.822 0.535 111 103 85 0 0
-0.0530 0.1265 -0.7830 0.296 0.796 0.529 103 95 76 0 0
-0.0061 0.1535 -0.8626 0.262 0.557 0.788 86 84 71 0 0
-0.0048 0.1542 -0.8636 0.262 0.557 0.788 120 116 107 0 0
-0.0031 0.1552 -0.8664 0.420 0.794 0.438 166 166 164 0 0
-0.0028 0.1554 -0.8683 0.334 0.579 0.744 176 177 177 0 0
-0.0484 0.1263 -0.5430 0.261 0.653 0.711 118 104 78 0 0
-0.0489 0.1260 -0.5452 0.494 0.836 0.239 126 110 83 0 0
-0.0484 0.1263 -0.5467 0.489 0.849 0.199 114 99 71 0 0
-0.0516 0.1249 -0.6696 0.816 0.477 0.328 63 54 33 0 0
-0.0511 0.1251 -0.6713 0.892 0.438 0.107 95 83 57 0 0
-0.0493 0.1262 -0.6803 0.701 0.639 0.316 90 79 57 0 0
-0.0488 0.1265 -0.6820 0.724 0.643 0.250 98 87 67 0 0
-0.0214 0.1423 -0.7419 0.348 0.873 -0.341 111 95 71 0 0
-0.0058 0.1516 -0.8610 0.335 0.801 0.497 55 55 42 0 0
-0.0047 0.1522 -0.8622 0.262 0.557 0.788 64 62 49 0 0
-0.0034 0.1530 -0.8632 0.262 0.557 0.788 102 98 88 0 0
-0.0020 0.1538 -0.8640 0.337 0.507 0.793 133 133 126 0 0
-0.0015 0.1541 -0.8658 0.420 0.794 0.438 156 157 154 0 0
-0.0007 0.1545 -0.8672 0.442 0.631 0.638 171 172 172 0 0
0.0911 0.2071 -0.8692 -0.022 0.800 0.600 214 214 214 0 0
-0.0523 0.1224 -0.6605 0.774 0.536 0.337 103 91 73 0 0
-0.0477 0.1251 -0.6798 0.730 0.558 0.395 82 70 46 0 0
-0.0041 0.1505 -0.8334 0.932 0.359 -0.056 135 121 81 0 0
-0.0024 0.1515 -0.8631 0.273 0.792 0.546 80 77 64 0 0
-0.0007 0.1525 -0.8637 0.326 0.531 0.782 116 116 106 0 0
0.0948 0.2073 -0.8639 0.986 0.150 -0.067 214 214 214 0 0
0.0951 0.2074 -0.8658 0.936 0.250 -0.247 214 214 214 0 0
0.0946 0.2071 -0.8685 0.957 0.236 -0.167 214 214 214 0 0
-0.0485 0.1223 -0.5195 0.560 0.823 -0.097 78 63 43 0 0
-0.0494 0.1221 -0.6735 0.770 0.515 0.376 65 52 35 0 0
-0.0451 0.1245 -0.6765 0.828 0.155 0.538 80 68 47 0 0
-0.0316 0.1324 -0.7160 0.200 0.356 0.913 101 92 76 0 0
-0.0266 0.1353 -0.7161 -0.080 0.654 0.752 89 81 61 0 0
-0.0208 0.1386 -0.7177 0.544 0.717 0.437 151 135 102 0 0
-0.0182 0.1401 -0.7429 0.432 0.795 -0.425 120 105 78 0 0
-0.0431 0.1259 -0.7836 0.084 0.814 0.574 87 78 59 0 0
-0.0211 0.1386 -0.8103 0.399 0.787 0.472 109 93 67 0 0
-0.0012 0.1501 -0.8629 0.314 0.934 0.171 64 62 47 0 0
-0.0011 0.1502 -0.8650 0.391 0.908 0.152 101 99 87 0 0
0.0011 0.1515 -0.8651 0.481 0.722 0.498 135 133 127 0 0
0.0040 0.1531 -0.8645 0.325 0.497 0.804 156 155 156 0 0
0.0054 0.1539 -0.8766 0.296 0.746 0.596 197 196 194 0 0
0.0953 0.2057 -0.8643 0.950 0.076 0.302 214 214 214 0 0
0.0943 0.2051 -0.8698 0.948 0.186 -0.259 213 213 213 0 0
0.0936 0.2047 -0.8728 0.948 0.186 -0.259 214 214 214 0 0
-0.0514 0.1189 -0.6715 0.547 0.790 0.278 109 96 74 0 0
-0.0484 0.1206 -0.6734 0.757 0.606 0.245 65 52 36 0 0
-0.0444 0.1229 -0.6766 0.750 0.425 0.507 78 67 49 0 0
-0.0415 0.1246 -0.6848 0.732 0.665 0.145 76 64 50 0 0
-0.0416 0.1246 -0.7057 0.596 0.624 0.505 92 84 67 0 0
-0.0306 0.1310 -0.7159 0.141 0.439 0.887 100 92 79 0 0
-0.0124 0.1414 -0.7200 0.551 0.708 0.442 137 120 90 0 0
-0.0309 0.1308 -0.7609 0.365 0.704 -0.609 78 68 49 0 0
-0.0156 0.1397 -0.8151 0.702 0.567 0.431 108 87 57 0 0
0.0070 0.1528 -0.8760 0.296 0.746 0.596 196 195 193 0 0
0.0943 0.2032 -0.8708 0.973 -0.167 -0.160 210 210 210 0 0
-0.0505 0.1174 -0.6674 0.572 0.791 0.216 87 75 54 0 0
-0.0499 0.1177 -0.6690 0.788 0.614 0.038 92 80 55 0 0
-0.0499 0.1177 -0.6711 0.547 0.790 0.278 95 83 59 0 0
-0.0502 0.1176 -0.6734 0.623 0.775 0.109 102 90 68 0 0
-0.0469 0.1194 -0.6730 0.920 0.374 0.112 82 70 51 0 0
-0.0404 0.1233 -0.6846 0.775 0.632 0.006 86 71 56 0 0
-0.0404 0.1232 -0.6868 0.674 0.738 -0.018 65 51 38 0 0
-0.0354 0.1261 -0.7121 0.146 0.450 0.881 95 85 73 0 0
-0.0292 0.1298 -0.7155 0.141 0.439 0.887 86 78 65 0 0
-0.0087 0.1416 -0.7260 0.475 0.783 0.402 96 84 59 0 0
0.0043 0.1492 -0.8661 0.453 0.891 0.024 131 125 123 0 0
-0.0635 0.1078 -0.6485 0.407 0.546 0.732 109 98 77 0 0
-0.0582 0.1109 -0.6489 0.316 0.466 0.826 162 148 118 0 0
-0.0479 0.1168 -0.6600 0.702 0.506 0.501 112 99 73 0 0
-0.0486 0.1165 -0.6708 0.432 0.812 0.393 73 61 39 0 0
-0.0488 0.1163 -0.6730 0.623 0.775 0.109 91 79 59 0 0
-0.0463 0.1178 -0.6732 0.868 0.496 -0.017 98 86 67 0 0
-0.0371 0.1231 -0.7100 0.178 0.416 0.892 108 99 84 0 0
-0.0340 0.1249 -0.7117 0.180 0.311 0.933 75 66 56 0 0
-0.0278 0.1285 -0.7151 0.141 0.439 0.887 85 75 64 0 0
-0.0316 0.1263 -0.7871 0.386 0.698 0.603 66 53 37 0 0
-0.0082 0.1399 -0.8210 0.551 0.763 0.338 102 86 52 0 0
0.0063 0.1483 -0.8650 0.376 0.922 0.092 113 108 99 0 0
0.0921 0.1981 -0.8666 0.699 -0.262 0.666 214 214 214 0 0
-0.0464 0.1157 -0.6616 0.790 0.292 0.539 107 94 72 0 0
-0.0475 0.1151 -0.6727 0.561 0.810 0.168 72 59 41 0 0
-0.0380 0.1206 -0.6884 0.822 0.558 0.112 68 58 44 0 0
-0.0337 0.1230 -0.7122 0.501 -0.038 0.865 76 68 62 0 0
-0.0267 0.1271 -0.7150 0.282 0.302 0.910 79 71 60 0 0
0.0069 0.1466 -0.8385 0.662 0.580 0.475 151 136 94 0 0
0.0083 0.1474 -0.8640 0.376 0.922 0.092 97 90 81 0 0
0.0087 0.1476 -0.8659 0.347 0.931 0.112 124 118 114 0 0
-0.0455 0.1142 -0.6596 0.638 0.356 0.683 84 73 53 0 0
-0.0366 0.1193 -0.7089 0.801 0.169 0.575 79 72 62 0 0
0.0104 0.1465 -0.8629 0.354 0.931 0.093 79 73 62 0 0
0.0107 0.1467 -0.8648 0.347 0.931 0.112 107 102 93 0 0
-0.0385 0.1162 -0.7049 0.745 0.448 0.494 29 24 18 0 0
-0.0360 0.1176 -0.7092 0.801 0.169 0.575 57 52 47 0 0
-0.0363 0.1175 -0.7115 0.232 0.387 0.892 60 53 49 0 0
-0.0347 0.1184 -0.7124 0.124 0.394 0.911 65 59 55 0 0
-0.0327 0.1195 -0.7130 0.321 0.313 0.894 65 60 56 0 0
-0.0247 0.1242 -0.7150 0.271 0.139 0.952 91 85 73 0 0
-0.0230 0.1253 -0.7156 0.271 0.139 0.952 89 82 71 0 0
-0.0211 0.1263 -0.7162 0.276 0.214 0.937 80 73 63 0 0
-0.0266 0.1230 -0.7874 0.362 0.458 0.812 86 76 57 0 0
-0.0086 0.1335 -0.8042 0.675 0.670 0.308 97 83 55 0 0
-0.0072 0.1343 -0.8073 0.710 0.641 0.291 85 71 43 0 0
-0.0064 0.1348 -0.8087 0.609 0.679 0.410 81 67 40 0 0
0.0141 0.1467 -0.8646 0.234 0.897 0.375 118 115 106 0 0
0.0177 0.1488 -0.8677 0.283 0.611 0.739 176 175 180 0 0
-0.0328 0.1175 -0.7138 0.441 0.448 0.778 63 58 54 0 0
-0.0240 0.1226 -0.7151 0.328 0.116 0.938 83 76 67 0 0
-0.0220 0.1238 -0.7156 0.100 0.347 0.933 93 86 77 0 0
-0.0201 0.1249 -0.7162 0.100 0.347 0.933 78 71 62 0 0
-0.0173 0.1265 -0.7160 0.004 0.196 0.981 72 65 58 0 0
-0.0045 0.1341 -0.7117 0.750 0.430 0.503 89 77 62 0 0
-0.0245 0.1222 -0.7842 0.477 0.689 0.546 115 103 81 0 0
-0.0236 0.1227 -0.7856 0.477 0.689 0.546 119 108 87 0 0
-0.0084 0.1315 -0.8005 0.551 0.601 0.579 88 72 39 0 0
-0.0060 0.1329 -0.8071 0.710 0.641 0.291 103 89 62 0 0
0.0149 0.1451 -0.8648 0.379 0.924 0.053 100 98 85 0 0
0.0157 0.1455 -0.8662 0.342 0.861 0.375 129 125 117 0 0
0.0164 0.1459 -0.8677 0.337 0.770 0.541 153 150 149 0 0
0.0257 0.1514 -0.8740 0.480 -0.208 0.852 201 201 201 0 0
-0.0317 0.1161 -0.7136 0.441 0.448 0.778 66 61 57 0 0
-0.0236 0.1208 -0.7156 0.221 0.133 0.966 89 82 73 0 0
-0.0214 0.1221 -0.7159 0.059 0.339 0.939 90 83 75 0 0
-0.0192 0.1234 -0.7161 0.006 0.346 0.938 78 71 64 0 0
-0.0170 0.1247 -0.7165 0.246 0.289 0.925 75 68 60 0 0
-0.0034 0.1327 -0.7116 0.699 0.500 0.511 83 75 67 0 0
-0.0027 0.1332 -0.7131 0.699 0.500 0.511 101 93 75 0 0
0.0009 0.1352 -0.7246 0.699 0.467 0.542 88 76 57 0 0
0.0016 0.1357 -0.7261 0.632 0.490 0.601 116 103 78 0 0
-0.0248 0.1199 -0.7810 0.332 0.911 0.243 85 76 55 0 0
-0.0231 0.1209 -0.7839 0.566 0.752 0.337 105 92 69 0 0
-0.0223 0.1213 -0.7854 0.730 0.649 0.214 130 117 96 0 0
-0.0219 0.1216 -0.7872 0.435 0.782 0.446 109 96 78 0 0
0.0020 0.1355 -0.8203 0.674 0.638 0.371 114 100 70 0 0
0.0026 0.1359 -0.8220 0.674 0.638 0.371 117 103 74 0 0
0.0181 0.1449 -0.8670 0.371 0.838 0.401 138 136 130 0 0
-0.0133 0.1249 -0.7163 0.349 0.028 0.937 77 70 62 0 0
0.0019 0.1338 -0.7246 0.699 0.467 0.542 86 74 58 0 0
0.0014 0.1335 -0.7418 0.500 0.791 -0.353 101 91 74 0 0
0.0002 0.1327 -0.7449 0.503 0.776 -0.382 107 97 79 0 0
-0.0225 0.1192 -0.7820 0.179 0.929 0.324 101 90 69 0 0
-0.0218 0.1196 -0.7835 0.202 0.883 0.423 108 94 71 0 0
-0.0020 0.1312 -0.8052 0.272 0.915 0.297 107 92 67 0 0
0.0200 0.1439 -0.8661 0.422 0.874 0.242 123 122 112 0 0
0.0212 0.1446 -0.8693 0.421 0.852 0.313 166 167 164 0 0
-0.0148 0.1220 -0.7162 0.218 0.542 0.812 74 68 61 0 0
-0.0123 0.1234 -0.7163 0.454 0.086 0.887 73 66 59 0 0
0.0216 0.1428 -0.8790 0.450 0.173 0.876 196 196 197 0 0
-0.1277 0.0549 -0.3340 -0.060 0.962 0.267 179 179 179 0 0
-0.1269 0.0553 -0.3355 -0.017 0.957 0.290 179 179 180 0 0
-0.1261 0.0558 -0.3370 0.079 0.936 0.343 177 177 178 0 0
-0.1236 0.0573 -0.3379 0.696 0.491 0.524 175 175 176 0 0
-0.0115 0.1219 -0.7164 0.385 0.206 0.900 73 68 63 0 0
0.0205 0.1402 -0.8428 0.602 0.750 0.276 100 85 49 0 0
0.0227 0.1415 -0.8585 0.417 0.895 0.156 122 117 89 0 0
0.0229 0.1416 -0.8606 0.349 0.909 0.226 76 73 54 0 0
0.0225 0.1412 -0.8791 0.450 0.173 0.876 194 194 196 0 0
-0.1270 0.0533 -0.3305 0.214 0.834 0.509 166 165 160 0 0
-0.1258 0.0540 -0.3319 0.091 0.917 0.387 155 152 145 0 0
-0.1247 0.0547 -0.3333 -0.056 0.943 0.328 144 140 131 0 0
-0.1238 0.0552 -0.3347 -0.152 0.947 0.284 133 129 119 0 0
-0.1228 0.0558 -0.3362 -0.152 0.947 0.284 122 118 109 0 0
-0.1206 0.0570 -0.3460 -0.323 0.940 0.106 117 112 102 0 0
-0.1194 0.0577 -0.3474 -0.315 0.949 0.023 108 104 94 0 0
0.0248 0.1407 -0.8596 0.417 0.895 0.156 103 97 76 0 0
0.0269 0.1418 -0.8665 0.352 0.883 0.311 139 136 130 0 0
0.0262 0.1414 -0.8807 0.225 0.175 0.958 201 201 202 0 0
0.0554 0.1595 -0.4623 0.312 0.805 -0.504 116 102 76 0 0
0.0057 0.1275 -0.8059 0.893 0.424 0.150 83 68 46 0 0
0.0268 0.1398 -0.8607 0.491 0.862 0.129 65 61 46 0 0
0.0270 0.1399 -0.8628 0.516 0.799 0.309 74 70 59 0 0
0.0275 0.1402 -0.8645 0.516 0.799 0.309 98 94 83 0 0
0.0590 0.1600 -0.4489 0.609 0.739 -0.287 83 70 51 0 0
0.0599 0.1605 -0.4501 -0.082 0.738 0.669 84 72 50 0 0
0.0536 0.1566 -0.4773 0.098 0.994 -0.048 119 104 77 0 0
0.0522 0.1557 -0.4816 0.352 0.881 -0.317 123 107 80 0 0
0.0081 0.1273 -0.7506 0.285 0.910 -0.300 92 80 56 0 0
0.0074 0.1265 -0.8030 0.648 0.611 0.454 76 59 38 0 0
0.0081 0.1269 -0.8045 0.648 0.611 0.454 80 63 41 0 0
0.0288 0.1390 -0.8463 0.692 0.595 0.409 141 123 85 0 0
0.0280 0.1385 -0.8582 0.858 0.508 -0.076 117 108 82 0 0
0.0279 0.1384 -0.8606 0.839 0.529 0.127 71 68 51 0 0
0.0285 0.1387 -0.8623 0.700 0.677 0.229 55 54 41 0 0
0.0281 0.1385 -0.8649 0.673 0.729 -0.126 84 81 69 0 0
0.0293 0.1392 -0.8659 0.375 0.555 0.743 112 109 99 0 0
0.0336 0.1416 -0.8796 -0.016 0.115 0.993 206 206 207 0 0
0.0593 0.1585 -0.4458 0.890 0.455 0.018 108 93 66 0 0
0.0595 0.1586 -0.4474 0.850 0.512 0.124 105 90 64 0 0
0.0612 0.1596 -0.4514 0.836 0.400 0.376 116 101 74 0 0
0.0551 0.1557 -0.4854 0.959 0.249 -0.133 144 128 96 0 0
0.0550 0.1555 -0.4872 0.983 0.180 0.020 141 124 94 0 0
0.0555 0.1559 -0.4886 0.948 0.263 0.178 141 124 94 0 0
0.0568 0.1566 -0.4895 0.922 0.275 0.273 143 127 94 0 0
0.0560 0.1562 -0.4917 0.914 0.382 -0.139 133 118 88 0 0
0.0063 0.1245 -0.7172 0.157 -0.006 0.988 75 71 66 0 0
0.0073 0.1244 -0.7974 0.558 0.792 0.248 73 59 35 0 0
0.0077 0.1247 -0.7992 0.558 0.792 0.248 74 60 36 0 0
0.0297 0.1374 -0.8620 0.700 0.677 0.229 59 58 46 0 0
0.0295 0.1372 -0.8645 0.628 0.749 -0.210 77 75 64 0 0
0.0300 0.1375 -0.8662 0.618 0.691 0.375 100 96 85 0 0
0.0313 0.1383 -0.8671 0.437 0.863 0.254 128 125 118 0 0
0.0572 0.1551 -0.4898 0.867 0.444 0.225 150 133 97 0 0
0.0198 0.1311 -0.6542 -0.133 0.991 -0.028 19 19 14 0 0
0.0086 0.1231 -0.8015 0.787 0.522 0.329 90 78 52 0 0
0.0171 0.1281 -0.8176 0.577 0.756 0.310 129 115 84 0 0
0.0309 0.1360 -0.8618 0.700 0.677 0.229 63 62 50 0 0
0.0311 0.1362 -0.8638 0.601 0.792 -0.107 71 68 59 0 0
0.0313 0.1362 -0.8659 0.563 0.825 0.045 90 87 77 0 0
0.0640 0.1578 -0.4507 0.448 0.798 0.404 111 97 68 0 0
0.0646 0.1582 -0.4520 0.448 0.798 0.404 116 101 72 0 0
0.0644 0.1580 -0.4538 0.470 0.829 0.304 118 103 74 0 0
0.0302 0.1358 -0.6177 0.579 0.710 0.402 45 39 28 0 0
0.0301 0.1357 -0.6197 0.824 0.539 0.177 51 46 35 0 0
0.0301 0.1357 -0.6236 0.994 0.098 0.041 56 50 38 0 0
0.0304 0.1359 -0.6252 0.988 -0.084 0.127 32 24 14 0 0
0.0308 0.1361 -0.6269 0.979 0.082 0.189 47 40 27 0 0
0.0291 0.1350 -0.6301 0.886 0.426 -0.183 64 55 41 0 0
0.0266 0.1334 -0.6359 0.126 0.977 -0.172 57 50 41 0 0
0.0260 0.1331 -0.6383 0.126 0.977 -0.172 26 22 16 0 0
0.0251 0.1325 -0.6468 -0.046 0.997 -0.064 13 11 9 0 0
0.0247 0.1321 -0.6590 0.060 0.995 -0.074 14 12 10 0 0
0.0069 0.1200 -0.7952 0.607 0.640 0.471 92 78 55 0 0
0.0077 0.1206 -0.7966 0.730 0.606 0.316 98 84 60 0 0
0.0280 0.1324 -0.8411 0.810 0.582 -0.076 157 135 95 0 0
0.0279 0.1324 -0.8433 0.531 0.553 0.642 143 123 88 0 0
0.0298 0.1335 -0.8436 0.633 0.579 0.514 143 124 89 0 0
-0.0941 0.0613 -0.3347 0.282 0.752 0.596 180 163 132 0 0
0.0691 0.1594 -0.4253 0.025 0.985 0.169 99 85 58 0 0
0.0368 0.1384 -0.5647 0.126 0.960 -0.251 79 73 62 0 0
0.0327 0.1356 -0.5993 -0.025 0.928 0.373 92 82 68 0 0
0.0326 0.1355 -0.6032 0.347 0.928 -0.136 107 95 78 0 0
0.0322 0.1351 -0.6169 0.525 0.845 0.105 117 108 91 0 0
0.0317 0.1348 -0.6191 0.374 0.926 0.050 95 88 72 0 0
0.0320 0.1349 -0.6247 0.531 0.838 0.121 90 83 70 0 0
0.0315 0.1346 -0.6270 0.699 0.679 0.224 85 76 65 0 0
0.0288 0.1328 -0.6388 0.061 0.993 -0.098 75 66 55 0 0
0.0209 0.1271 -0.7321 0.411 0.891 0.194 103 87 62 0 0
0.0331 0.1334 -0.8458 0.707 0.669 0.231 145 130 88 0 0
0.0365 0.1352 -0.8670 0.414 0.889 -0.196 125 120 114 0 0
0.0369 0.1355 -0.8688 0.369 0.919 0.135 153 149 147 0 0
-0.0864 0.0639 -0.3427 0.481 0.707 0.518 66 53 35 0 0
0.0510 0.1456 -0.5231 0.849 0.480 -0.223 130 113 88 0 0
0.0502 0.1451 -0.5272 0.865 0.466 -0.186 136 121 91 0 0
0.0437 0.1409 -0.5568 0.489 0.828 -0.273 79 69 58 0 0
0.0397 0.1382 -0.5743 0.381 0.921 -0.087 98 89 73 0 0
0.0395 0.1381 -0.5763 0.373 0.921 -0.113 101 92 78 0 0
0.0392 0.1378 -0.5784 0.295 0.940 -0.173 92 85 71 0 0
0.0390 0.1377 -0.5804 0.292 0.928 -0.233 90 82 70 0 0
0.0310 0.1322 -0.6456 0.192 0.980 -0.061 110 100 79 0 0
0.0269 0.1292 -0.6887 0.642 0.751 -0.152 116 103 85 0 0
0.0709 0.1573 -0.4057 0.696 0.694 0.181 93 79 52 0 0
0.0729 0.1584 -0.4175 0.031 0.926 0.375 88 74 46 0 0
0.0725 0.1580 -0.4242 0.393 0.893 0.218 97 83 54 0 0
0.0416 0.1375 -0.5735 0.381 0.921 -0.087 132 120 96 0 0
0.0415 0.1374 -0.5755 0.381 0.921 -0.087 132 124 99 0 0
0.0414 0.1373 -0.5774 0.295 0.940 -0.173 115 109 88 0 0
0.0398 0.1363 -0.5842 0.284 0.955 -0.082 107 98 76 0 0
0.0392 0.1358 -0.5902 0.455 0.804 0.382 103 92 73 0 0
0.0388 0.1356 -0.5924 0.815 0.449 0.368 115 104 84 0 0
0.0387 0.1355 -0.5943 0.924 0.369 0.103 120 110 88 0 0
0.0388 0.1356 -0.5961 0.955 0.286 -0.075 111 100 78 0 0
0.0348 0.1328 -0.6258 0.206 0.977 0.052 155 139 111 0 0
0.0278 0.1274 -0.7235 0.596 0.803 -0.016 138 118 81 0 0
0.0318 0.1286 -0.8356 0.668 0.743 -0.044 158 141 98 0 0
0.0749 0.1580 -0.4072 0.633 0.637 0.440 91 77 50 0 0
0.0749 0.1578 -0.4201 0.175 0.952 0.250 90 78 49 0 0
0.0294 0.1252 -0.8191 0.859 0.430 0.277 151 132 98 0 0
0.0299 0.1255 -0.8208 0.870 0.400 0.287 146 133 101 0 0
0.0302 0.1257 -0.8227 0.671 0.568 0.478 110 98 73 0 0
0.0308 0.1261 -0.8243 0.786 0.547 0.289 93 81 57 0 0
0.0317 0.1266 -0.8256 0.705 0.691 0.160 100 88 58 0 0
0.0404 0.1317 -0.8435 0.847 0.495 0.194 161 142 100 0 0
-0.0878 0.0575 -0.3232 0.290 0.808 0.513 156 141 107 0 0
-0.0869 0.0580 -0.3246 0.290 0.808 0.513 144 131 96 0 0
0.0451 0.1359 -0.5797 0.615 0.788 0.030 142 126 94 0 0
0.0420 0.1337 -0.5969 0.503 0.863 0.046 141 123 89 0 0
0.0419 0.1336 -0.6008 0.466 0.879 -0.106 153 137 99 0 0
0.0418 0.1335 -0.6028 0.471 0.880 -0.069 157 140 103 0 0
0.0124 0.1132 -0.7857 0.577 0.647 0.499 112 98 67 0 0
0.0252 0.1208 -0.8000 0.575 0.787 0.223 140 123 89 0 0
0.0416 0.1299 -0.8815 0.856 0.504 0.118 205 205 205 0 0
-0.0877 0.0556 -0.3200 0.362 0.626 0.690 231 214 182 0 0
0.0746 0.1545 -0.4002 0.199 0.725 0.659 89 75 48 0 0
0.0770 0.1559 -0.4037 0.625 0.699 0.348 88 76 47 0 0
0.0775 0.1562 -0.4050 0.809 0.573 0.129 88 75 46 0 0
0.0776 0.1561 -0.4210 0.895 0.445 -0.005 87 74 55 0 0
0.0776 0.1561 -0.4227 0.895 0.445 -0.005 90 78 59 0 0
0.0776 0.1560 -0.4259 0.895 0.445 -0.005 83 72 54 0 0
0.0773 0.1557 -0.4375 0.781 0.607 -0.148 108 93 67 0 0
0.0540 0.1400 -0.5412 0.581 0.787 -0.209 150 132 97 0 0
0.0465 0.1348 -0.5793 0.615 0.788 0.030 144 127 92 0 0
0.0346 0.1260 -0.6913 0.648 0.754 -0.108 118 105 75 0 0
0.0269 0.1199 -0.7992 0.757 0.417 0.502 146 127 90 0 0
0.0356 0.1248 -0.8303 0.570 0.810 0.138 147 131 88 0 0
0.0421 0.1284 -0.8616 0.675 0.727 0.127 34 32 25 0 0
0.0394 0.1264 -0.8872 -0.042 0.702 0.711 206 206 206 0 0
0.0417 0.1278 -0.8870 0.002 0.762 0.647 208 208 208 0 0
0.0462 0.1306 -0.8890 0.583 0.122 0.803 208 208 208 0 0
0.0650 0.1471 -0.3815 0.867 0.438 0.237 121 104 76 0 0
0.0653 0.1473 -0.3829 0.726 0.541 0.424 118 101 73 0 0
0.0658 0.1476 -0.3842 0.726 0.541 0.424 116 99 71 0 0
0.0756 0.1534 -0.4000 0.389 0.683 0.618 89 75 46 0 0
0.0769 0.1535 -0.4464 0.844 0.228 0.486 113 97 70 0 0
0.0735 0.1512 -0.4667 0.889 0.447 -0.098 114 102 83 0 0
0.0734 0.1511 -0.4684 0.889 0.447 -0.098 102 91 70 0 0
0.0721 0.1502 -0.4743 0.787 0.584 -0.197 125 107 79 0 0
0.0718 0.1500 -0.4761 0.787 0.584 -0.197 121 104 75 0 0
0.0529 0.1372 -0.5570 0.572 0.803 -0.169 149 133 99 0 0
0.0429 0.1300 -0.6281 0.568 0.819 0.074 151 134 97 0 0
0.0430 0.1301 -0.6300 0.571 0.819 0.058 169 152 114 0 0
0.0352 0.1243 -0.6957 0.726 0.677 0.119 131 121 87 0 0
0.0265 0.1181 -0.7552 0.414 0.814 -0.408 152 134 98 0 0
0.0249 0.1172 -0.7587 0.414 0.814 -0.408 127 112 79 0 0
0.0434 0.1270 -0.8725 0.799 0.299 0.523 176 175 174 0 0
0.0439 0.1273 -0.8742 0.772 0.450 0.448 190 190 190 0 0
0.0420 0.1260 -0.8854 -0.206 0.811 0.547 205 205 206 0 0
0.0423 0.1261 -0.8874 -0.098 0.928 0.360 207 207 207 0 0
0.0434 0.1267 -0.8885 -0.070 0.694 0.717 208 208 208 0 0
0.0467 0.1288 -0.8872 0.651 0.275 0.708 208 208 208 0 0
0.0692 0.1479 -0.3830 0.153 0.906 0.395 116 99 71 0 0
0.0719 0.1496 -0.3863 0.296 0.767 0.569 111 95 66 0 0
0.0751 0.1514 -0.3991 0.600 0.623 0.501 88 74 46 0 0
0.0772 0.1520 -0.4466 0.722 0.272 0.636 109 93 67 0 0
0.0774 0.1521 -0.4482 0.820 0.537 0.200 106 91 67 0 0
0.0768 0.1517 -0.4502 0.867 0.448 0.217 103 88 65 0 0
0.0753 0.1506 -0.4610 0.860 0.452 -0.237 79 68 51 0 0
0.0749 0.1504 -0.4629 0.824 0.498 -0.270 78 69 52 0 0
0.0742 0.1499 -0.4667 0.923 0.369 -0.109 90 76 63 0 0
0.0741 0.1497 -0.4685 0.923 0.369 -0.109 79 66 53 0 0
0.0739 0.1496 -0.4703 0.923 0.369 -0.109 70 57 41 0 0
0.0734 0.1493 -0.4722 0.764 0.624 -0.164 89 74 56 0 0
0.0708 0.1475 -0.4857 0.939 0.291 -0.186 92 83 67 0 0
0.0670 0.1448 -0.5037 0.722 0.667 -0.185 155 138 98 0 0
0.0665 0.1445 -0.5057 0.739 0.635 -0.225 155 138 98 0 0
0.0543 0.1362 -0.5566 0.572 0.803 -0.169 159 143 106 0 0
0.0430 0.1280 -0.6442 0.672 0.740 -0.043 128 111 77 0 0
0.0434 0.1282 -0.6459 0.695 0.718 0.025 164 145 103 0 0
0.0435 0.1282 -0.6478 0.695 0.718 0.025 175 158 112 0 0
0.0430 0.1279 -0.6501 0.602 0.781 0.167 168 154 109 0 0
0.0429 0.1277 -0.6581 0.463 0.834 0.300 151 136 102 0 0
0.0425 0.1274 -0.6623 0.749 0.659 0.068 155 140 102 0 0
0.0425 0.1274 -0.6643 0.693 0.721 0.008 144 130 92 0 0
0.0363 0.1231 -0.6955 0.726 0.677 0.119 97 86 64 0 0
0.0365 0.1232 -0.6974 0.761 0.609 0.225 138 122 89 0 0
0.0360 0.1228 -0.6999 0.763 0.634 0.129 153 135 93 0 0
0.0126 0.1072 -0.7816 0.524 0.406 0.749 96 82 56 0 0
0.0141 0.1081 -0.7824 0.510 0.504 0.698 120 104 78 0 0
0.0149 0.1085 -0.7839 0.505 0.515 0.693 102 88 61 0 0
0.0267 0.1156 -0.7990 0.879 0.295 0.376 149 133 103 0 0
0.0282 0.1165 -0.7997 0.839 0.411 0.356 166 152 114 0 0
0.0285 0.1167 -0.8017 0.809 0.317 0.495 167 153 116 0 0
0.0417 0.1243 -0.8438 0.533 0.603 0.594 120 102 67 0 0
0.0435 0.1253 -0.8486 0.778 0.579 0.243 144 126 83 0 0
0.0424 0.1241 -0.8883 -0.070 0.992 0.100 206 206 206 0 0
0.0750 0.1498 -0.3852 0.341 0.902 0.263 104 88 59 0 0
0.0754 0.1500 -0.3866 0.575 0.817 0.042 103 88 58 0 0
0.0714 0.1474 -0.3950 0.447 0.841 0.306 83 67 41 0 0
0.0788 0.1518 -0.4135 0.877 0.432 0.210 61 47 30 0 0
0.0776 0.1505 -0.4485 0.736 0.294 0.609 116 101 75 0 0
0.0659 0.1422 -0.5136 0.886 0.440 -0.146 138 122 90 0 0
0.0657 0.1421 -0.5155 0.886 0.440 -0.146 142 126 93 0 0
0.0656 0.1420 -0.5173 0.925 0.369 -0.093 142 126 92 0 0
0.0641 0.1410 -0.5200 0.806 0.572 -0.150 148 132 98 0 0
0.0636 0.1407 -0.5239 0.806 0.572 -0.150 135 120 82 0 0
0.0456 0.1278 -0.6331 0.612 0.785 -0.095 152 137 99 0 0
0.0457 0.1278 -0.6350 0.620 0.784 -0.029 165 149 113 0 0
0.0445 0.1266 -0.6634 0.865 0.498 -0.055 147 132 90 0 0
0.0376 0.1219 -0.6931 0.830 0.511 -0.224 96 84 57 0 0
0.0374 0.1218 -0.6954 0.937 0.337 0.094 108 95 69 0 0
0.0371 0.1216 -0.6976 0.855 0.357 0.377 92 80 54 0 0
0.0378 0.1220 -0.6991 0.916 0.245 0.319 112 101 68 0 0
0.0370 0.1214 -0.7038 0.763 0.639 0.096 146 127 93 0 0
0.0145 0.1063 -0.7807 0.793 0.492 0.361 110 97 68 0 0
0.0160 0.1072 -0.7816 0.377 0.703 0.604 133 122 93 0 0
0.0403 0.1215 -0.8306 0.585 0.759 0.287 107 87 58 0 0
0.0440 0.1236 -0.8447 0.815 0.475 0.334 116 99 59 0 0
0.0445 0.1233 -0.8849 0.108 0.980 0.170 204 204 205 0 0
0.0453 0.1238 -0.8863 0.078 0.955 0.286 206 206 206 0 0
0.0789 0.1502 -0.4059 0.905 0.404 0.135 38 25 15 0 0
0.0791 0.1503 -0.4073 0.903 0.415 0.110 43 31 21 0 0
0.0794 0.1505 -0.4088 0.886 0.449 0.114 52 39 29 0 0
0.0651 0.1398 -0.5217 0.900 0.415 -0.132 145 131 101 0 0
0.0633 0.1385 -0.5335 0.868 0.457 -0.196 140 124 89 0 0
0.0625 0.1379 -0.5376 0.835 0.525 -0.164 142 125 88 0 0
0.0617 0.1374 -0.5418 0.755 0.651 -0.079 159 141 100 0 0
0.0616 0.1373 -0.5436 0.755 0.651 -0.079 157 140 100 0 0
0.0615 0.1372 -0.5455 0.755 0.651 -0.079 150 133 95 0 0
0.0589 0.1355 -0.5527 0.509 0.859 -0.052 149 134 94 0 0
0.0524 0.1309 -0.5812 0.733 0.662 0.154 161 143 105 0 0
0.0449 0.1250 -0.6618 0.720 0.693 -0.039 154 137 100 0 0
0.0450 0.1251 -0.6637 0.811 0.584 0.042 160 142 104 0 0
0.0443 0.1245 -0.6663 0.760 0.649 -0.017 168 154 111 0 0
0.0366 0.1189 -0.7214 0.704 0.710 -0.012 140 124 85 0 0
0.0375 0.1194 -0.7248 0.800 0.586 -0.126 145 128 91 0 0
0.0256 0.1113 -0.7650 0.566 0.608 -0.557 111 96 64 0 0
0.0156 0.1049 -0.7806 0.856 0.495 0.151 105 94 66 0 0
0.0184 0.1066 -0.7824 0.377 0.703 0.604 99 90 61 0 0
0.0222 0.1089 -0.7875 0.572 0.714 0.403 101 90 57 0 0
0.0228 0.1092 -0.7892 0.619 0.602 0.504 95 84 54 0 0
0.0236 0.1097 -0.7906 0.619 0.602 0.504 113 101 69 0 0
0.0252 0.1106 -0.7935 0.568 0.551 0.611 164 149 113 0 0
0.0410 0.1199 -0.8308 0.772 0.601 0.209 134 111 71 0 0
0.0416 0.1203 -0.8325 0.687 0.600 0.409 127 108 76 0 0
0.0609 0.1384 -0.3377 0.811 -0.199 0.550 193 173 124 0 0
0.0595 0.1374 -0.3414 0.224 0.826 0.516 193 172 125 0 0
0.0631 0.1364 -0.5414 0.914 0.398 -0.084 135 121 90 0 0
0.0626 0.1361 -0.5435 0.755 0.651 -0.079 150 137 102 0 0
0.0625 0.1360 -0.5454 0.755 0.651 -0.079 138 125 89 0 0
0.0485 0.1258 -0.6284 0.755 0.653 -0.058 152 136 102 0 0
0.0481 0.1256 -0.6306 0.805 0.591 -0.041 131 116 84 0 0
0.0460 0.1237 -0.6636 0.811 0.584 0.042 162 145 106 0 0
0.0183 0.1045 -0.7768 0.586 0.802 -0.117 96 85 57 0 0
0.0338 0.1138 -0.8058 0.744 0.624 0.239 117 106 76 0 0
0.0342 0.1140 -0.8076 0.744 0.624 0.239 111 99 70 0 0
0.0357 0.1148 -0.8106 0.731 0.613 0.301 84 67 37 0 0
0.0454 0.1203 -0.8452 0.850 0.501 0.165 144 125 83 0 0
0.0469 0.1207 -0.8797 0.970 0.106 -0.217 201 201 201 0 0
0.0483 0.1216 -0.8805 0.891 0.200 -0.407 203 203 203 0 0
0.0466 0.1204 -0.8870 0.892 0.173 -0.418 206 206 206 0 0
0.0602 0.1364 -0.3290 0.780 0.302 0.548 178 157 110 0 0
0.0616 0.1372 -0.3315 0.780 0.302 0.548 182 162 113 0 0
0.0613 0.1370 -0.3363 0.745 0.397 0.536 198 178 128 0 0
0.0798 0.1473 -0.4093 0.993 0.020 0.120 103 92 74 0 0
0.0800 0.1474 -0.4109 0.999 0.004 0.038 99 88 68 0 0
0.0756 0.1443 -0.4295 0.921 -0.352 -0.164 133 118 85 0 0
0.0756 0.1443 -0.4311 0.916 -0.220 -0.336 138 123 90 0 0
0.0619 0.1336 -0.5518 0.771 0.635 -0.049 121 107 80 0 0
0.0490 0.1242 -0.6325 0.887 0.461 0.021 111 99 75 0 0
0.0472 0.1225 -0.6614 0.757 0.654 -0.014 160 139 105 0 0
0.0399 0.1169 -0.7222 0.829 0.558 0.025 107 93 68 0 0
0.0376 0.1151 -0.7430 0.687 0.701 -0.189 143 126 90 0 0
0.0325 0.1116 -0.7604 0.680 0.660 -0.318 109 95 63 0 0
0.0349 0.1124 -0.8057 0.710 0.665 0.232 119 106 73 0 0
0.0353 0.1126 -0.8075 0.653 0.711 0.261 119 103 73 0 0
-0.1270 0.0178 -0.2840 -0.217 0.854 0.473 178 178 180 0 0
-0.1252 0.0190 -0.2852 -0.217 0.854 0.473 176 176 174 0 0
0.0606 0.1349 -0.3307 0.934 0.194 0.300 197 179 132 0 0
0.0758 0.1427 -0.4298 0.801 0.207 -0.562 132 117 88 0 0
0.0530 0.1251 -0.6109 0.862 0.502 -0.069 113 96 69 0 0
0.0523 0.1246 -0.6172 0.916 0.376 -0.140 112 99 77 0 0
0.0478 0.1210 -0.6616 0.874 0.482 0.060 155 137 100 0 0
0.0477 0.1209 -0.6636 0.904 0.425 -0.043 153 136 97 0 0
0.0477 0.1208 -0.6657 0.904 0.425 -0.043 162 147 105 0 0
0.0391 0.1149 -0.6990 0.798 0.593 0.106 121 105 75 0 0
0.0394 0.1150 -0.7008 0.833 0.520 0.191 132 116 88 0 0
0.0396 0.1151 -0.7026 0.836 0.508 0.209 112 98 72 0 0
0.0393 0.1142 -0.7423 0.745 0.653 -0.136 119 106 71 0 0
0.0217 0.1025 -0.7776 0.335 0.942 0.018 90 79 49 0 0
0.0349 0.1103 -0.8023 0.765 0.391 0.511 108 92 62 0 0
0.0743 0.1412 -0.3637 0.501 0.852 0.153 116 100 72 0 0
0.0698 0.1361 -0.4876 0.968 -0.099 -0.232 120 106 84 0 0
0.0481 0.1192 -0.6620 0.945 0.315 0.082 168 153 114 0 0
0.0418 0.1140 -0.7304 0.867 0.487 0.103 97 83 62 0 0
0.0394 0.1122 -0.7431 0.951 0.284 -0.119 131 116 82 0 0
0.0351 0.1092 -0.7597 0.676 0.679 -0.285 127 111 73 0 0
0.0358 0.1089 -0.8023 0.842 0.364 0.397 81 63 37 0 0
0.0362 0.1090 -0.8041 0.820 0.539 0.195 92 74 47 0 0
0.0368 0.1094 -0.8057 0.827 0.493 0.271 90 73 43 0 0
0.0404 0.1116 -0.8131 0.636 0.598 0.488 147 127 84 0 0
0.0418 0.1123 -0.8206 0.779 0.430 0.457 159 139 98 0 0
0.0438 0.1134 -0.8319 0.931 0.258 0.259 110 94 63 0 0
-0.1226 0.0167 -0.2796 -0.139 0.824 0.549 179 179 182 0 0
-0.0851 0.0400 -0.2974 0.866 0.496 0.056 160 145 114 0 0
0.0687 0.1363 -0.3433 0.661 0.694 0.287 205 184 137 0 0
0.0755 0.1403 -0.3619 0.798 0.440 0.412 101 87 62 0 0
0.0788 0.1420 -0.3807 0.913 0.313 0.262 123 106 75 0 0
0.0765 0.1397 -0.4270 0.994 0.008 -0.107 122 107 81 0 0
0.0398 0.1104 -0.7435 0.951 0.284 -0.119 153 135 94 0 0
0.0364 0.1080 -0.7593 0.676 0.679 -0.285 143 125 84 0 0
0.0258 0.1009 -0.7778 0.674 0.417 0.610 97 85 57 0 0
0.0375 0.1078 -0.8038 0.589 0.673 0.447 85 63 34 0 0
0.0398 0.1092 -0.8081 0.683 0.503 0.529 141 121 86 0 0
0.0427 0.1108 -0.8206 0.779 0.430 0.457 153 136 95 0 0
0.0436 0.1113 -0.8242 0.875 0.430 0.224 136 120 78 0 0
-0.1193 0.0167 -0.2789 -0.139 0.824 0.549 164 162 159 0 0
0.0683 0.1345 -0.3376 0.409 0.496 0.766 202 181 134 0 0
0.0686 0.1346 -0.3390 0.565 0.494 0.661 205 184 137 0 0
0.0694 0.1352 -0.3401 0.581 0.401 0.708 205 184 137 0 0
0.0698 0.1354 -0.3415 0.610 0.672 0.420 207 186 139 0 0
0.0762 0.1390 -0.3619 0.798 0.440 0.412 65 53 40 0 0
0.0402 0.1087 -0.7440 0.965 0.256 -0.049 167 151 109 0 0
0.0271 0.0997 -0.7774 0.863 0.381 0.332 96 82 49 0 0
0.0321 0.1027 -0.7857 0.870 0.473 0.136 121 109 73 0 0
0.0324 0.1028 -0.7877 0.870 0.473 0.136 107 93 64 0 0
0.0376 0.1059 -0.8002 0.671 0.658 0.342 97 77 49 0 0
0.0379 0.1061 -0.8020 0.645 0.552 0.529 115 94 62 0 0
0.0387 0.1065 -0.8035 0.645 0.552 0.529 116 91 57 0 0
0.0395 0.1070 -0.8049 0.645 0.552 0.529 135 111 71 0 0
0.0697 0.1337 -0.3373 0.542 0.793 0.277 204 183 134 0 0
0.0778 0.1383 -0.3646 0.561 0.800 0.215 88 76 54 0 0
0.0780 0.1384 -0.3676 0.702 0.672 0.237 115 100 74 0 0
0.0777 0.1381 -0.3694 0.774 0.458 0.437 124 109 81 0 0
0.0784 0.1385 -0.3706 0.702 0.556 0.444 129 114 81 0 0
0.0780 0.1380 -0.3882 0.619 0.572 -0.538 102 87 63 0 0
0.0764 0.1362 -0.4245 0.992 -0.116 0.052 129 113 86 0 0
0.0698 0.1314 -0.4532 0.334 0.272 0.902 89 77 47 0 0
0.0287 0.0986 -0.7790 0.473 0.541 0.695 127 112 77 0 0
0.0300 0.0994 -0.7800 0.602 0.382 0.701 125 110 75 0 0
0.0326 0.1010 -0.7840 0.734 0.438 0.519 156 146 110 0 0
0.0386 0.1045 -0.8001 0.797 0.454 0.398 109 84 57 0 0
0.0394 0.1049 -0.8016 0.684 0.489 0.541 120 96 64 0 0
0.0398 0.1052 -0.8033 0.797 0.454 0.398 124 101 62 0 0
0.0404 0.1055 -0.8049 0.780 0.473 0.411 151 127 86 0 0
0.0410 0.1058 -0.8087 0.794 0.516 0.322 152 129 88 0 0
0.0450 0.1078 -0.8358 0.970 0.181 0.164 114 98 62 0 0
0.0408 0.1042 -0.8811 0.055 -0.249 0.967 183 183 183 0 0
0.0453 0.1071 -0.8808 -0.313 0.375 0.872 195 193 194 0 0
-0.0693 0.0441 -0.2998 0.022 0.881 0.472 140 123 89 0 0
0.0709 0.1328 -0.3355 0.640 0.651 0.409 213 192 143 0 0
0.0779 0.1362 -0.3854 0.915 0.147 -0.376 112 98 70 0 0
0.0388 0.1026 -0.7943 0.702 0.648 0.294 65 46 24 0 0
0.0388 0.1026 -0.7964 0.670 0.608 0.426 77 57 30 0 0
-0.0679 0.0432 -0.2996 0.050 0.782 0.621 140 123 92 0 0
0.0393 0.1115 -0.3054 0.658 0.187 0.730 125 107 83 0 0
0.0712 0.1313 -0.3341 0.439 0.652 0.618 214 193 146 0 0
0.0750 0.1336 -0.3402 0.653 0.683 0.327 204 186 138 0 0
0.0779 0.1350 -0.3621 0.628 0.574 0.525 114 102 72 0 0
0.0779 0.1349 -0.3637 0.846 0.435 0.307 111 98 70 0 0
0.0697 0.1278 -0.4524 0.897 0.399 0.191 79 65 42 0 0
0.0547 0.1170 -0.5047 0.595 0.429 0.680 43 33 24 0 0
0.0321 0.0966 -0.7776 0.768 0.604 0.213 120 106 64 0 0
0.0329 0.0971 -0.7812 0.941 0.224 0.254 126 112 78 0 0
0.0334 0.0973 -0.7850 0.784 0.569 0.249 67 55 28 0 0
0.0388 0.1006 -0.7930 0.699 0.538 0.471 98 75 44 0 0
0.0443 0.1022 -0.8817 -0.166 0.054 0.985 193 192 190 0 0
-0.0679 0.0412 -0.2982 0.047 0.609 0.792 138 120 88 0 0
0.0370 0.1084 -0.3019 -0.257 0.742 0.620 92 79 60 0 0
0.0747 0.1318 -0.3360 0.749 0.600 0.279 211 191 143 0 0
0.0751 0.1320 -0.3374 0.685 0.696 0.217 212 192 145 0 0
0.0772 0.1330 -0.3535 0.931 0.335 -0.145 109 96 67 0 0
0.0771 0.1329 -0.3550 0.851 0.522 0.050 108 95 67 0 0
0.0769 0.1328 -0.3567 0.851 0.404 0.335 104 91 64 0 0
0.0784 0.1336 -0.3607 0.841 0.332 0.427 117 103 73 0 0
0.0786 0.1337 -0.3621 0.982 0.154 0.108 115 102 71 0 0
0.0721 0.1284 -0.4117 0.834 0.446 0.324 93 82 52 0 0
0.0726 0.1287 -0.4131 0.546 0.554 0.628 96 85 58 0 0
0.0690 0.1256 -0.4466 0.666 0.730 0.152 50 37 23 0 0
0.0697 0.1261 -0.4478 0.876 0.424 0.231 50 37 22 0 0
0.0697 0.1260 -0.4495 0.706 0.599 0.379 53 40 23 0 0
0.0542 0.1149 -0.5020 0.427 0.835 0.348 41 30 20 0 0
0.0553 0.1156 -0.5031 0.178 0.896 0.407 42 31 19 0 0
0.0563 0.1162 -0.5042 0.449 0.657 0.606 40 29 17 0 0
0.0410 0.1017 -0.7151 0.957 0.251 0.143 150 132 98 0 0
0.0334 0.0953 -0.7794 0.798 0.575 0.184 147 128 88 0 0
0.0341 0.0956 -0.7853 0.625 0.437 0.647 80 61 34 0 0
0.0357 0.0966 -0.7882 0.655 0.546 0.523 103 79 53 0 0
0.0404 0.0995 -0.7924 0.909 0.318 0.271 78 51 26 0 0
0.0452 0.1020 -0.8184 0.802 0.532 0.271 162 143 101 0 0
0.0736 0.1295 -0.3322 0.460 0.696 0.552 210 193 143 0 0
0.0747 0.1302 -0.3332 0.848 0.383 0.367 203 185 135 0 0
0.0752 0.1304 -0.3346 0.848 0.383 0.367 197 176 131 0 0
0.0756 0.1307 -0.3359 0.749 0.600 0.279 189 170 126 0 0
0.0725 0.1269 -0.4103 0.759 0.496 0.421 89 75 49 0 0
0.0731 0.1273 -0.4116 0.702 0.552 0.450 78 63 40 0 0
0.0736 0.1276 -0.4130 0.616 0.573 0.540 83 70 46 0 0
0.0587 0.1159 -0.5050 0.405 0.774 0.487 65 53 36 0 0
0.0424 0.1000 -0.7357 0.965 0.250 0.076 157 140 101 0 0
0.0425 0.1001 -0.7376 0.965 0.250 0.076 148 131 91 0 0
0.0356 0.0945 -0.7848 0.783 0.593 0.188 98 74 47 0 0
0.0359 0.0947 -0.7866 0.783 0.593 0.188 113 85 56 0 0
0.0738 0.1279 -0.3293 0.505 0.514 0.693 214 195 147 0 0
0.0746 0.1284 -0.3305 0.710 0.439 0.551 210 192 144 0 0
0.0751 0.1288 -0.3318 0.871 0.302 0.388 201 183 135 0 0
0.0756 0.1290 -0.3331 0.828 0.366 0.424 190 172 125 0 0
0.0757 0.1291 -0.3346 0.887 0.264 0.379 171 149 110 0 0
0.0777 0.1298 -0.3570 0.977 -0.028 0.210 108 97 70 0 0
0.0775 0.1294 -0.3696 0.967 0.232 -0.104 110 96 70 0 0
0.0779 0.1296 -0.3710 0.997 0.071 -0.015 107 93 67 0 0
0.0408 0.0979 -0.6962 0.960 0.193 0.204 134 114 81 0 0
-0.1055 0.0120 -0.2627 0.024 0.814 0.580 180 178 177 0 0
0.0704 0.1242 -0.3234 0.921 0.134 0.365 212 191 144 0 0
0.0709 0.1244 -0.3247 0.864 0.200 0.462 214 194 146 0 0
0.0714 0.1248 -0.3260 0.535 0.447 0.717 217 197 147 0 0
0.0780 0.1280 -0.3650 0.994 0.081 0.078 108 94 70 0 0
0.0777 0.1278 -0.3667 0.981 0.152 -0.122 104 89 66 0 0
0.0772 0.1274 -0.3701 0.972 0.099 -0.211 104 89 66 0 0
0.0772 0.1274 -0.3717 0.986 0.014 -0.164 94 79 56 0 0
0.0727 0.1239 -0.3947 0.914 0.321 -0.247 66 51 29 0 0
0.0725 0.1237 -0.3964 0.936 0.302 -0.180 57 41 20 0 0
0.0722 0.1235 -0.3982 0.899 0.364 -0.243 60 45 22 0 0
0.0723 0.1235 -0.3998 0.899 0.386 -0.208 70 55 31 0 0
0.0717 0.1231 -0.4017 0.676 0.687 -0.266 72 58 32 0 0
0.0624 0.1150 -0.4861 0.819 0.481 -0.313 113 99 74 0 0
0.0606 0.1135 -0.5012 0.612 0.710 0.349 49 37 21 0 0
0.0548 0.1086 -0.5465 0.834 -0.548 0.071 70 61 44 0 0
0.0552 0.1088 -0.5480 0.836 -0.539 0.100 66 54 36 0 0
0.0392 0.0931 -0.7679 0.918 0.383 -0.108 176 156 119 0 0
0.0431 0.0932 -0.8687 0.690 -0.168 0.704 146 143 138 0 0
0.0473 0.0957 -0.8735 0.875 -0.209 0.437 180 179 177 0 0
-0.0793 0.0267 -0.2706 0.176 0.860 0.479 127 112 86 0 0
-0.0748 0.0295 -0.2760 0.298 0.763 0.573 106 94 73 0 0
0.0686 0.1213 -0.3214 0.707 0.300 0.640 212 193 144 0 0
0.0706 0.1226 -0.3236 0.726 0.437 0.531 212 193 144 0 0
0.0771 0.1257 -0.3673 0.986 0.129 -0.107 107 93 67 0 0
0.0577 0.1090 -0.5305 0.961 -0.186 -0.206 144 129 97 0 0
0.0577 0.1089 -0.5323 0.954 -0.297 -0.032 149 134 103 0 0
0.0526 0.1053 -0.5467 0.846 -0.533 0.030 30 21 12 0 0
0.0529 0.1054 -0.5483 0.834 -0.539 0.115 38 29 18 0 0
0.0533 0.1056 -0.5499 0.833 -0.533 0.147 53 43 29 0 0
0.0472 0.0935 -0.8746 0.738 -0.257 0.624 182 181 179 0 0
-0.0773 0.0261 -0.2702 0.308 0.844 0.440 134 118 88 0 0
-0.0762 0.0267 -0.2716 0.491 0.528 0.692 133 118 87 0 0
0.0677 0.1191 -0.3205 0.724 0.097 0.683 210 190 141 0 0
0.0692 0.1200 -0.3214 0.707 0.300 0.640 208 188 139 0 0
0.0706 0.1209 -0.3224 0.801 0.293 0.522 205 184 136 0 0
0.0719 0.1217 -0.3249 0.826 0.373 0.423 182 162 119 0 0
0.0571 0.1067 -0.5315 0.961 -0.186 -0.206 142 127 98 0 0
0.0570 0.1066 -0.5333 0.928 -0.354 -0.116 137 122 95 0 0
0.0511 0.1024 -0.5464 0.859 -0.499 0.115 45 35 23 0 0
0.0461 0.0907 -0.8722 0.900 -0.047 0.433 175 171 170 0 0
0.0485 0.0922 -0.8743 0.622 0.048 0.781 184 183 181 0 0
-0.0779 0.0238 -0.2673 0.283 0.296 0.912 152 137 109 0 0
-0.0757 0.0252 -0.2683 0.384 0.270 0.883 135 120 91 0 0
-0.0735 0.0266 -0.2694 0.545 0.182 0.819 146 129 99 0 0
0.0519 0.1074 -0.3040 0.776 0.547 -0.315 199 178 131 0 0
0.0669 0.1169 -0.3180 0.431 0.473 0.769 198 176 133 0 0
0.0680 0.1176 -0.3191 0.431 0.473 0.769 199 177 134 0 0
0.0692 0.1183 -0.3202 0.481 0.550 0.683 194 173 129 0 0
0.0701 0.1189 -0.3213 0.627 0.436 0.646 184 166 123 0 0
-0.0792 0.0210 -0.2662 0.206 0.356 0.911 211 195 168 0 0
-0.0719 0.0257 -0.2691 0.419 0.207 0.884 152 136 108 0 0
0.0505 0.1051 -0.2940 0.647 0.527 0.551 172 152 110 0 0
0.0511 0.1054 -0.2954 0.578 0.627 0.523 183 164 121 0 0
0.0535 0.1069 -0.2991 0.904 0.392 0.173 182 160 119 0 0
0.0523 0.1061 -0.3010 0.573 0.731 0.371 184 162 119 0 0
0.0515 0.1054 -0.3075 0.785 0.591 -0.183 210 190 142 0 0
0.0685 0.1162 -0.3177 0.533 0.585 0.611 170 149 111 0 0
0.0395 0.0851 -0.7604 0.980 0.114 0.163 162 143 99 0 0
0.0396 0.0851 -0.7646 0.971 0.168 0.167 165 146 105 0 0
0.0517 0.1041 -0.2939 0.766 0.164 0.621 178 157 114 0 0
0.0526 0.1047 -0.2951 0.760 0.305 0.574 188 167 122 0 0
0.0530 0.1048 -0.3010 0.772 0.572 0.277 191 170 123 0 0
0.0528 0.1046 -0.3027 0.660 0.737 0.147 203 182 134 0 0
0.0759 0.1191 -0.3241 0.420 0.709 0.567 68 51 34 0 0
0.0740 0.1174 -0.3419 0.208 0.495 0.843 105 93 66 0 0
0.0750 0.1180 -0.3430 0.607 0.631 0.483 82 69 47 0 0
0.0743 0.1175 -0.3449 0.763 0.422 -0.489 51 38 20 0 0
0.0663 0.1117 -0.3643 0.326 0.788 0.523 60 47 29 0 0
0.0702 0.1143 -0.3640 0.970 0.118 0.211 60 48 30 0 0
0.0447 0.0923 -0.5524 0.749 0.450 0.486 69 60 42 0 0
0.0398 0.0831 -0.7653 0.915 0.399 0.063 159 140 98 0 0
0.0399 0.0831 -0.7674 0.915 0.399 0.063 166 148 107 0 0
0.0395 0.0828 -0.7699 0.834 0.547 0.077 167 150 108 0 0
0.0397 0.0829 -0.7719 0.870 0.488 -0.071 164 147 104 0 0
0.0398 0.0829 -0.7739 0.834 0.547 0.077 158 140 100 0 0
0.0412 0.0838 -0.7748 0.879 0.449 0.159 159 142 100 0 0
-0.0967 0.0059 -0.2547 -0.284 0.672 0.684 173 174 170 0 0
-0.0902 0.0101 -0.2563 -0.272 0.716 0.643 115 107 94 0 0
-0.0870 0.0122 -0.2571 -0.222 0.797 0.561 103 94 79 0 0
-0.0847 0.0137 -0.2581 -0.212 0.875 0.435 89 78 63 0 0
-0.0831 0.0147 -0.2593 -0.212 0.875 0.435 87 77 62 0 0
-0.0739 0.0205 -0.2668 0.155 0.558 0.815 186 170 141 0 0
0.0524 0.1028 -0.2939 0.760 0.305 0.574 180 159 117 0 0
0.0532 0.1033 -0.2951 0.760 0.305 0.574 182 159 118 0 0
0.0539 0.1037 -0.2964 0.873 0.240 0.424 187 165 123 0 0
0.0653 0.1109 -0.3073 0.537 0.489 0.687 206 186 135 0 0
0.0763 0.1177 -0.3227 0.420 0.709 0.567 89 73 49 0 0
0.0771 0.1182 -0.3239 0.420 0.709 0.567 93 78 50 0 0
0.0723 0.1147 -0.3383 0.377 0.818 0.435 100 88 60 0 0
0.0730 0.1150 -0.3426 0.817 0.104 0.566 97 86 60 0 0
0.0726 0.1147 -0.3444 0.997 -0.073 -0.013 57 46 26 0 0
0.0472 0.0919 -0.5532 0.839 0.459 0.293 49 38 22 0 0
0.0430 0.0801 -0.8705 0.507 0.176 0.844 162 160 159 0 0
-0.0962 0.0043 -0.2530 -0.242 0.580 0.778 176 175 171 0 0
-0.0924 0.0067 -0.2537 -0.272 0.651 0.709 143 137 128 0 0
0.0514 0.1005 -0.2914 0.410 0.813 0.414 193 177 135 0 0
0.0519 0.1008 -0.2928 0.444 0.732 0.518 191 175 133 0 0
0.0526 0.1012 -0.2940 0.618 0.565 0.546 181 161 119 0 0
0.0536 0.1018 -0.2952 0.669 0.557 0.493 183 160 118 0 0
0.0543 0.1022 -0.2965 0.921 0.320 0.224 203 182 135 0 0
0.0694 0.1117 -0.3136 0.797 0.436 0.418 152 143 125 0 0
0.0765 0.1162 -0.3213 0.566 0.613 0.551 100 85 56 0 0
0.0678 0.1091 -0.3643 0.606 0.679 0.414 50 39 26 0 0
0.0488 0.0914 -0.5434 0.758 0.578 -0.302 44 33 19 0 0
0.0474 0.0902 -0.5518 0.812 0.570 0.129 51 39 22 0 0
-0.0965 0.0021 -0.2516 -0.217 0.574 0.789 176 174 173 0 0
0.0521 0.0992 -0.2899 0.535 0.725 0.434 182 161 121 0 0
0.0530 0.0998 -0.2911 0.539 0.826 0.167 180 160 121 0 0
0.0760 0.1138 -0.3326 0.890 -0.273 0.364 100 89 62 0 0
0.0688 0.1081 -0.3641 0.606 0.679 0.414 42 33 20 0 0
0.0501 0.0903 -0.5431 0.820 0.559 -0.120 48 38 21 0 0
0.0486 0.0891 -0.5497 0.552 0.756 0.352 55 42 26 0 0
