ply
format ascii 1.0
element vertex 813
property float x
property float y
property float z
property float nx
property float ny
property float nz
property uchar diffuse_red
property uchar diffuse_green
property uchar diffuse_blue
property uchar class
property uchar detection
end_header
-0.0690 -0.2172 -0.4298 -0.646 -0.753 0.122 117 103 74 0 0
-0.0690 -0.2172 -0.4315 -0.646 -0.763 -0.014 122 110 81 0 0
-0.0693 -0.2173 -0.4329 -0.679 -0.727 0.103 123 109 80 0 0
-0.0691 -0.2172 -0.4347 -0.732 -0.681 -0.002 114 100 72 0 0
-0.0684 -0.2168 -0.4415 -0.946 -0.320 -0.045 114 103 80 0 0
-0.0683 -0.2167 -0.4432 -0.624 -0.771 -0.125 121 110 88 0 0
-0.0681 -0.2166 -0.4450 -0.688 -0.726 -0.006 125 114 93 0 0
-0.0681 -0.2166 -0.4482 -0.374 -0.927 -0.023 115 106 87 0 0
-0.0681 -0.2166 -0.4499 -0.374 -0.927 -0.023 126 118 102 0 0
-0.0616 -0.2120 -0.4754 -0.175 -0.968 -0.177 205 206 208 0 0
-0.0565 -0.2062 -0.3442 -0.925 -0.376 -0.047 182 184 186 0 0
-0.0584 -0.2076 -0.3525 -0.626 -0.202 0.753 169 164 156 0 0
-0.0612 -0.2096 -0.3573 -0.781 -0.487 0.391 161 152 129 0 0
-0.0650 -0.2123 -0.3694 -0.805 -0.511 0.302 148 132 98 0 0
-0.0698 -0.2159 -0.4251 -0.597 -0.797 0.086 115 99 66 0 0
-0.0702 -0.2162 -0.4265 -0.576 -0.814 0.073 116 100 68 0 0
-0.0700 -0.2161 -0.4282 -0.597 -0.797 0.086 110 94 63 0 0
-0.0701 -0.2162 -0.4297 -0.636 -0.770 0.060 119 103 72 0 0
-0.0701 -0.2162 -0.4313 -0.646 -0.763 -0.014 125 109 76 0 0
-0.0703 -0.2163 -0.4328 -0.636 -0.770 0.060 123 109 74 0 0
-0.0703 -0.2163 -0.4344 -0.571 -0.820 0.031 118 103 69 0 0
-0.0699 -0.2160 -0.4363 -0.741 -0.668 -0.062 118 102 70 0 0
-0.0696 -0.2158 -0.4381 -0.747 -0.648 -0.149 121 105 74 0 0
-0.0695 -0.2158 -0.4398 -0.663 -0.735 -0.138 117 102 71 0 0
-0.0697 -0.2159 -0.4413 -0.624 -0.771 -0.125 121 106 75 0 0
-0.0695 -0.2158 -0.4430 -0.624 -0.771 -0.125 126 112 81 0 0
-0.0698 -0.2160 -0.4461 -0.374 -0.927 -0.023 128 113 80 0 0
-0.0700 -0.2161 -0.4493 -0.190 -0.981 -0.048 126 111 79 0 0
-0.0695 -0.2158 -0.4512 -0.333 -0.938 -0.095 141 127 96 0 0
-0.0564 -0.2044 -0.3385 -0.845 -0.162 0.510 183 183 181 0 0
-0.0571 -0.2048 -0.3397 -0.845 -0.162 0.510 184 183 180 0 0
-0.0553 -0.2035 -0.3421 -0.520 -0.489 0.700 184 181 179 0 0
-0.0571 -0.2048 -0.3428 -0.867 -0.492 0.076 184 178 172 0 0
-0.0570 -0.2048 -0.3443 -0.925 -0.376 -0.047 179 173 161 0 0
-0.0590 -0.2062 -0.3526 -0.846 0.095 0.525 171 157 133 0 0
-0.0620 -0.2084 -0.3573 -0.781 -0.487 0.391 168 150 113 0 0
-0.0673 -0.2122 -0.3686 -0.596 -0.719 0.357 119 103 69 0 0
-0.0551 -0.2016 -0.3395 -0.751 -0.658 0.046 162 155 143 0 0
-0.0555 -0.2019 -0.3408 -0.703 -0.568 0.427 155 144 132 0 0
-0.0571 -0.2031 -0.3493 -0.564 -0.639 0.524 194 178 134 0 0
-0.0603 -0.2054 -0.3524 -0.679 -0.325 0.658 180 166 122 0 0
-0.0603 -0.2054 -0.3539 -0.874 -0.100 0.476 150 136 100 0 0
-0.0609 -0.2059 -0.3552 -0.945 -0.181 0.274 162 146 115 0 0
-0.0627 -0.2071 -0.3574 -0.638 -0.737 0.224 191 170 127 0 0
-0.0682 -0.2111 -0.3748 -0.782 -0.402 0.475 92 78 50 0 0
-0.0581 -0.2040 -0.5067 -0.043 -0.938 -0.344 206 207 211 0 0
-0.0569 -0.2032 -0.5092 -0.043 -0.938 -0.344 206 207 211 0 0
-0.0637 -0.2061 -0.3589 -0.733 -0.378 0.565 139 121 84 0 0
-0.0645 -0.2067 -0.3600 -0.770 -0.510 0.384 115 99 62 0 0
-0.0704 -0.2109 -0.3741 -0.760 -0.519 0.392 85 71 44 0 0
-0.0735 -0.2132 -0.4636 -0.327 -0.938 0.111 150 133 90 0 0
-0.0612 -0.2044 -0.5052 -0.043 -0.938 -0.344 206 207 208 0 0
-0.0609 -0.2023 -0.3529 -0.365 -0.617 0.697 151 135 94 0 0
-0.0619 -0.2031 -0.3539 -0.277 -0.571 0.773 161 143 101 0 0
-0.0677 -0.2072 -0.3650 -0.523 -0.718 0.459 109 94 64 0 0
-0.0686 -0.2079 -0.3677 -0.507 -0.706 0.494 75 61 37 0 0
-0.0688 -0.2080 -0.3706 -0.382 -0.786 0.486 81 67 40 0 0
-0.0694 -0.2085 -0.3719 -0.530 -0.639 0.558 72 59 32 0 0
-0.0705 -0.2093 -0.3729 -0.697 -0.593 0.402 83 69 40 0 0
-0.0717 -0.2101 -0.3754 -0.591 -0.756 0.280 80 66 37 0 0
-0.0773 -0.2142 -0.4437 -0.406 -0.831 0.381 131 115 79 0 0
-0.0685 -0.2078 -0.4907 -0.118 -0.979 -0.165 133 117 84 0 0
-0.0599 -0.2016 -0.5188 -0.762 -0.598 -0.249 215 216 218 0 0
-0.0479 -0.1911 -0.3133 -0.774 -0.634 -0.006 180 180 178 0 0
-0.0588 -0.1990 -0.3374 -0.518 -0.795 0.316 211 191 141 0 0
-0.0595 -0.1995 -0.3386 -0.422 -0.886 0.191 201 181 134 0 0
-0.0763 -0.2116 -0.4662 -0.444 -0.861 0.250 142 123 82 0 0
-0.0615 -0.2008 -0.5149 -0.712 -0.671 -0.208 189 184 176 0 0
-0.0612 -0.2006 -0.5169 -0.717 -0.682 -0.142 205 204 202 0 0
-0.0609 -0.2004 -0.5188 -0.762 -0.598 -0.249 215 215 214 0 0
-0.0605 -0.2001 -0.5208 -0.575 -0.788 -0.220 216 217 217 0 0
-0.0541 -0.1939 -0.3201 -0.704 -0.695 0.146 156 141 110 0 0
-0.0544 -0.1941 -0.3214 -0.658 -0.716 0.231 162 143 108 0 0
-0.0545 -0.1941 -0.3229 -0.568 -0.730 0.380 171 150 108 0 0
-0.0549 -0.1944 -0.3243 -0.568 -0.730 0.380 204 181 131 0 0
-0.0553 -0.1947 -0.3256 -0.621 -0.742 0.251 209 189 134 0 0
-0.0579 -0.1966 -0.3336 -0.542 -0.770 0.336 211 191 141 0 0
-0.0620 -0.1993 -0.5187 -0.490 -0.836 -0.248 168 161 145 0 0
-0.0619 -0.1992 -0.5205 -0.565 -0.788 -0.245 182 177 166 0 0
-0.0615 -0.1989 -0.5225 -0.739 -0.607 -0.292 196 191 184 0 0
-0.0555 -0.1946 -0.5355 -0.064 -0.973 -0.224 216 216 219 0 0
-0.0529 -0.1927 -0.5408 0.048 -0.962 -0.270 216 217 219 0 0
-0.0509 -0.1897 -0.3142 -0.316 -0.711 0.628 162 153 135 0 0
-0.0561 -0.1935 -0.3241 -0.535 -0.747 0.394 172 150 100 0 0
-0.0810 -0.2115 -0.3937 -0.454 -0.850 0.269 120 104 71 0 0
-0.0743 -0.2065 -0.4921 -0.436 -0.883 -0.174 158 137 98 0 0
-0.0617 -0.1972 -0.5230 -0.619 -0.664 -0.419 151 138 113 0 0
-0.0611 -0.1968 -0.5252 -0.727 -0.529 -0.438 159 148 124 0 0
-0.0589 -0.1951 -0.5320 -0.075 -0.976 -0.203 178 176 166 0 0
-0.0583 -0.1947 -0.5342 -0.064 -0.973 -0.224 198 196 191 0 0
-0.0575 -0.1941 -0.5365 -0.018 -0.960 -0.278 209 208 206 0 0
-0.0543 -0.1917 -0.5442 0.015 -0.953 -0.303 217 218 219 0 0
-0.0553 -0.1912 -0.3173 -0.338 -0.793 0.507 177 154 103 0 0
-0.0558 -0.1916 -0.3185 -0.255 -0.829 0.498 210 188 137 0 0
-0.0762 -0.2060 -0.4932 -0.285 -0.957 -0.062 160 142 100 0 0
-0.0554 -0.1906 -0.5476 -0.027 -0.940 -0.340 218 218 219 0 0
-0.0541 -0.1896 -0.5503 -0.027 -0.940 -0.340 217 218 218 0 0
-0.0532 -0.1890 -0.5528 -0.089 -0.926 -0.367 217 218 220 0 0
-0.0518 -0.1880 -0.5556 -0.108 -0.921 -0.374 217 218 221 0 0
-0.0548 -0.1891 -0.3148 -0.156 -0.724 0.672 192 171 119 0 0
-0.0790 -0.2065 -0.3847 -0.783 -0.568 0.252 89 74 49 0 0
-0.0815 -0.2081 -0.4768 -0.701 -0.709 -0.074 140 121 77 0 0
-0.0811 -0.2078 -0.4804 -0.779 -0.625 -0.042 159 141 100 0 0
-0.0550 -0.1883 -0.5540 -0.089 -0.926 -0.367 216 216 217 0 0
-0.0531 -0.1869 -0.5590 -0.079 -0.957 -0.278 218 217 221 0 0
-0.0521 -0.1862 -0.5615 -0.005 -0.971 -0.238 217 216 221 0 0
-0.0514 -0.1857 -0.5638 0.051 -0.986 -0.159 217 216 221 0 0
-0.0512 -0.1855 -0.5659 0.055 -0.989 -0.139 217 216 221 0 0
-0.0535 -0.1864 -0.3111 -0.316 -0.869 0.381 179 153 103 0 0
-0.0547 -0.1872 -0.3121 -0.265 -0.837 0.478 190 168 115 0 0
-0.0693 -0.1978 -0.3421 -0.597 -0.582 0.552 160 145 109 0 0
-0.0839 -0.2084 -0.3888 -0.672 -0.703 0.232 77 61 36 0 0
-0.0826 -0.2071 -0.4767 -0.656 -0.754 -0.042 142 123 81 0 0
-0.0811 -0.2059 -0.4877 -0.557 -0.802 -0.216 158 143 105 0 0
-0.0560 -0.1871 -0.5576 -0.079 -0.957 -0.278 214 214 211 0 0
-0.0552 -0.1865 -0.5599 -0.005 -0.971 -0.238 216 215 214 0 0
-0.0547 -0.1861 -0.5622 0.051 -0.986 -0.159 216 216 215 0 0
-0.0544 -0.1859 -0.5642 0.055 -0.989 -0.139 216 216 217 0 0
-0.0529 -0.1848 -0.5708 -0.302 -0.882 -0.362 217 217 219 0 0
-0.0523 -0.1843 -0.5731 -0.246 -0.930 -0.274 217 217 219 0 0
-0.0516 -0.1838 -0.5755 -0.145 -0.965 -0.219 217 217 219 0 0
-0.0506 -0.1831 -0.5780 -0.082 -0.983 -0.165 217 217 219 0 0
-0.0500 -0.1826 -0.5803 -0.048 -0.987 -0.155 217 217 219 0 0
-0.0498 -0.1824 -0.5824 -0.082 -0.983 -0.165 216 217 219 0 0
-0.0562 -0.1866 -0.3118 -0.265 -0.837 0.478 215 194 142 0 0
-0.0574 -0.1874 -0.3144 -0.618 -0.679 0.397 211 191 139 0 0
-0.0839 -0.2066 -0.3908 -0.717 -0.563 0.411 96 80 55 0 0
-0.0858 -0.2079 -0.4039 -0.672 -0.441 0.595 71 55 31 0 0
-0.0866 -0.2085 -0.4098 -0.843 -0.464 0.274 67 51 26 0 0
-0.0919 -0.2123 -0.4194 -0.830 -0.546 0.117 72 59 41 0 0
-0.0858 -0.2077 -0.4570 -0.711 -0.610 0.349 95 82 59 0 0
-0.0835 -0.2058 -0.4834 -0.781 -0.600 -0.173 164 143 105 0 0
-0.0826 -0.2051 -0.4857 -0.767 -0.615 -0.184 166 147 114 0 0
-0.0823 -0.2049 -0.4875 -0.767 -0.615 -0.184 150 132 95 0 0
-0.0550 -0.1844 -0.5699 -0.302 -0.882 -0.362 205 203 203 0 0
-0.0546 -0.1841 -0.5721 -0.200 -0.937 -0.287 216 214 214 0 0
-0.0541 -0.1837 -0.5743 -0.145 -0.965 -0.219 217 216 216 0 0
-0.0533 -0.1831 -0.5767 -0.082 -0.983 -0.165 216 216 217 0 0
-0.0528 -0.1827 -0.5790 -0.048 -0.987 -0.155 215 217 218 0 0
-0.0492 -0.1796 -0.3044 -0.729 -0.456 0.512 179 156 103 0 0
-0.0857 -0.2061 -0.4012 -0.847 -0.384 0.367 61 45 28 0 0
-0.0861 -0.2064 -0.4026 -0.668 -0.517 0.535 59 42 24 0 0
-0.0870 -0.2070 -0.4084 -0.861 -0.453 0.234 69 54 26 0 0
-0.0873 -0.2072 -0.4098 -0.861 -0.453 0.234 77 62 36 0 0
-0.0886 -0.2080 -0.4492 -0.860 -0.510 0.009 97 79 55 0 0
-0.0884 -0.2077 -0.4608 -0.594 -0.781 -0.194 66 54 38 0 0
-0.0824 -0.2031 -0.4914 -0.721 -0.690 -0.066 159 143 99 0 0
-0.0605 -0.1865 -0.5593 -0.114 -0.989 -0.093 160 147 120 0 0
-0.0566 -0.1836 -0.5732 -0.154 -0.967 -0.204 180 174 159 0 0
-0.0560 -0.1831 -0.5755 -0.082 -0.983 -0.165 180 175 163 0 0
-0.0860 -0.2046 -0.3984 -0.910 -0.003 0.414 66 51 30 0 0
-0.0877 -0.2057 -0.4085 -0.926 -0.327 0.188 80 67 40 0 0
-0.0893 -0.2067 -0.4477 -0.860 -0.510 0.009 104 88 64 0 0
-0.0896 -0.2069 -0.4508 -0.764 -0.617 0.191 101 83 61 0 0
-0.0904 -0.2074 -0.4520 -0.737 -0.554 0.387 99 81 62 0 0
-0.0917 -0.2084 -0.4560 -0.303 -0.810 0.502 67 52 35 0 0
-0.0920 -0.2086 -0.4575 -0.373 -0.885 0.279 64 51 36 0 0
-0.0919 -0.2086 -0.4592 -0.482 -0.874 0.056 59 48 35 0 0
-0.0845 -0.2029 -0.4873 -0.703 -0.686 -0.188 152 139 112 0 0
-0.0568 -0.1817 -0.5793 -0.215 -0.948 -0.233 162 150 125 0 0
-0.0533 -0.1790 -0.5950 -0.940 -0.291 -0.177 213 211 208 0 0
-0.0530 -0.1788 -0.5971 -0.940 -0.291 -0.177 216 215 215 0 0
-0.0525 -0.1784 -0.5993 -0.761 -0.646 -0.065 215 215 217 0 0
-0.0524 -0.1783 -0.6013 -0.806 -0.590 -0.048 216 216 219 0 0
-0.0836 -0.2011 -0.3829 -0.596 -0.281 0.752 70 58 39 0 0
-0.0851 -0.2022 -0.3837 -0.921 -0.246 0.301 64 53 35 0 0
-0.0865 -0.2031 -0.3939 -0.832 -0.555 -0.016 58 42 21 0 0
-0.0872 -0.2036 -0.4092 -0.959 -0.281 -0.018 77 66 40 0 0
-0.0878 -0.2038 -0.4475 -0.886 -0.313 0.341 81 66 42 0 0
-0.0913 -0.2063 -0.4519 -0.286 -0.831 0.478 95 78 55 0 0
-0.0851 -0.2015 -0.4840 -0.829 -0.559 0.018 98 89 73 0 0
-0.0854 -0.2017 -0.4856 -0.695 -0.716 -0.059 101 93 77 0 0
-0.0591 -0.1814 -0.5783 -0.215 -0.948 -0.233 169 153 117 0 0
-0.0547 -0.1781 -0.5909 -0.641 -0.734 -0.223 165 151 120 0 0
-0.0543 -0.1777 -0.5931 -0.641 -0.734 -0.223 153 139 111 0 0
-0.0539 -0.1775 -0.5953 -0.758 -0.630 -0.169 165 155 129 0 0
-0.0536 -0.1772 -0.5974 -0.758 -0.630 -0.169 185 177 157 0 0
-0.0535 -0.1772 -0.5993 -0.689 -0.720 -0.087 186 181 167 0 0
-0.0535 -0.1771 -0.6013 -0.761 -0.646 -0.065 193 191 179 0 0
-0.0534 -0.1770 -0.6032 -0.505 -0.843 -0.186 199 197 187 0 0
-0.0471 -0.1722 -0.6253 -0.086 -0.955 -0.283 216 216 219 0 0
-0.0433 -0.1700 -0.2896 -0.743 -0.166 0.649 152 135 106 0 0
-0.0437 -0.1703 -0.2909 -0.591 -0.634 0.499 164 144 108 0 0
-0.0441 -0.1706 -0.2923 -0.572 -0.619 0.538 167 147 104 0 0
-0.0786 -0.1958 -0.3473 -0.507 -0.759 0.408 96 78 50 0 0
-0.0800 -0.1968 -0.3542 -0.372 -0.742 0.558 90 77 52 0 0
-0.0855 -0.2007 -0.3839 -0.927 -0.228 0.299 66 54 38 0 0
-0.0858 -0.2010 -0.3853 -0.857 -0.272 0.438 64 53 34 0 0
-0.0881 -0.2025 -0.4045 -0.914 -0.360 0.184 110 96 69 0 0
-0.0882 -0.2026 -0.4060 -0.867 -0.499 0.015 82 68 41 0 0
-0.0878 -0.2022 -0.4078 -0.854 -0.480 -0.199 72 59 32 0 0
-0.0878 -0.2023 -0.4093 -0.918 -0.394 0.053 76 64 39 0 0
-0.0871 -0.2016 -0.4145 -0.925 -0.326 -0.197 50 43 31 0 0
-0.0878 -0.2017 -0.4712 -0.945 0.004 0.328 55 47 30 0 0
-0.0858 -0.2001 -0.4909 -0.908 -0.401 -0.119 92 84 73 0 0
-0.0857 -0.2000 -0.4927 -0.908 -0.401 -0.119 100 92 81 0 0
-0.0855 -0.1998 -0.4946 -0.908 -0.401 -0.119 114 104 84 0 0
-0.0692 -0.1872 -0.5514 -0.689 -0.725 -0.008 140 121 87 0 0
-0.0555 -0.1766 -0.5966 -0.295 -0.927 -0.230 154 139 106 0 0
-0.0551 -0.1763 -0.5988 -0.380 -0.906 -0.188 161 147 116 0 0
-0.0548 -0.1761 -0.6009 -0.476 -0.866 -0.153 168 155 123 0 0
-0.0546 -0.1759 -0.6030 -0.318 -0.916 -0.243 162 151 121 0 0
-0.0541 -0.1755 -0.6053 -0.318 -0.916 -0.243 151 142 118 0 0
-0.0535 -0.1751 -0.6076 -0.374 -0.886 -0.276 164 156 136 0 0
-0.0447 -0.1692 -0.2909 -0.508 -0.611 0.608 190 168 121 0 0
-0.0451 -0.1695 -0.2922 -0.572 -0.619 0.538 195 174 125 0 0
-0.0459 -0.1701 -0.2934 -0.591 -0.634 0.499 198 177 131 0 0
-0.0796 -0.1948 -0.3457 -0.836 -0.530 0.145 66 49 32 0 0
-0.0796 -0.1948 -0.3518 -0.739 -0.656 0.152 93 75 51 0 0
-0.0856 -0.1990 -0.3842 -0.943 0.211 0.259 46 36 23 0 0
-0.0880 -0.2006 -0.4049 -0.939 -0.123 0.322 102 88 62 0 0
-0.0888 -0.2012 -0.4061 -0.923 -0.383 0.034 97 83 57 0 0
-0.0876 -0.2002 -0.4147 -0.890 -0.415 -0.186 41 35 28 0 0
-0.0452 -0.1664 -0.6599 -0.047 -0.991 -0.122 215 215 216 0 0
-0.0452 -0.1664 -0.6618 -0.111 -0.984 -0.137 215 215 215 0 0
-0.0449 -0.1661 -0.6641 -0.094 -0.989 -0.114 214 214 214 0 0
-0.0447 -0.1659 -0.6663 -0.094 -0.989 -0.114 214 214 214 0 0
-0.0444 -0.1657 -0.6685 -0.081 -0.993 -0.084 214 214 214 0 0
-0.0425 -0.1642 -0.6721 -0.178 -0.975 -0.131 214 214 214 0 0
-0.0422 -0.1640 -0.6744 -0.178 -0.975 -0.131 214 214 216 0 0
-0.0465 -0.1654 -0.8812 0.064 -0.483 0.873 204 203 201 0 0
-0.0458 -0.1682 -0.2908 -0.508 -0.611 0.608 207 186 138 0 0
-0.0758 -0.1904 -0.3281 -0.451 -0.732 0.511 110 94 62 0 0
-0.0871 -0.1983 -0.3886 -0.889 -0.321 0.326 90 75 53 0 0
-0.0868 -0.1974 -0.4563 -0.828 0.283 -0.485 73 62 43 0 0
-0.0848 -0.1955 -0.5031 -0.913 -0.407 -0.022 109 97 74 0 0
-0.0857 -0.1961 -0.5059 -0.856 -0.508 -0.092 105 95 75 0 0
-0.0476 -0.1661 -0.6627 -0.094 -0.989 -0.114 213 213 211 0 0
-0.0461 -0.1649 -0.6699 -0.183 -0.954 -0.239 214 214 214 0 0
-0.0454 -0.1644 -0.6725 -0.183 -0.954 -0.239 213 213 215 0 0
-0.0435 -0.1628 -0.6842 -0.095 -0.975 -0.202 213 213 215 0 0
-0.0470 -0.1638 -0.8589 -0.840 0.346 0.418 203 202 200 0 0
-0.0436 -0.1612 -0.8650 -0.864 -0.155 0.480 203 202 200 0 0
-0.0433 -0.1609 -0.8676 -0.142 -0.348 0.927 203 202 200 0 0
-0.0586 -0.1724 -0.8575 -0.229 -0.969 -0.093 203 202 200 0 0
-0.0582 -0.1720 -0.8738 -0.244 -0.054 0.968 204 203 201 0 0
-0.0547 -0.1693 -0.8801 -0.003 -0.444 0.896 204 203 201 0 0
-0.0457 -0.1664 -0.2911 -0.808 -0.337 0.483 206 186 137 0 0
-0.0885 -0.1975 -0.3946 -0.995 -0.069 0.066 84 68 46 0 0
-0.0883 -0.1968 -0.4509 -0.942 0.332 0.056 63 51 35 0 0
-0.0859 -0.1944 -0.5012 -0.884 0.015 0.468 87 73 49 0 0
-0.0854 -0.1941 -0.5033 -0.913 -0.407 -0.022 91 80 56 0 0
-0.0464 -0.1629 -0.6827 -0.095 -0.975 -0.202 212 211 214 0 0
-0.0459 -0.1625 -0.6851 -0.322 -0.889 -0.325 212 212 215 0 0
-0.0458 -0.1624 -0.6872 -0.459 -0.824 -0.333 211 212 213 0 0
-0.0619 -0.1728 -0.8528 -0.434 -0.901 -0.015 202 201 199 0 0
-0.0630 -0.1736 -0.8538 -0.370 -0.927 -0.053 201 200 198 0 0
-0.0562 -0.1683 -0.8751 -0.240 -0.289 0.927 202 201 200 0 0
-0.0593 -0.1706 -0.8739 -0.133 -0.061 0.989 203 202 200 0 0
-0.0831 -0.1920 -0.3605 -0.907 -0.287 0.308 89 77 53 0 0
-0.0854 -0.1937 -0.3639 -0.456 -0.044 0.889 54 44 31 0 0
-0.0862 -0.1943 -0.3651 -0.406 0.202 0.891 41 31 19 0 0
-0.0875 -0.1950 -0.3939 -0.939 -0.024 0.342 83 67 44 0 0
-0.0883 -0.1955 -0.3967 -0.999 0.006 0.048 88 72 50 0 0
-0.0866 -0.1941 -0.4055 -0.991 0.126 0.042 69 56 34 0 0
-0.0752 -0.1848 -0.4747 -0.098 -0.880 0.465 44 38 24 0 0
-0.0848 -0.1918 -0.4974 -0.974 0.099 0.205 138 124 95 0 0
-0.0845 -0.1916 -0.4993 -1.000 0.004 -0.022 130 114 86 0 0
-0.0865 -0.1930 -0.5031 -0.907 -0.278 0.316 83 68 44 0 0
-0.0800 -0.1877 -0.5321 -0.865 -0.496 -0.074 102 91 73 0 0
-0.0481 -0.1621 -0.6840 -0.322 -0.889 -0.325 201 196 187 0 0
-0.0476 -0.1616 -0.6865 -0.459 -0.824 -0.333 202 198 192 0 0
-0.0464 -0.1607 -0.6896 -0.337 -0.875 -0.347 206 202 200 0 0
-0.0437 -0.1586 -0.6960 -0.159 -0.930 -0.331 209 209 207 0 0
-0.0428 -0.1579 -0.6989 -0.159 -0.924 -0.348 210 211 208 0 0
-0.0359 -0.1525 -0.7154 -0.179 -0.906 -0.384 211 211 213 0 0
-0.0848 -0.1914 -0.3646 -0.512 0.170 0.842 40 31 19 0 0
-0.0835 -0.1904 -0.3668 -0.683 0.513 0.520 42 33 19 0 0
-0.0755 -0.1836 -0.4316 -0.168 -0.919 0.357 24 20 14 0 0
-0.0744 -0.1823 -0.4723 -0.307 -0.780 0.546 53 45 26 0 0
-0.0759 -0.1835 -0.4748 -0.565 -0.619 0.546 45 38 24 0 0
-0.0852 -0.1902 -0.4978 -0.920 -0.232 0.316 98 87 58 0 0
-0.0854 -0.1903 -0.4994 -0.990 -0.124 0.060 129 114 85 0 0
-0.0871 -0.1915 -0.5034 -0.907 -0.278 0.316 88 72 49 0 0
-0.0869 -0.1913 -0.5052 -0.759 -0.587 -0.283 89 76 52 0 0
-0.0803 -0.1861 -0.5343 -0.925 -0.370 -0.089 100 87 70 0 0
-0.0799 -0.1857 -0.5363 -0.886 -0.424 -0.186 99 86 67 0 0
-0.0793 -0.1852 -0.5403 -0.768 -0.620 -0.159 79 66 46 0 0
-0.0758 -0.1823 -0.5609 -0.526 -0.829 -0.187 158 143 105 0 0
-0.0486 -0.1603 -0.6886 -0.322 -0.889 -0.325 170 161 133 0 0
-0.0445 -0.1570 -0.7004 -0.159 -0.924 -0.348 205 201 196 0 0
-0.0432 -0.1561 -0.7036 -0.159 -0.924 -0.348 208 206 205 0 0
-0.0420 -0.1551 -0.7067 -0.159 -0.924 -0.348 209 208 209 0 0
-0.0404 -0.1539 -0.7102 -0.179 -0.906 -0.384 211 211 210 0 0
-0.0390 -0.1527 -0.7136 -0.179 -0.906 -0.384 211 210 211 0 0
-0.0378 -0.1552 -0.2768 -0.631 -0.455 0.629 202 187 152 0 0
-0.0400 -0.1567 -0.2790 -0.453 -0.715 0.533 204 189 145 0 0
-0.0812 -0.1869 -0.3637 -0.994 -0.000 -0.107 71 62 44 0 0
-0.0793 -0.1852 -0.3913 -0.248 -0.080 0.965 59 53 35 0 0
-0.0857 -0.1898 -0.4117 -0.986 -0.077 -0.148 69 59 44 0 0
-0.0839 -0.1884 -0.4144 -0.862 -0.141 -0.487 37 28 21 0 0
-0.0774 -0.1832 -0.4310 -0.700 -0.521 0.489 31 28 23 0 0
-0.0737 -0.1800 -0.4666 -0.810 -0.586 0.023 42 28 15 0 0
-0.0736 -0.1799 -0.4683 -0.826 -0.541 0.159 48 35 19 0 0
-0.0745 -0.1805 -0.4694 -0.201 -0.813 0.546 44 31 14 0 0
-0.0751 -0.1810 -0.4708 -0.307 -0.780 0.546 62 54 35 0 0
-0.0841 -0.1875 -0.4888 -0.618 -0.777 0.124 86 68 45 0 0
-0.0842 -0.1877 -0.4904 -0.618 -0.777 0.124 97 80 54 0 0
-0.0859 -0.1888 -0.4945 -0.673 -0.739 -0.034 97 84 56 0 0
-0.0856 -0.1886 -0.4964 -0.611 -0.746 0.267 93 79 52 0 0
-0.0867 -0.1894 -0.4974 -0.349 -0.777 0.523 87 73 46 0 0
-0.0874 -0.1899 -0.4986 -0.349 -0.777 0.523 90 77 49 0 0
-0.0826 -0.1860 -0.5262 -0.738 -0.596 -0.317 70 60 39 0 0
-0.0807 -0.1844 -0.5364 -0.909 -0.354 -0.218 108 95 72 0 0
-0.0802 -0.1840 -0.5386 -0.871 -0.434 -0.229 105 91 67 0 0
-0.0786 -0.1827 -0.5468 -0.750 -0.639 -0.170 121 106 77 0 0
-0.0450 -0.1552 -0.7050 -0.159 -0.924 -0.348 197 192 181 0 0
-0.0434 -0.1540 -0.7085 -0.179 -0.906 -0.384 207 202 195 0 0
-0.0689 -0.1711 -0.8827 -0.810 -0.500 -0.306 201 200 198 0 0
-0.0382 -0.1536 -0.2754 -0.590 -0.606 0.534 223 208 169 0 0
-0.0410 -0.1557 -0.2790 -0.554 -0.619 0.557 219 203 165 0 0
-0.0403 -0.1551 -0.2807 -0.737 -0.650 0.184 202 184 143 0 0
-0.0760 -0.1815 -0.3389 -0.875 -0.156 0.458 98 83 53 0 0
-0.0778 -0.1828 -0.3426 -0.827 -0.523 0.207 124 109 76 0 0
-0.0788 -0.1835 -0.3498 -0.926 -0.117 0.360 106 90 60 0 0
-0.0745 -0.1797 -0.3895 -0.508 -0.490 0.708 30 25 13 0 0
-0.0755 -0.1804 -0.3906 -0.528 -0.336 0.780 35 29 16 0 0
-0.0805 -0.1842 -0.3911 -0.508 0.079 0.858 61 54 36 0 0
-0.0862 -0.1883 -0.4087 -0.890 -0.283 0.359 110 95 72 0 0
-0.0849 -0.1873 -0.4126 -0.842 -0.316 -0.436 54 42 31 0 0
-0.0808 -0.1841 -0.4198 -0.548 -0.562 -0.620 22 18 15 0 0
-0.0782 -0.1819 -0.4344 -0.432 -0.863 0.262 23 19 14 0 0
-0.0835 -0.1859 -0.4395 -0.716 -0.399 0.572 64 55 40 0 0
-0.0842 -0.1864 -0.4407 -0.716 -0.399 0.572 69 58 48 0 0
-0.0825 -0.1849 -0.4533 -0.899 0.112 -0.423 42 33 16 0 0
-0.0750 -0.1791 -0.4663 -0.752 -0.634 -0.181 62 51 33 0 0
-0.0761 -0.1799 -0.4690 -0.204 -0.830 0.519 76 65 47 0 0
-0.0843 -0.1859 -0.4825 -0.985 -0.114 -0.126 55 42 19 0 0
-0.0825 -0.1845 -0.4853 -0.741 -0.671 0.002 84 70 43 0 0
-0.0825 -0.1845 -0.4870 -0.758 -0.644 -0.102 93 78 53 0 0
-0.0833 -0.1851 -0.4899 -0.857 -0.282 0.431 116 101 76 0 0
-0.0842 -0.1857 -0.4910 -0.580 -0.450 0.680 112 99 71 0 0
-0.0852 -0.1865 -0.4921 -0.819 -0.570 0.058 120 107 76 0 0
-0.0852 -0.1865 -0.4938 -0.850 -0.490 -0.195 84 70 38 0 0
-0.0860 -0.1870 -0.4950 -0.848 -0.509 -0.144 73 58 27 0 0
-0.0864 -0.1874 -0.4964 -0.674 -0.731 0.105 86 71 43 0 0
-0.0870 -0.1878 -0.4977 -0.488 -0.755 0.438 93 80 53 0 0
-0.0876 -0.1882 -0.4991 -0.375 -0.814 0.444 85 70 45 0 0
-0.0819 -0.1835 -0.5309 -0.904 -0.327 -0.274 118 105 82 0 0
-0.0809 -0.1826 -0.5369 -0.922 -0.379 -0.081 100 86 59 0 0
-0.0804 -0.1821 -0.5427 -0.900 -0.413 -0.138 93 78 51 0 0
-0.0802 -0.1820 -0.5446 -0.900 -0.413 -0.138 94 79 51 0 0
-0.0785 -0.1806 -0.5495 -0.753 -0.657 0.030 102 88 60 0 0
-0.0704 -0.1739 -0.5941 -0.477 -0.857 -0.195 156 141 107 0 0
-0.0650 -0.1693 -0.6308 -0.367 -0.928 0.057 158 139 96 0 0
-0.0687 -0.1689 -0.8727 -0.038 -0.723 0.690 196 196 194 0 0
-0.0701 -0.1698 -0.8849 -0.802 -0.501 -0.326 201 200 198 0 0
-0.0752 -0.1791 -0.3396 -0.914 -0.268 0.303 92 77 50 0 0
-0.0791 -0.1819 -0.3501 -0.926 -0.117 0.360 104 88 59 0 0
-0.0793 -0.1821 -0.3515 -0.977 -0.125 0.173 104 90 60 0 0
-0.0799 -0.1825 -0.3528 -0.864 -0.128 0.487 159 145 113 0 0
-0.0768 -0.1796 -0.3903 -0.227 -0.398 0.889 70 63 46 0 0
-0.0782 -0.1807 -0.3912 -0.227 -0.398 0.889 71 63 44 0 0
-0.0845 -0.1851 -0.4166 -0.901 -0.239 -0.362 29 23 18 0 0
-0.0826 -0.1836 -0.4193 -0.578 -0.752 -0.316 27 22 16 0 0
-0.0792 -0.1809 -0.4277 -0.671 -0.738 -0.071 15 11 8 0 0
-0.0794 -0.1811 -0.4292 -0.268 -0.927 0.262 17 13 10 0 0
-0.0840 -0.1842 -0.4513 -0.912 0.003 -0.411 71 60 44 0 0
-0.0827 -0.1832 -0.4537 -0.818 -0.253 -0.516 45 34 18 0 0
-0.0828 -0.1830 -0.4789 -0.831 -0.402 0.384 95 83 61 0 0
-0.0840 -0.1837 -0.4850 -0.946 -0.039 0.321 91 76 51 0 0
-0.0835 -0.1834 -0.4869 -0.780 -0.621 -0.075 75 60 37 0 0
-0.0852 -0.1846 -0.4876 -0.882 -0.316 0.348 71 56 34 0 0
-0.0861 -0.1852 -0.4921 -0.872 -0.486 0.053 107 95 69 0 0
-0.0861 -0.1852 -0.4973 -0.906 -0.422 0.024 81 65 37 0 0
-0.0720 -0.1731 -0.5936 -0.477 -0.857 -0.195 156 143 110 0 0
-0.0686 -0.1701 -0.6247 -0.656 -0.752 -0.067 156 137 96 0 0
-0.0686 -0.1700 -0.6267 -0.634 -0.773 -0.022 138 120 78 0 0
-0.0679 -0.1695 -0.6292 -0.510 -0.849 0.140 148 129 87 0 0
-0.0585 -0.1593 -0.8490 -0.619 -0.683 0.386 171 163 133 0 0
-0.0610 -0.1611 -0.8553 -0.785 -0.541 0.302 145 140 117 0 0
-0.0616 -0.1615 -0.8569 -0.758 -0.547 0.355 150 146 123 0 0
-0.0624 -0.1621 -0.8583 -0.601 -0.597 0.532 160 157 139 0 0
-0.0636 -0.1630 -0.8592 -0.472 -0.562 0.679 168 163 151 0 0
-0.0535 -0.1614 -0.2914 -0.781 -0.505 0.368 199 178 134 0 0
-0.0547 -0.1623 -0.2940 -0.672 -0.514 0.533 200 179 133 0 0
-0.0721 -0.1750 -0.3292 -0.879 -0.452 0.151 70 54 26 0 0
-0.0713 -0.1744 -0.3310 -0.896 -0.402 0.192 94 78 46 0 0
-0.0742 -0.1766 -0.3374 -0.780 -0.127 0.613 88 75 48 0 0
-0.0776 -0.1787 -0.3682 -0.577 -0.716 -0.393 56 44 30 0 0
-0.0776 -0.1786 -0.3714 -0.695 -0.608 -0.383 41 33 20 0 0
-0.0759 -0.1773 -0.3738 -0.550 -0.803 -0.229 39 32 18 0 0
-0.0839 -0.1827 -0.4190 -0.925 -0.329 -0.187 43 38 28 0 0
-0.0811 -0.1806 -0.4222 -0.472 -0.832 -0.293 38 34 25 0 0
-0.0825 -0.1815 -0.4329 -0.656 -0.723 0.215 28 23 17 0 0
-0.0826 -0.1816 -0.4344 -0.637 -0.751 0.173 32 24 15 0 0
-0.0835 -0.1822 -0.4356 -0.763 -0.584 0.277 46 38 26 0 0
-0.0854 -0.1835 -0.4427 -0.991 -0.134 0.028 67 54 37 0 0
-0.0856 -0.1837 -0.4475 -0.981 -0.090 -0.170 76 64 47 0 0
-0.0836 -0.1820 -0.4521 -0.845 -0.248 -0.474 58 46 28 0 0
-0.0821 -0.1809 -0.4546 -0.743 -0.454 -0.492 53 41 24 0 0
-0.0826 -0.1809 -0.4762 -0.482 -0.505 0.716 90 79 53 0 0
-0.0838 -0.1817 -0.4856 -0.890 0.005 0.456 73 58 34 0 0
-0.0856 -0.1830 -0.4913 -0.959 -0.254 0.126 71 58 33 0 0
-0.0861 -0.1833 -0.4927 -0.963 -0.244 -0.118 72 58 34 0 0
-0.0790 -0.1770 -0.5576 -0.976 -0.188 -0.113 102 90 71 0 0
-0.0738 -0.1725 -0.5929 -0.821 -0.521 -0.234 142 130 104 0 0
-0.0724 -0.1713 -0.5997 -0.542 -0.830 -0.134 122 109 80 0 0
-0.0441 -0.1479 -0.7190 -0.448 -0.749 -0.489 188 180 166 0 0
-0.0423 -0.1465 -0.7228 -0.464 -0.727 -0.505 203 198 194 0 0
-0.0408 -0.1453 -0.7263 -0.490 -0.716 -0.497 207 204 203 0 0
-0.0437 -0.1474 -0.7341 -0.900 0.256 0.351 208 207 205 0 0
-0.0748 -0.1691 -0.8750 -0.446 -0.567 0.693 196 195 193 0 0
-0.0343 -0.1452 -0.2716 -0.605 -0.110 0.788 204 184 142 0 0
-0.0634 -0.1670 -0.2999 -0.604 -0.516 0.608 201 184 137 0 0
-0.0746 -0.1754 -0.3163 -0.842 -0.495 0.215 95 79 45 0 0
-0.0708 -0.1722 -0.3316 -0.423 -0.854 0.303 89 74 46 0 0
-0.0789 -0.1779 -0.3680 -0.526 -0.801 -0.287 53 41 26 0 0
-0.0780 -0.1771 -0.3716 -0.542 -0.778 -0.319 55 46 31 0 0
-0.0769 -0.1763 -0.3737 -0.510 -0.850 -0.130 47 38 24 0 0
-0.0771 -0.1762 -0.3863 -0.470 -0.696 0.543 43 34 20 0 0
-0.0787 -0.1773 -0.3902 -0.534 -0.576 0.618 94 82 64 0 0
-0.0823 -0.1801 -0.3931 -0.621 -0.200 0.758 109 97 77 0 0
-0.0827 -0.1804 -0.3945 -0.927 -0.026 0.375 87 74 57 0 0
-0.0839 -0.1813 -0.3954 -0.929 0.135 0.344 57 43 29 0 0
-0.0843 -0.1816 -0.3968 -0.963 0.134 0.234 48 33 17 0 0
-0.0845 -0.1817 -0.3983 -1.000 0.023 -0.003 67 54 33 0 0
-0.0843 -0.1809 -0.4356 -0.862 -0.438 0.255 75 67 49 0 0
-0.0856 -0.1818 -0.4480 -0.993 -0.047 -0.108 76 63 43 0 0
-0.0806 -0.1778 -0.4594 -0.696 -0.630 -0.344 61 49 32 0 0
-0.0864 -0.1818 -0.4896 -0.955 -0.134 0.264 70 54 30 0 0
-0.0864 -0.1817 -0.4931 -0.966 -0.231 -0.114 69 54 28 0 0
-0.0767 -0.1728 -0.5896 -0.901 -0.410 -0.139 106 96 78 0 0
-0.0738 -0.1704 -0.5974 -0.766 -0.603 -0.223 140 124 94 0 0
-0.0732 -0.1699 -0.5998 -0.702 -0.711 -0.045 106 94 67 0 0
-0.0731 -0.1698 -0.6018 -0.702 -0.711 -0.045 100 89 60 0 0
-0.0731 -0.1698 -0.6037 -0.702 -0.711 -0.045 136 123 92 0 0
-0.0723 -0.1689 -0.6214 -0.690 -0.686 0.231 156 139 96 0 0
-0.0714 -0.1681 -0.6241 -0.626 -0.777 0.073 151 133 91 0 0
-0.0661 -0.1634 -0.6696 -0.822 -0.569 -0.022 169 152 107 0 0
-0.0639 -0.1616 -0.6775 -0.482 -0.845 0.233 168 150 107 0 0
-0.0478 -0.1487 -0.7145 -0.436 -0.742 -0.509 171 158 128 0 0
-0.0442 -0.1458 -0.7220 -0.464 -0.727 -0.505 179 172 156 0 0
-0.0426 -0.1445 -0.7256 -0.490 -0.716 -0.497 201 197 191 0 0
-0.0410 -0.1433 -0.7291 -0.462 -0.753 -0.469 205 203 199 0 0
-0.0389 -0.1414 -0.7438 0.110 -0.610 0.785 207 206 205 0 0
-0.0416 -0.1489 -0.2768 -0.545 -0.660 0.517 194 173 136 0 0
-0.0425 -0.1495 -0.2780 -0.527 -0.676 0.516 220 205 169 0 0
-0.0429 -0.1499 -0.2794 -0.559 -0.652 0.512 217 199 160 0 0
-0.0437 -0.1504 -0.2806 -0.646 -0.588 0.486 222 204 161 0 0
-0.0637 -0.1655 -0.2956 -0.302 -0.845 0.442 164 145 110 0 0
-0.0644 -0.1661 -0.2968 -0.380 -0.860 0.340 195 177 134 0 0
-0.0667 -0.1677 -0.3019 -0.632 -0.604 0.485 139 121 81 0 0
-0.0674 -0.1683 -0.3031 -0.604 -0.560 0.567 147 129 90 0 0
-0.0748 -0.1737 -0.3196 -0.811 -0.383 0.443 115 101 73 0 0
-0.0738 -0.1729 -0.3215 -0.946 -0.098 0.309 78 63 38 0 0
-0.0735 -0.1726 -0.3232 -0.782 -0.549 -0.295 70 55 35 0 0
-0.0739 -0.1729 -0.3246 -0.789 -0.506 -0.348 70 56 36 0 0
-0.0721 -0.1714 -0.3314 -0.608 -0.794 0.010 93 77 51 0 0
-0.0723 -0.1715 -0.3329 -0.531 -0.466 0.708 98 82 56 0 0
-0.0732 -0.1722 -0.3340 -0.507 -0.482 0.715 108 94 66 0 0
-0.0807 -0.1775 -0.3660 -0.946 -0.025 0.324 70 59 41 0 0
-0.0784 -0.1756 -0.3734 -0.435 -0.892 -0.125 47 37 25 0 0
-0.0778 -0.1751 -0.3784 -0.472 -0.876 -0.098 47 38 22 0 0
-0.0840 -0.1794 -0.3990 -0.995 0.078 0.067 79 66 42 0 0
-0.0840 -0.1789 -0.4298 -0.740 -0.617 0.267 65 55 42 0 0
-0.0849 -0.1796 -0.4341 -0.735 -0.672 0.090 70 56 42 0 0
-0.0850 -0.1796 -0.4357 -0.862 -0.438 0.255 84 71 55 0 0
-0.0851 -0.1797 -0.4389 -0.948 -0.309 0.079 91 79 57 0 0
-0.0846 -0.1791 -0.4459 -0.978 -0.069 0.199 80 65 40 0 0
-0.0812 -0.1763 -0.4613 -0.650 -0.758 -0.056 76 62 39 0 0
-0.0811 -0.1762 -0.4630 -0.476 -0.874 0.101 58 45 24 0 0
-0.0809 -0.1744 -0.5649 -0.973 -0.208 0.100 56 44 21 0 0
-0.0740 -0.1682 -0.6208 -0.781 -0.518 0.349 151 133 95 0 0
-0.0691 -0.1639 -0.6521 -0.592 -0.800 0.096 163 142 92 0 0
-0.0438 -0.1433 -0.7254 -0.719 -0.545 -0.431 181 174 160 0 0
-0.0426 -0.1423 -0.7286 -0.626 -0.650 -0.431 197 193 183 0 0
-0.0415 -0.1414 -0.7318 -0.536 -0.729 -0.426 203 201 198 0 0
-0.0400 -0.1402 -0.7352 -0.402 -0.837 -0.372 204 204 204 0 0
-0.0390 -0.1394 -0.7384 -0.402 -0.837 -0.372 205 205 206 0 0
-0.0304 -0.1386 -0.2659 -0.892 -0.350 0.287 191 169 130 0 0
-0.0317 -0.1395 -0.2670 -0.822 -0.255 0.508 189 167 127 0 0
-0.0317 -0.1395 -0.2685 -0.896 -0.329 0.299 184 162 121 0 0
-0.0323 -0.1400 -0.2698 -0.513 -0.476 0.714 214 192 151 0 0
-0.0677 -0.1667 -0.3018 -0.692 -0.563 0.452 128 112 80 0 0
-0.0688 -0.1675 -0.3029 -0.480 -0.650 0.590 117 100 71 0 0
-0.0730 -0.1703 -0.3314 -0.879 -0.234 0.414 78 62 37 0 0
-0.0796 -0.1748 -0.3638 -0.946 0.094 0.310 103 89 63 0 0
-0.0798 -0.1749 -0.3684 -0.689 -0.705 0.170 61 48 33 0 0
-0.0796 -0.1747 -0.3732 -0.773 -0.586 -0.245 71 60 44 0 0
-0.0790 -0.1741 -0.3798 -0.753 -0.657 0.020 46 37 22 0 0
-0.0850 -0.1776 -0.4478 -0.978 -0.152 0.141 100 87 61 0 0
-0.0824 -0.1753 -0.4611 -0.650 -0.758 -0.056 107 92 67 0 0
-0.0825 -0.1753 -0.4628 -0.747 -0.608 0.268 90 76 52 0 0
-0.0729 -0.1670 -0.5227 -0.452 -0.221 0.864 27 21 16 0 0
-0.0765 -0.1692 -0.5543 -0.828 0.411 0.380 28 21 16 0 0
-0.0756 -0.1678 -0.5976 -0.981 -0.168 -0.100 84 70 44 0 0
-0.0719 -0.1646 -0.6138 -0.452 -0.857 0.250 99 83 57 0 0
-0.0752 -0.1671 -0.6207 -0.605 -0.586 0.539 138 120 87 0 0
-0.0708 -0.1631 -0.6554 -0.593 -0.805 -0.001 168 149 97 0 0
-0.0707 -0.1630 -0.6574 -0.713 -0.700 -0.053 173 153 100 0 0
-0.0701 -0.1625 -0.6639 -0.634 -0.771 0.060 160 142 92 0 0
-0.0374 -0.1358 -0.7451 -0.267 -0.910 -0.318 207 203 202 0 0
-0.0431 -0.1392 -0.8072 -0.886 -0.362 0.291 190 186 177 0 0
-0.0436 -0.1395 -0.8090 -0.886 -0.362 0.291 184 179 166 0 0
-0.0785 -0.1652 -0.8838 -0.005 -0.994 -0.110 196 195 193 0 0
-0.0781 -0.1648 -0.8865 0.063 -0.980 0.188 196 195 193 0 0
-0.0653 -0.1631 -0.2941 -0.712 -0.469 0.523 129 115 84 0 0
-0.0682 -0.1653 -0.2990 -0.387 -0.820 0.422 89 72 42 0 0
-0.0685 -0.1655 -0.3003 -0.739 -0.467 0.485 107 92 62 0 0
-0.0690 -0.1659 -0.3016 -0.597 -0.743 0.302 82 68 40 0 0
-0.0693 -0.1661 -0.3030 -0.623 -0.697 0.356 149 134 109 0 0
-0.0758 -0.1704 -0.3474 -0.940 -0.143 0.310 77 62 35 0 0
-0.0759 -0.1704 -0.3489 -0.980 -0.058 0.192 122 106 73 0 0
-0.0762 -0.1706 -0.3503 -0.945 -0.135 0.299 176 158 121 0 0
-0.0773 -0.1714 -0.3529 -0.825 -0.335 0.455 168 148 115 0 0
-0.0779 -0.1718 -0.3542 -0.825 -0.335 0.455 129 111 79 0 0
-0.0785 -0.1723 -0.3554 -0.706 -0.384 0.595 115 98 66 0 0
-0.0787 -0.1724 -0.3568 -0.873 -0.252 0.418 167 151 116 0 0
-0.0801 -0.1735 -0.3578 -0.917 -0.233 0.325 163 148 117 0 0
-0.0803 -0.1734 -0.3686 -0.844 -0.205 0.496 74 60 45 0 0
-0.0800 -0.1729 -0.3892 -0.861 -0.031 0.508 79 63 43 0 0
-0.0807 -0.1734 -0.3905 -0.846 -0.108 0.521 69 53 33 0 0
-0.0814 -0.1739 -0.3917 -0.887 -0.097 0.453 72 55 40 0 0
-0.0846 -0.1758 -0.4206 -0.966 -0.257 -0.004 86 73 49 0 0
-0.0846 -0.1758 -0.4222 -0.966 -0.257 -0.004 81 66 43 0 0
-0.0844 -0.1757 -0.4239 -0.968 -0.237 0.078 72 57 36 0 0
-0.0711 -0.1637 -0.5210 -0.471 -0.337 0.815 32 23 15 0 0
-0.0766 -0.1666 -0.5956 -0.936 -0.329 -0.125 80 69 48 0 0
-0.0734 -0.1638 -0.6115 -0.570 -0.756 0.321 66 49 25 0 0
-0.0733 -0.1637 -0.6134 -0.452 -0.857 0.250 85 68 43 0 0
-0.0720 -0.1621 -0.6513 -0.722 -0.692 -0.027 151 134 84 0 0
-0.0709 -0.1610 -0.6641 -0.538 -0.820 0.196 154 136 90 0 0
-0.0710 -0.1607 -0.6840 -0.751 -0.652 0.104 148 130 92 0 0
-0.0660 -0.1542 -0.8289 -0.442 -0.627 0.641 133 119 82 0 0
-0.0121 -0.1210 -0.2496 -0.601 -0.257 0.757 178 178 181 0 0
-0.0130 -0.1217 -0.2509 -0.656 -0.476 0.585 178 178 181 0 0
-0.0350 -0.1384 -0.2679 -0.332 -0.596 0.731 210 188 149 0 0
-0.0692 -0.1643 -0.3004 -0.739 -0.467 0.485 108 94 67 0 0
-0.0701 -0.1650 -0.3015 -0.597 -0.743 0.302 78 64 41 0 0
-0.0705 -0.1652 -0.3028 -0.597 -0.743 0.302 101 90 67 0 0
-0.0807 -0.1719 -0.3688 -0.805 -0.256 0.535 70 57 45 0 0
-0.0749 -0.1629 -0.6110 -0.497 -0.603 0.623 79 63 34 0 0
-0.0742 -0.1624 -0.6135 -0.777 -0.456 0.434 92 78 47 0 0
-0.0760 -0.1638 -0.6158 -0.602 -0.787 0.132 105 92 62 0 0
-0.0752 -0.1628 -0.6281 -0.769 -0.629 0.113 116 101 62 0 0
-0.0755 -0.1630 -0.6297 -0.629 -0.757 0.174 149 132 88 0 0
-0.0723 -0.1600 -0.6637 -0.508 -0.833 0.217 156 138 92 0 0
-0.0721 -0.1594 -0.6839 -0.751 -0.652 0.104 146 130 92 0 0
-0.0761 -0.1596 -0.8414 -0.689 -0.422 0.590 128 110 76 0 0
-0.0139 -0.1205 -0.2509 -0.656 -0.476 0.585 178 177 181 0 0
-0.0211 -0.1260 -0.2547 -0.398 -0.381 0.834 151 141 129 0 0
-0.0262 -0.1299 -0.2590 -0.086 -0.810 0.580 171 153 120 0 0
-0.0699 -0.1630 -0.3004 -0.670 -0.576 0.469 100 86 57 0 0
-0.0704 -0.1634 -0.3017 -0.810 -0.533 0.245 84 72 50 0 0
-0.0657 -0.1593 -0.3234 -0.340 0.379 0.861 39 31 18 0 0
-0.0814 -0.1698 -0.4119 -0.639 -0.530 0.557 85 70 48 0 0
-0.0821 -0.1703 -0.4132 -0.487 -0.640 0.595 78 63 44 0 0
-0.0647 -0.1541 -0.5559 -0.759 -0.445 0.476 69 61 45 0 0
-0.0760 -0.1618 -0.6110 -0.526 -0.571 0.630 101 85 57 0 0
-0.0750 -0.1610 -0.6136 -0.800 -0.389 0.456 107 93 63 0 0
-0.0760 -0.1614 -0.6282 -0.846 -0.274 0.457 96 81 48 0 0
-0.0764 -0.1617 -0.6298 -0.872 -0.446 0.201 131 114 77 0 0
-0.0766 -0.1619 -0.6315 -0.847 -0.402 0.347 127 110 70 0 0
-0.0771 -0.1622 -0.6331 -0.808 -0.438 0.393 117 100 62 0 0
-0.0734 -0.1588 -0.6617 -0.923 -0.329 0.202 129 114 75 0 0
-0.0733 -0.1587 -0.6637 -0.614 -0.777 0.142 154 139 96 0 0
-0.0734 -0.1586 -0.6677 -0.680 -0.732 0.043 144 129 86 0 0
-0.0734 -0.1584 -0.6836 -0.874 -0.389 0.291 152 136 94 0 0
-0.0728 -0.1578 -0.6862 -0.540 -0.536 0.649 159 144 101 0 0
-0.0715 -0.1565 -0.6996 -0.716 -0.696 -0.053 164 147 109 0 0
-0.0285 -0.1218 -0.7718 -0.499 -0.712 -0.494 205 203 204 0 0
-0.0185 -0.1222 -0.2466 -0.806 -0.318 0.499 178 178 179 0 0
-0.0418 -0.1399 -0.2707 -0.789 -0.414 0.455 238 225 184 0 0
-0.0729 -0.1630 -0.3267 -0.867 0.171 0.469 70 57 43 0 0
-0.0735 -0.1634 -0.3280 -0.921 -0.054 0.386 76 65 46 0 0
-0.0736 -0.1634 -0.3326 -0.936 -0.286 0.207 73 58 35 0 0
-0.0735 -0.1633 -0.3341 -0.908 -0.398 -0.129 83 69 44 0 0
-0.0739 -0.1636 -0.3355 -0.973 -0.193 -0.122 102 88 61 0 0
-0.0754 -0.1644 -0.3503 -0.848 -0.521 0.096 96 83 56 0 0
-0.0822 -0.1685 -0.4120 -0.564 -0.491 0.663 75 60 40 0 0
-0.0832 -0.1693 -0.4131 -0.525 -0.394 0.754 68 53 34 0 0
-0.0826 -0.1682 -0.4464 -0.973 0.103 0.208 65 50 33 0 0
-0.0830 -0.1685 -0.4478 -0.962 0.072 0.263 67 52 34 0 0
-0.0833 -0.1687 -0.4493 -0.981 -0.008 0.195 68 53 33 0 0
-0.0836 -0.1689 -0.4508 -0.981 -0.008 0.195 77 62 41 0 0
-0.0825 -0.1670 -0.4976 -0.989 0.121 0.089 47 36 23 0 0
-0.0790 -0.1638 -0.5246 -0.822 -0.218 0.526 50 44 28 0 0
-0.0654 -0.1526 -0.5561 -0.588 -0.578 0.566 50 43 27 0 0
-0.0738 -0.1588 -0.5739 -0.900 0.080 -0.429 40 31 20 0 0
-0.0722 -0.1574 -0.5770 -0.888 0.041 -0.458 43 34 23 0 0
-0.0707 -0.1562 -0.5800 -0.881 -0.029 -0.472 49 40 27 0 0
-0.0689 -0.1546 -0.5889 -0.688 0.357 0.632 41 34 23 0 0
-0.0758 -0.1595 -0.6138 -0.800 -0.389 0.456 91 78 49 0 0
-0.0754 -0.1591 -0.6180 -0.944 -0.252 -0.213 74 61 37 0 0
-0.0756 -0.1592 -0.6197 -0.955 -0.246 0.163 63 47 24 0 0
-0.0746 -0.1584 -0.6225 -0.673 -0.721 0.164 62 46 25 0 0
-0.0748 -0.1585 -0.6242 -0.673 -0.721 0.164 59 44 23 0 0
-0.0760 -0.1594 -0.6271 -0.617 -0.785 0.054 70 55 31 0 0
-0.0764 -0.1597 -0.6287 -0.555 -0.820 0.142 76 61 35 0 0
-0.0745 -0.1574 -0.6676 -0.912 -0.407 0.058 127 114 77 0 0
-0.0737 -0.1565 -0.6823 -0.871 -0.490 -0.032 136 120 88 0 0
-0.0742 -0.1569 -0.6838 -0.874 -0.389 0.291 155 138 96 0 0
-0.0727 -0.1554 -0.6994 -0.749 -0.646 -0.145 157 135 95 0 0
-0.0361 -0.1252 -0.7832 -0.352 -0.336 0.874 197 192 185 0 0
-0.0373 -0.1262 -0.7842 -0.315 -0.379 0.870 190 182 167 0 0
-0.0372 -0.1260 -0.7866 -0.495 -0.584 0.643 183 173 152 0 0
-0.0376 -0.1263 -0.7883 -0.763 -0.555 0.331 170 158 130 0 0
-0.0618 -0.1446 -0.8168 -0.912 -0.169 0.374 117 103 69 0 0
-0.0679 -0.1491 -0.8281 -0.828 -0.224 0.514 142 124 88 0 0
-0.0197 -0.1212 -0.2510 -0.745 -0.284 0.604 142 137 125 0 0
-0.0362 -0.1338 -0.2653 -0.276 -0.601 0.750 172 150 113 0 0
-0.0433 -0.1393 -0.2704 -0.528 -0.633 0.566 226 211 167 0 0
-0.0678 -0.1577 -0.3034 -0.954 0.289 -0.077 35 25 14 0 0
-0.0722 -0.1606 -0.3274 -0.788 0.220 0.575 66 57 39 0 0
-0.0740 -0.1619 -0.3327 -0.936 -0.286 0.207 70 55 32 0 0
-0.0741 -0.1619 -0.3342 -0.908 -0.398 -0.129 58 43 19 0 0
-0.0736 -0.1614 -0.3391 -0.944 -0.320 -0.083 88 74 49 0 0
-0.0822 -0.1667 -0.4108 -0.972 -0.200 0.123 71 56 34 0 0
-0.0820 -0.1665 -0.4126 -0.875 -0.256 0.412 67 52 31 0 0
-0.0819 -0.1664 -0.4143 -0.979 -0.044 -0.198 82 68 47 0 0
-0.0809 -0.1655 -0.4197 -0.993 -0.097 -0.068 78 62 42 0 0
-0.0816 -0.1649 -0.4712 -0.949 -0.291 0.119 72 58 38 0 0
-0.0818 -0.1650 -0.4728 -0.913 -0.404 -0.052 49 36 20 0 0
-0.0817 -0.1650 -0.4746 -0.857 -0.515 0.002 62 50 34 0 0
-0.0820 -0.1651 -0.4761 -0.573 -0.802 -0.172 76 64 49 0 0
-0.0799 -0.1629 -0.5052 -0.288 -0.897 -0.336 65 55 41 0 0
-0.0747 -0.1575 -0.5721 -0.909 0.316 -0.273 38 31 20 0 0
-0.0744 -0.1554 -0.6625 -0.963 -0.234 0.131 81 68 42 0 0
-0.0747 -0.1552 -0.6843 -0.913 -0.251 0.320 135 119 83 0 0
-0.0376 -0.1241 -0.7828 0.221 -0.556 0.801 173 165 140 0 0
-0.0385 -0.1249 -0.7841 0.242 -0.784 0.572 166 153 119 0 0
-0.0397 -0.1257 -0.7873 -0.259 -0.904 0.340 167 148 109 0 0
-0.0626 -0.1430 -0.8148 -0.784 -0.344 0.516 137 122 86 0 0
-0.0626 -0.1430 -0.8170 -0.822 -0.353 0.446 133 118 82 0 0
-0.0627 -0.1430 -0.8192 -0.910 -0.356 0.211 127 113 77 0 0
-0.0741 -0.1516 -0.8359 -0.606 -0.526 0.597 148 132 91 0 0
-0.0948 -0.1671 -0.8687 0.070 -0.109 0.992 184 183 182 0 0
-0.0739 -0.1600 -0.3316 -0.737 -0.307 0.603 119 106 88 0 0
-0.0745 -0.1604 -0.3329 -0.746 -0.354 0.564 77 66 44 0 0
-0.0747 -0.1606 -0.3343 -0.955 -0.220 0.199 77 64 39 0 0
-0.0746 -0.1604 -0.3359 -0.961 -0.268 -0.071 85 70 44 0 0
-0.0733 -0.1592 -0.3474 -0.991 -0.122 0.049 71 56 35 0 0
-0.0735 -0.1594 -0.3488 -0.996 -0.077 -0.049 64 50 29 0 0
-0.0734 -0.1592 -0.3504 -0.957 -0.198 0.210 70 57 36 0 0
-0.0765 -0.1608 -0.3885 -0.971 -0.222 0.083 74 59 35 0 0
-0.0771 -0.1612 -0.3898 -0.896 -0.257 0.363 75 60 37 0 0
-0.0796 -0.1625 -0.4226 -0.972 -0.071 0.224 115 100 78 0 0
-0.0802 -0.1630 -0.4239 -0.609 -0.022 0.793 76 61 41 0 0
-0.0816 -0.1640 -0.4248 -0.454 -0.221 0.863 53 38 19 0 0
-0.0802 -0.1629 -0.4272 -0.951 -0.307 0.048 76 63 46 0 0
-0.0803 -0.1618 -0.4812 -0.990 -0.109 -0.091 74 62 46 0 0
-0.0798 -0.1613 -0.4867 -0.990 -0.102 -0.100 79 64 43 0 0
-0.0803 -0.1616 -0.4881 -0.984 -0.088 0.155 69 56 36 0 0
-0.0683 -0.1501 -0.5909 -0.493 -0.129 0.861 42 37 23 0 0
-0.0747 -0.1535 -0.6632 -0.929 -0.325 0.176 84 69 44 0 0
-0.0744 -0.1529 -0.6815 -0.875 -0.481 -0.056 60 47 27 0 0
-0.0747 -0.1531 -0.6832 -0.651 -0.755 -0.077 78 65 42 0 0
-0.0754 -0.1536 -0.6846 -0.818 -0.456 0.350 100 85 58 0 0
-0.0390 -0.1230 -0.7825 0.374 -0.533 0.759 174 161 123 0 0
-0.0623 -0.1405 -0.8141 -0.940 -0.263 0.216 153 135 97 0 0
-0.0648 -0.1425 -0.8137 -0.226 -0.652 0.723 148 130 92 0 0
-0.0651 -0.1427 -0.8156 -0.315 -0.789 0.528 145 127 89 0 0
-0.0660 -0.1434 -0.8168 -0.088 -0.856 0.509 143 125 87 0 0
-0.0672 -0.1443 -0.8178 0.143 -0.922 0.358 138 120 82 0 0
-0.0802 -0.1540 -0.8416 -0.273 -0.709 0.650 160 145 102 0 0
-0.0209 -0.1184 -0.2496 -0.786 -0.617 0.048 133 115 90 0 0
-0.0461 -0.1378 -0.2700 -0.541 -0.736 0.408 218 200 164 0 0
-0.0478 -0.1390 -0.2739 -0.510 -0.690 0.513 159 139 103 0 0
-0.0576 -0.1463 -0.2899 -0.547 -0.777 0.312 98 85 56 0 0
-0.0595 -0.1478 -0.2906 -0.548 -0.461 0.698 156 141 109 0 0
-0.0608 -0.1488 -0.2917 -0.748 -0.142 0.648 148 128 97 0 0
-0.0617 -0.1495 -0.2928 -0.748 -0.142 0.648 151 131 98 0 0
-0.0624 -0.1500 -0.2941 -0.991 -0.101 0.090 164 148 114 0 0
-0.0610 -0.1482 -0.3268 -0.439 -0.851 0.290 48 39 30 0 0
-0.0623 -0.1492 -0.3278 -0.609 -0.181 0.773 37 28 20 0 0
-0.0742 -0.1578 -0.3583 -0.913 -0.088 0.398 94 79 52 0 0
-0.0746 -0.1581 -0.3596 -0.993 -0.080 0.090 88 73 48 0 0
-0.0763 -0.1587 -0.3923 -0.914 -0.315 0.256 84 70 44 0 0
-0.0803 -0.1594 -0.5027 -0.967 -0.222 0.122 68 54 40 0 0
-0.0804 -0.1594 -0.5061 -0.846 -0.528 0.081 66 50 35 0 0
-0.0803 -0.1593 -0.5079 -0.700 -0.708 -0.092 61 49 34 0 0
-0.0745 -0.1516 -0.6445 -0.972 -0.219 -0.079 90 78 54 0 0
-0.0751 -0.1518 -0.6617 -0.964 -0.184 0.192 83 70 41 0 0
-0.0753 -0.1514 -0.6816 -0.934 -0.357 0.019 58 45 27 0 0
-0.0753 -0.1514 -0.6836 -0.930 -0.359 0.081 60 47 29 0 0
-0.0763 -0.1522 -0.6847 -0.770 -0.346 0.536 62 49 30 0 0
-0.0766 -0.1524 -0.6864 -0.402 -0.426 0.810 67 54 36 0 0
-0.0788 -0.1538 -0.7027 -0.678 -0.711 0.187 164 143 105 0 0
-0.0789 -0.1538 -0.7047 -0.654 -0.755 0.047 154 135 97 0 0
-0.0590 -0.1362 -0.7943 -0.401 -0.896 0.190 91 76 48 0 0
-0.0628 -0.1389 -0.8059 -0.687 -0.567 0.454 156 140 96 0 0
-0.0639 -0.1398 -0.8069 -0.421 -0.791 0.443 169 152 109 0 0
-0.0642 -0.1399 -0.8088 -0.371 -0.847 0.380 167 149 107 0 0
-0.0639 -0.1396 -0.8114 -0.321 -0.772 0.549 161 143 103 0 0
-0.0762 -0.1491 -0.8204 -0.547 -0.812 0.203 146 128 86 0 0
-0.0805 -0.1521 -0.8402 -0.079 -0.783 0.617 162 145 103 0 0
-0.0191 -0.1153 -0.2429 -0.414 -0.805 0.425 164 143 107 0 0
-0.0198 -0.1158 -0.2457 -0.718 -0.641 0.272 175 155 121 0 0
-0.0202 -0.1160 -0.2471 -0.718 -0.641 0.272 198 175 140 0 0
-0.0497 -0.1385 -0.2780 -0.783 -0.493 0.378 195 181 135 0 0
-0.0586 -0.1452 -0.2898 -0.687 -0.512 0.516 89 74 46 0 0
-0.0591 -0.1456 -0.2911 -0.732 -0.299 0.612 110 95 63 0 0
-0.0602 -0.1464 -0.2922 -0.642 -0.453 0.619 153 137 103 0 0
-0.0610 -0.1471 -0.2934 -0.713 -0.329 0.619 147 132 93 0 0
-0.0626 -0.1482 -0.2973 -0.863 0.151 0.483 79 64 37 0 0
-0.0620 -0.1476 -0.3021 -0.865 0.057 0.499 142 128 100 0 0
-0.0573 -0.1437 -0.3132 -0.630 -0.721 -0.289 31 24 16 0 0
-0.0566 -0.1431 -0.3181 -0.485 -0.797 0.360 37 30 22 0 0
-0.0619 -0.1471 -0.3252 -0.521 -0.824 0.222 51 43 33 0 0
-0.0696 -0.1529 -0.3312 -0.742 0.038 0.669 110 101 82 0 0
-0.0815 -0.1583 -0.5025 -0.851 -0.163 0.499 54 41 27 0 0
-0.0727 -0.1501 -0.5609 -0.794 -0.409 0.450 84 75 58 0 0
-0.0709 -0.1478 -0.5999 -0.891 -0.418 0.175 83 70 51 0 0
-0.0777 -0.1512 -0.6863 -0.402 -0.426 0.810 54 45 29 0 0
-0.0766 -0.1502 -0.6894 -0.360 -0.913 0.192 39 32 19 0 0
-0.0618 -0.1361 -0.7991 -0.933 -0.332 0.139 150 133 96 0 0
-0.0616 -0.1358 -0.8016 -0.924 -0.337 0.182 156 138 101 0 0
-0.0624 -0.1364 -0.8030 -0.782 -0.544 0.303 154 139 99 0 0
-0.0628 -0.1367 -0.8047 -0.713 -0.632 0.305 159 142 99 0 0
-0.0822 -0.1512 -0.8395 -0.028 -0.736 0.676 161 144 102 0 0
-0.0830 -0.1517 -0.8409 -0.198 -0.546 0.814 157 141 98 0 0
-0.0945 -0.1605 -0.8526 -0.412 -0.869 0.275 169 152 115 0 0
-0.0970 -0.1624 -0.8564 -0.297 -0.946 0.132 75 72 57 0 0
-0.0060 -0.1032 -0.2349 -0.439 -0.505 0.743 178 179 179 0 0
-0.0203 -0.1143 -0.2443 -0.548 -0.820 0.164 185 165 128 0 0
-0.0210 -0.1147 -0.2471 -0.582 -0.798 0.160 196 176 140 0 0
-0.0389 -0.1285 -0.2640 -0.612 -0.575 0.542 199 179 145 0 0
-0.0396 -0.1290 -0.2652 -0.612 -0.575 0.542 203 183 148 0 0
-0.0482 -0.1356 -0.2728 -0.781 -0.356 0.513 155 138 109 0 0
-0.0594 -0.1440 -0.2898 -0.846 -0.409 0.341 88 73 44 0 0
-0.0608 -0.1450 -0.2923 -0.572 -0.362 0.736 149 138 102 0 0
-0.0620 -0.1460 -0.2963 -0.991 -0.135 0.014 124 109 79 0 0
-0.0631 -0.1467 -0.2990 -0.924 -0.032 0.382 87 72 45 0 0
-0.0606 -0.1445 -0.3091 -0.890 -0.293 -0.349 44 36 25 0 0
-0.0584 -0.1427 -0.3116 -0.061 -0.967 0.246 35 27 20 0 0
-0.0624 -0.1456 -0.3253 -0.421 -0.699 0.578 53 44 33 0 0
-0.0735 -0.1535 -0.3563 -0.944 0.089 0.319 107 92 66 0 0
-0.0774 -0.1563 -0.3702 -0.931 0.137 0.338 95 81 54 0 0
-0.0777 -0.1565 -0.3716 -0.960 0.110 0.257 87 75 50 0 0
-0.0769 -0.1557 -0.3784 -0.977 -0.198 -0.079 100 88 66 0 0
-0.0779 -0.1565 -0.3795 -0.811 -0.556 -0.182 118 105 86 0 0
-0.0776 -0.1558 -0.3990 -0.989 0.134 -0.060 76 63 44 0 0
-0.0780 -0.1560 -0.4004 -0.989 0.117 -0.093 69 56 40 0 0
-0.0774 -0.1555 -0.4024 -0.951 0.287 -0.114 80 69 55 0 0
-0.0716 -0.1473 -0.5551 -0.787 -0.615 -0.041 53 43 26 0 0
-0.0724 -0.1479 -0.5582 -0.852 -0.408 0.329 69 56 38 0 0
-0.0725 -0.1480 -0.5599 -0.564 -0.205 0.800 71 59 42 0 0
-0.0731 -0.1484 -0.5614 -0.928 -0.276 0.250 77 65 49 0 0
-0.0715 -0.1471 -0.5644 -0.934 -0.055 -0.354 63 53 41 0 0
-0.0707 -0.1464 -0.5669 -0.859 -0.110 -0.500 36 27 17 0 0
-0.0648 -0.1413 -0.5845 -0.819 -0.042 0.572 36 27 18 0 0
-0.0654 -0.1417 -0.5859 -0.887 -0.064 0.457 26 17 8 0 0
-0.0716 -0.1463 -0.6001 -0.872 -0.430 0.233 66 53 31 0 0
-0.0721 -0.1447 -0.6822 -0.686 -0.727 -0.004 35 26 16 0 0
-0.0784 -0.1495 -0.6887 -0.622 -0.701 0.349 22 17 9 0 0
-0.0815 -0.1516 -0.7041 -0.738 -0.659 0.147 137 121 85 0 0
-0.0491 -0.1245 -0.7713 0.436 -0.856 0.277 137 124 90 0 0
-0.0626 -0.1345 -0.7973 -0.707 -0.707 0.009 143 126 91 0 0
-0.0630 -0.1347 -0.7991 -0.687 -0.715 0.130 147 129 92 0 0
-0.0634 -0.1350 -0.8008 -0.573 -0.796 0.195 156 141 102 0 0
-0.0642 -0.1356 -0.8023 -0.394 -0.868 0.303 148 134 96 0 0
-0.0851 -0.1512 -0.8375 -0.231 -0.971 -0.059 156 139 98 0 0
-0.0846 -0.1508 -0.8403 -0.321 -0.947 0.016 152 137 95 0 0
-0.0985 -0.1615 -0.8536 -0.345 -0.925 0.162 126 118 88 0 0
-0.0066 -0.1020 -0.2258 -0.035 -0.999 -0.036 178 178 180 0 0
-0.0615 -0.1436 -0.2984 -0.895 0.135 0.426 84 72 47 0 0
-0.0616 -0.1437 -0.2999 -0.996 -0.077 0.036 78 67 42 0 0
-0.0614 -0.1433 -0.3076 -0.952 -0.259 0.165 41 28 19 0 0
-0.0608 -0.1428 -0.3094 -0.721 -0.355 0.595 54 43 31 0 0
-0.0601 -0.1422 -0.3112 -0.617 -0.604 0.504 50 40 29 0 0
-0.0616 -0.1434 -0.3121 -0.754 -0.642 0.139 43 34 24 0 0
-0.0638 -0.1449 -0.3204 -0.727 -0.455 0.514 44 34 28 0 0
-0.0754 -0.1529 -0.3684 -0.856 0.063 0.513 81 69 43 0 0
-0.0756 -0.1530 -0.3699 -0.988 0.082 0.129 77 65 37 0 0
-0.0772 -0.1543 -0.3707 -0.708 0.083 0.702 76 64 37 0 0
-0.0773 -0.1538 -0.3915 -0.989 0.137 -0.065 74 61 40 0 0
-0.0773 -0.1538 -0.3931 -0.965 0.263 -0.016 81 68 50 0 0
-0.0771 -0.1536 -0.3948 -0.990 0.139 0.025 73 61 46 0 0
-0.0769 -0.1534 -0.3965 -0.969 0.237 0.070 80 71 56 0 0
-0.0760 -0.1526 -0.4003 -0.922 0.361 -0.140 95 88 79 0 0
-0.0728 -0.1462 -0.5568 -0.977 -0.201 0.076 45 36 21 0 0
-0.0730 -0.1463 -0.5585 -0.944 -0.211 0.254 38 29 17 0 0
-0.0732 -0.1465 -0.5601 -0.994 -0.050 0.095 43 34 23 0 0
-0.0726 -0.1459 -0.5625 -0.967 -0.100 -0.233 52 43 33 0 0
-0.0737 -0.1457 -0.6069 -0.864 -0.232 0.447 85 73 56 0 0
-0.0748 -0.1458 -0.6389 -0.982 0.054 0.182 71 58 40 0 0
-0.0726 -0.1434 -0.6666 -0.977 -0.211 -0.029 51 39 24 0 0
-0.0729 -0.1436 -0.6683 -0.939 -0.319 0.130 48 36 22 0 0
-0.0729 -0.1434 -0.6743 -0.896 -0.325 0.304 63 52 38 0 0
-0.0733 -0.1437 -0.6761 -0.822 -0.326 0.468 52 44 28 0 0
-0.0989 -0.1596 -0.8522 -0.345 -0.881 0.323 173 154 113 0 0
-0.0613 -0.1416 -0.2988 -0.967 0.143 0.212 108 96 69 0 0
-0.0610 -0.1411 -0.3081 -0.980 -0.009 0.199 56 43 29 0 0
-0.0615 -0.1415 -0.3094 -0.757 -0.235 0.610 45 33 20 0 0
-0.0611 -0.1411 -0.3111 -0.617 -0.604 0.504 48 37 23 0 0
-0.0626 -0.1423 -0.3120 -0.880 -0.434 0.194 49 39 25 0 0
-0.0645 -0.1436 -0.3205 -0.659 -0.672 0.338 49 36 26 0 0
-0.0656 -0.1443 -0.3262 -0.701 -0.334 0.630 117 105 85 0 0
-0.0667 -0.1451 -0.3273 -0.927 -0.119 0.356 115 103 82 0 0
-0.0737 -0.1500 -0.3554 -0.983 0.157 0.096 64 51 28 0 0
-0.0729 -0.1493 -0.3574 -0.897 0.267 0.354 70 56 30 0 0
-0.0742 -0.1498 -0.3790 -0.951 0.224 0.211 69 54 39 0 0
-0.0773 -0.1521 -0.3855 -0.993 0.069 0.100 92 81 62 0 0
-0.0774 -0.1521 -0.3870 -0.991 0.126 -0.053 81 72 53 0 0
-0.0760 -0.1509 -0.3926 -0.976 0.153 -0.153 100 95 84 0 0
-0.0802 -0.1510 -0.5177 -0.998 0.004 -0.055 65 51 39 0 0
-0.0735 -0.1450 -0.5477 -0.922 -0.373 -0.104 67 57 44 0 0
-0.0736 -0.1450 -0.5495 -0.963 -0.268 -0.025 78 69 57 0 0
-0.0735 -0.1448 -0.5515 -0.901 -0.422 0.100 76 65 51 0 0
-0.0735 -0.1448 -0.5533 -0.954 -0.298 -0.030 77 66 50 0 0
-0.0707 -0.1422 -0.5683 -0.862 -0.245 -0.444 42 32 23 0 0
-0.0696 -0.1413 -0.5710 -0.862 -0.245 -0.444 38 31 20 0 0
-0.0705 -0.1413 -0.5968 -0.952 -0.134 0.276 58 47 32 0 0
-0.0746 -0.1440 -0.6204 -0.993 -0.017 0.118 86 75 55 0 0
-0.0750 -0.1443 -0.6220 -0.970 -0.028 0.242 85 74 54 0 0
-0.0753 -0.1444 -0.6257 -0.976 -0.194 -0.097 78 67 49 0 0
-0.0742 -0.1432 -0.6364 -0.992 0.045 0.119 61 50 33 0 0
-0.0732 -0.1424 -0.6391 -0.954 0.168 0.248 86 74 57 0 0
-0.0737 -0.1428 -0.6407 -0.954 0.168 0.248 75 63 46 0 0
-0.0742 -0.1431 -0.6423 -0.954 0.168 0.248 69 58 40 0 0
-0.0073 -0.0988 -0.2215 -0.822 -0.500 0.271 178 178 180 0 0
-0.0076 -0.0990 -0.2229 -0.822 -0.500 0.271 177 178 181 0 0
