ply
format ascii 1.0
element vertex 858
property float x
property float y
property float z
property float nx
property float ny
property float nz
property uchar diffuse_red
property uchar diffuse_green
property uchar diffuse_blue
property uchar class
property uchar detection
end_header
-0.0288 -0.0213 -0.1976 -0.704 0.525 0.478 66 53 30 0 0
-0.0311 -0.0181 -0.1984 -0.396 0.782 0.481 68 55 35 0 0
-0.0702 0.0429 -0.3017 -0.304 0.913 0.274 137 118 89 0 0
-0.0842 0.0644 -0.3322 -0.390 0.774 0.499 58 49 32 0 0
-0.0826 0.0636 -0.3556 0.017 0.993 -0.119 62 48 30 0 0
-0.0776 0.0582 -0.3784 -0.709 0.496 0.502 56 46 29 0 0
-0.0748 0.0549 -0.3902 -0.381 0.822 0.424 29 21 14 0 0
-0.0760 0.0615 -0.4680 -0.448 0.636 0.628 30 26 22 0 0
-0.0812 0.0688 -0.4691 -0.433 0.869 0.240 36 30 25 0 0
-0.1283 0.1340 -0.4623 -0.583 0.753 0.306 101 85 60 0 0
-0.1303 0.1374 -0.4721 -0.356 0.745 0.564 122 106 77 0 0
-0.1312 0.1418 -0.5232 -0.883 0.435 0.176 104 96 77 0 0
-0.1313 0.1422 -0.5247 -0.883 0.435 0.176 88 80 61 0 0
-0.1312 0.1427 -0.5369 -0.704 0.626 0.336 137 122 87 0 0
-0.1307 0.1421 -0.5391 -0.370 0.888 0.272 147 131 93 0 0
-0.1310 0.1427 -0.5405 -0.615 0.782 0.102 157 141 99 0 0
-0.1308 0.1427 -0.5441 -0.748 0.578 0.324 164 145 103 0 0
-0.1325 0.1455 -0.5528 -0.662 0.747 0.057 143 123 84 0 0
-0.0990 0.1047 -0.6450 0.181 0.642 0.745 58 51 43 0 0
-0.0999 0.1061 -0.6479 -0.266 0.663 0.699 64 56 45 0 0
-0.1257 0.1431 -0.6650 -0.534 0.659 0.530 83 68 38 0 0
-0.1272 0.1455 -0.6707 -0.640 0.597 0.483 101 81 51 0 0
-0.1294 0.1504 -0.6981 -0.588 0.804 0.088 15 11 9 0 0
-0.1279 0.1490 -0.7097 -0.209 0.615 0.760 114 99 67 0 0
-0.1230 0.1446 -0.7473 -0.688 0.617 0.383 65 51 29 0 0
-0.1308 0.1606 -0.8290 -0.683 0.636 0.360 137 115 72 0 0
-0.1312 0.1611 -0.8305 -0.683 0.636 0.360 149 130 87 0 0
-0.1343 0.1680 -0.8694 -0.992 0.111 -0.053 187 187 187 0 0
-0.1342 0.1680 -0.8716 -0.990 0.143 0.017 190 188 189 0 0
-0.1339 0.1677 -0.8742 -0.763 0.614 -0.202 193 191 192 0 0
-0.0196 -0.0336 -0.1609 -0.891 0.391 0.232 129 111 69 0 0
-0.0198 -0.0332 -0.1624 -0.861 0.490 0.139 110 91 56 0 0
-0.0318 -0.0140 -0.2023 -0.362 0.915 0.177 117 103 84 0 0
-0.0752 0.0589 -0.4007 -0.650 0.742 0.166 69 56 39 0 0
-0.0757 0.0600 -0.4071 -0.749 0.602 0.275 50 40 27 0 0
-0.1297 0.1394 -0.4747 -0.631 0.533 0.564 89 75 50 0 0
-0.1311 0.1413 -0.4751 -0.639 0.452 0.623 90 76 49 0 0
-0.1321 0.1427 -0.4760 -0.773 0.557 0.304 98 84 56 0 0
-0.1323 0.1432 -0.4774 -0.720 0.693 0.046 105 90 60 0 0
-0.1306 0.1450 -0.5448 -0.650 0.624 0.434 161 144 101 0 0
-0.1308 0.1454 -0.5463 -0.633 0.557 0.537 167 150 106 0 0
-0.1307 0.1457 -0.5533 -0.264 0.963 0.053 136 116 75 0 0
-0.1316 0.1471 -0.5541 -0.587 0.448 0.674 129 113 72 0 0
-0.0948 0.1016 -0.6444 -0.313 0.312 0.897 54 48 42 0 0
-0.0974 0.1054 -0.6472 -0.027 0.785 0.618 64 55 45 0 0
-0.0979 0.1063 -0.6485 -0.146 0.607 0.781 68 60 46 0 0
-0.1085 0.1208 -0.6460 -0.243 0.448 0.860 91 79 63 0 0
-0.1247 0.1446 -0.6664 -0.516 0.709 0.481 74 56 27 0 0
-0.1236 0.1450 -0.6981 -0.777 0.558 -0.291 75 63 38 0 0
-0.1219 0.1461 -0.7509 -0.427 0.842 0.329 83 72 46 0 0
-0.1166 0.1396 -0.7641 -0.059 0.922 -0.384 40 30 18 0 0
-0.1277 0.1589 -0.8253 -0.372 0.808 0.457 116 94 54 0 0
-0.1300 0.1624 -0.8301 -0.591 0.663 0.458 158 141 92 0 0
-0.1296 0.1637 -0.8600 -0.718 0.650 0.251 18 18 19 0 0
-0.1311 0.1658 -0.8597 -0.518 0.746 0.418 24 23 19 0 0
-0.1315 0.1664 -0.8611 -0.240 0.889 0.391 61 57 49 0 0
-0.1342 0.1705 -0.8674 -0.992 0.111 -0.053 186 186 186 0 0
-0.1325 0.1685 -0.8722 -0.979 -0.105 -0.172 191 188 189 0 0
-0.1339 0.1705 -0.8720 -0.997 0.079 0.028 193 190 191 0 0
-0.0119 -0.0424 -0.1485 -0.296 0.287 0.911 181 178 176 0 0
-0.0164 -0.0358 -0.1552 -0.629 0.425 0.651 175 163 136 0 0
-0.0178 -0.0336 -0.1579 -0.632 0.348 0.692 118 101 70 0 0
-0.0400 0.0022 -0.2365 -0.619 0.646 0.446 55 43 31 0 0
-0.0735 0.0593 -0.4026 -0.352 0.914 0.204 52 39 29 0 0
-0.0739 0.0601 -0.4040 -0.535 0.844 0.016 46 35 25 0 0
-0.0740 0.0603 -0.4056 -0.574 0.795 0.194 37 27 17 0 0
-0.0742 0.0606 -0.4072 -0.574 0.795 0.194 30 20 11 0 0
-0.1283 0.1400 -0.4748 -0.287 0.624 0.727 101 88 62 0 0
-0.1311 0.1438 -0.4757 -0.536 0.694 0.481 109 94 59 0 0
-0.1313 0.1442 -0.4772 -0.612 0.736 0.290 118 105 69 0 0
-0.1294 0.1460 -0.5446 -0.819 0.388 0.423 163 144 102 0 0
-0.1296 0.1467 -0.5514 -0.514 0.690 0.509 151 134 90 0 0
-0.1295 0.1467 -0.5532 -0.536 0.741 0.405 127 108 67 0 0
-0.0930 0.1020 -0.6449 -0.528 0.492 0.692 57 51 43 0 0
-0.0938 0.1032 -0.6458 -0.144 0.879 0.454 56 49 41 0 0
-0.0954 0.1055 -0.6479 -0.003 0.666 0.746 74 65 55 0 0
-0.0961 0.1066 -0.6489 -0.278 0.659 0.699 76 67 53 0 0
-0.1092 0.1247 -0.6493 0.117 0.806 0.580 79 67 53 0 0
-0.1252 0.1483 -0.6697 -0.449 0.779 0.437 107 88 57 0 0
-0.1257 0.1496 -0.6805 -0.386 0.780 0.492 152 135 89 0 0
-0.1115 0.1371 -0.7915 -0.459 0.624 0.633 101 85 54 0 0
-0.1180 0.1468 -0.8027 -0.412 0.886 0.212 55 42 19 0 0
-0.1186 0.1477 -0.8039 -0.570 0.820 -0.051 53 40 21 0 0
-0.1217 0.1529 -0.8179 -0.273 0.687 0.673 129 111 67 0 0
-0.1286 0.1633 -0.8302 -0.501 0.711 0.493 154 137 87 0 0
-0.1275 0.1620 -0.8339 -0.616 0.698 0.364 153 135 93 0 0
-0.1295 0.1665 -0.8600 -0.344 0.819 0.459 32 30 27 0 0
-0.1300 0.1672 -0.8613 -0.260 0.953 0.156 67 63 55 0 0
-0.1301 0.1675 -0.8632 -0.260 0.953 0.156 101 98 88 0 0
-0.0089 -0.0438 -0.1474 0.035 0.503 0.863 179 178 176 0 0
-0.0171 -0.0319 -0.1577 -0.633 0.539 0.556 118 102 76 0 0
-0.0317 -0.0076 -0.2202 -0.388 0.861 0.328 80 70 56 0 0
-0.0293 -0.0082 -0.2611 -0.574 0.361 0.735 12 11 9 0 0
-0.0746 0.0617 -0.3744 -0.647 0.654 0.391 29 22 14 0 0
-0.0745 0.0617 -0.3761 -0.599 0.700 0.389 28 19 12 0 0
-0.0724 0.0638 -0.4519 -0.814 0.433 0.387 21 16 16 0 0
-0.0723 0.0639 -0.4554 -0.480 0.615 0.625 29 23 23 0 0
-0.1199 0.1297 -0.4563 0.498 0.457 0.737 41 34 29 0 0
-0.1313 0.1479 -0.4942 -0.420 0.890 0.176 102 83 48 0 0
-0.1313 0.1481 -0.4958 -0.575 0.798 0.178 105 89 56 0 0
-0.1292 0.1489 -0.5539 -0.714 0.682 0.160 122 103 62 0 0
-0.0937 0.1061 -0.6481 0.058 0.808 0.586 81 71 61 0 0
-0.0943 0.1069 -0.6494 0.015 0.832 0.554 82 73 58 0 0
-0.1072 0.1249 -0.6499 0.117 0.806 0.580 97 84 71 0 0
-0.1242 0.1539 -0.7343 -0.618 0.632 -0.467 153 136 92 0 0
-0.1186 0.1506 -0.8039 -0.621 0.548 0.561 42 27 11 0 0
-0.1256 0.1616 -0.8244 -0.390 0.771 0.504 114 92 52 0 0
-0.1264 0.1635 -0.8355 -0.592 0.767 0.247 144 126 84 0 0
-0.1266 0.1639 -0.8372 -0.427 0.811 0.400 142 125 82 0 0
-0.0288 -0.0089 -0.2207 -0.485 0.837 0.254 88 76 56 0 0
-0.0519 0.0273 -0.2857 0.003 0.844 0.537 80 63 44 0 0
-0.0617 0.0414 -0.2952 -0.766 0.623 0.160 114 96 71 0 0
-0.0726 0.0617 -0.3748 -0.348 0.849 0.398 23 16 11 0 0
-0.0713 0.0651 -0.4534 -0.566 0.793 0.224 23 17 16 0 0
-0.1264 0.1476 -0.5520 -0.644 0.761 -0.079 146 129 87 0 0
-0.0903 0.1041 -0.6466 0.013 0.918 0.397 57 49 40 0 0
-0.0921 0.1067 -0.6484 0.165 0.661 0.732 69 58 45 0 0
-0.1055 0.1252 -0.6504 -0.602 0.466 0.648 93 80 65 0 0
-0.1057 0.1256 -0.6520 0.006 0.926 0.377 95 80 61 0 0
-0.1231 0.1536 -0.7127 -0.295 0.835 0.464 142 127 92 0 0
-0.1257 0.1578 -0.7208 -0.504 0.617 0.604 96 81 46 0 0
-0.1194 0.1556 -0.8192 -0.590 0.550 0.591 181 164 113 0 0
-0.1199 0.1564 -0.8204 -0.590 0.550 0.591 187 172 123 0 0
-0.1204 0.1572 -0.8217 -0.590 0.550 0.591 168 158 120 0 0
-0.0274 -0.0081 -0.2207 -0.485 0.837 0.254 95 83 58 0 0
-0.0239 -0.0104 -0.2573 -0.899 0.230 0.371 13 12 10 0 0
-0.0246 -0.0090 -0.2635 -0.547 0.812 0.203 10 9 7 0 0
-0.0707 0.0593 -0.3376 -0.214 0.920 0.328 60 48 30 0 0
-0.1176 0.1320 -0.4626 -0.203 0.820 0.535 116 103 81 0 0
-0.1302 0.1518 -0.4978 -0.629 0.708 0.320 72 55 37 0 0
-0.0884 0.1043 -0.6471 0.013 0.918 0.397 59 51 41 0 0
-0.0901 0.1068 -0.6491 0.105 0.607 0.788 74 63 47 0 0
-0.1044 0.1265 -0.6500 -0.662 0.405 0.631 81 67 50 0 0
-0.1043 0.1266 -0.6520 -0.459 0.882 0.111 102 86 65 0 0
-0.1166 0.1438 -0.6584 -0.260 0.645 0.718 125 109 78 0 0
-0.1209 0.1518 -0.6890 -0.278 0.957 0.083 101 91 60 0 0
-0.1186 0.1495 -0.7013 -0.733 0.681 0.012 24 15 7 0 0
-0.1253 0.1601 -0.7235 -0.615 0.725 0.311 150 129 85 0 0
-0.1256 0.1607 -0.7249 -0.518 0.759 0.395 158 143 96 0 0
-0.1008 0.1307 -0.7860 -0.449 0.054 0.892 32 25 14 0 0
-0.1080 0.1408 -0.7883 -0.236 0.524 0.818 70 55 37 0 0
-0.1085 0.1415 -0.7897 -0.613 0.512 0.602 82 68 47 0 0
-0.1159 0.1529 -0.8078 -0.593 0.686 0.422 60 44 20 0 0
-0.1179 0.1565 -0.8192 -0.449 0.505 0.737 195 179 130 0 0
-0.0028 -0.0440 -0.1477 -0.343 0.499 0.796 178 177 175 0 0
-0.0038 -0.0425 -0.1490 -0.343 0.499 0.796 158 151 137 0 0
-0.0055 -0.0402 -0.1502 -0.241 0.309 0.920 142 128 105 0 0
-0.0054 -0.0402 -0.1517 -0.492 0.239 0.837 141 124 103 0 0
-0.0138 -0.0280 -0.1604 -0.644 0.692 0.327 188 173 139 0 0
-0.0260 -0.0073 -0.2207 -0.485 0.837 0.254 111 96 68 0 0
-0.0324 0.0031 -0.2452 -0.900 0.287 -0.330 21 18 16 0 0
-0.0236 -0.0075 -0.2649 -0.626 0.778 0.040 9 6 4 0 0
-0.0253 -0.0052 -0.2659 -0.192 0.906 0.376 8 5 6 0 0
-0.0691 0.0598 -0.3378 -0.214 0.920 0.328 57 47 29 0 0
-0.0671 0.0617 -0.4066 -0.360 0.793 0.491 31 22 14 0 0
-0.0685 0.0668 -0.4552 -0.255 0.863 0.435 37 32 28 0 0
-0.1167 0.1336 -0.4639 -0.420 0.695 0.583 105 94 75 0 0
-0.1293 0.1533 -0.5008 -0.825 0.504 0.257 88 72 53 0 0
-0.1279 0.1544 -0.5444 -0.650 0.750 -0.123 156 137 94 0 0
-0.0868 0.1051 -0.6473 0.052 0.969 0.243 63 54 40 0 0
-0.1031 0.1275 -0.6500 -0.690 0.459 0.560 91 75 56 0 0
-0.1028 0.1273 -0.6521 -0.459 0.882 0.111 103 86 62 0 0
-0.1040 0.1290 -0.6526 -0.513 0.857 0.059 106 89 66 0 0
-0.1041 0.1293 -0.6544 -0.278 0.921 0.272 128 113 82 0 0
-0.1151 0.1446 -0.6585 -0.260 0.645 0.718 104 82 47 0 0
-0.1194 0.1524 -0.6872 -0.432 0.797 0.423 110 95 63 0 0
-0.1189 0.1519 -0.6897 -0.365 0.925 0.110 102 88 57 0 0
-0.1172 0.1503 -0.7014 -0.858 0.471 0.205 28 19 12 0 0
-0.1066 0.1417 -0.7883 -0.177 0.496 0.850 35 25 16 0 0
-0.1083 0.1442 -0.7899 -0.521 0.737 0.430 42 33 19 0 0
-0.1088 0.1449 -0.7914 -0.716 0.624 0.313 44 34 21 0 0
-0.1220 0.1667 -0.8462 -0.497 0.833 0.244 136 121 82 0 0
-0.1218 0.1667 -0.8485 -0.498 0.847 0.186 140 125 87 0 0
-0.1220 0.1670 -0.8503 -0.498 0.847 0.186 123 111 77 0 0
-0.0008 -0.0439 -0.1494 0.243 0.646 0.724 153 147 137 0 0
-0.0029 -0.0409 -0.1504 -0.023 0.456 0.890 135 122 100 0 0
-0.0033 -0.0404 -0.1519 0.136 0.708 0.693 127 112 87 0 0
-0.0127 -0.0269 -0.1603 -0.412 0.451 0.792 165 151 119 0 0
-0.0192 -0.0159 -0.1926 -0.473 0.781 0.407 132 115 86 0 0
-0.0195 -0.0153 -0.1941 -0.473 0.781 0.407 126 109 83 0 0
-0.0244 -0.0068 -0.2191 -0.754 0.548 0.361 84 70 45 0 0
-0.0247 -0.0063 -0.2206 -0.754 0.548 0.361 98 82 54 0 0
-0.0303 0.0031 -0.2470 -0.571 0.483 -0.663 9 8 5 0 0
-0.0250 -0.0039 -0.2508 -0.483 0.613 -0.626 9 6 5 0 0
-0.0242 -0.0038 -0.2673 -0.259 0.958 0.122 6 6 5 0 0
-0.0671 0.0604 -0.3478 -0.077 0.995 0.062 80 68 42 0 0
-0.0655 0.0637 -0.4288 -0.441 0.722 0.532 60 54 43 0 0
-0.0687 0.0707 -0.4679 -0.676 0.663 0.321 35 30 26 0 0
-0.1150 0.1338 -0.4642 -0.177 0.699 0.692 73 64 50 0 0
-0.1221 0.1498 -0.5558 -0.877 0.412 -0.247 107 92 61 0 0
-0.0840 0.1040 -0.6469 -0.310 0.201 0.929 65 56 42 0 0
-0.0854 0.1059 -0.6473 -0.410 0.468 0.783 79 70 54 0 0
-0.1015 0.1280 -0.6483 -0.690 0.459 0.560 94 80 55 0 0
-0.1130 0.1444 -0.6575 -0.502 0.606 0.617 132 112 77 0 0
-0.1184 0.1530 -0.6754 -0.444 0.864 0.237 95 77 42 0 0
-0.1180 0.1531 -0.6854 -0.481 0.877 -0.019 124 104 73 0 0
-0.1179 0.1531 -0.6874 -0.417 0.866 0.277 110 94 63 0 0
-0.1172 0.1523 -0.6902 -0.391 0.917 -0.078 104 90 61 0 0
-0.1168 0.1530 -0.7078 -0.576 0.649 0.497 111 100 76 0 0
-0.1174 0.1539 -0.7089 -0.447 0.633 0.632 105 93 67 0 0
-0.0948 0.1283 -0.7840 -0.524 0.435 0.733 70 55 39 0 0
-0.1076 0.1462 -0.7910 -0.502 0.746 0.437 37 28 24 0 0
-0.1079 0.1467 -0.7927 -0.731 0.439 0.522 31 24 20 0 0
-0.1189 0.1676 -0.8780 -0.750 0.538 0.384 187 185 186 0 0
-0.1216 0.1711 -0.8759 -0.678 0.733 -0.049 191 189 190 0 0
-0.0010 -0.0408 -0.1521 0.178 0.704 0.687 135 123 96 0 0
-0.0238 -0.0050 -0.2204 -0.699 0.701 0.139 84 67 38 0 0
-0.0298 0.0049 -0.2435 -0.639 0.726 0.254 46 36 25 0 0
-0.0292 0.0042 -0.2453 -0.453 0.880 0.144 23 20 15 0 0
-0.0237 -0.0029 -0.2507 -0.483 0.619 -0.619 10 6 4 0 0
-0.0258 0.0005 -0.2579 -0.567 0.670 0.479 16 11 8 0 0
-0.0230 -0.0028 -0.2656 -0.778 0.581 0.238 41 36 34 0 0
-0.0232 -0.0024 -0.2671 -0.761 0.613 0.212 14 11 10 0 0
-0.0668 0.0704 -0.4613 -0.698 0.590 0.407 47 40 33 0 0
-0.0674 0.0716 -0.4660 -0.504 0.767 0.397 33 28 24 0 0
-0.0678 0.0723 -0.4675 -0.753 0.560 0.346 39 34 30 0 0
-0.1114 0.1317 -0.4678 0.530 0.505 0.681 60 50 42 0 0
-0.1257 0.1516 -0.4737 -0.454 0.709 0.541 83 71 46 0 0
-0.1261 0.1523 -0.4750 -0.454 0.709 0.541 91 77 49 0 0
-0.1279 0.1550 -0.4800 -0.631 0.580 0.516 105 86 55 0 0
-0.1276 0.1561 -0.5017 -0.808 0.553 0.202 92 78 47 0 0
-0.0650 0.0803 -0.6370 -0.303 0.809 0.503 77 70 60 0 0
-0.0794 0.1001 -0.6409 -0.900 0.436 0.002 56 50 38 0 0
-0.0793 0.1001 -0.6429 -0.666 0.670 -0.328 55 48 38 0 0
-0.0827 0.1050 -0.6468 -0.465 0.135 0.875 74 65 48 0 0
-0.1005 0.1299 -0.6554 -0.533 0.774 0.342 157 138 100 0 0
-0.1163 0.1537 -0.6876 -0.211 0.856 0.471 102 86 59 0 0
-0.1156 0.1530 -0.6904 -0.322 0.944 -0.070 90 77 52 0 0
-0.1211 0.1625 -0.7217 -0.282 0.928 0.243 131 116 75 0 0
-0.1212 0.1630 -0.7254 -0.224 0.858 0.463 133 115 73 0 0
-0.1054 0.1467 -0.8003 -0.694 0.667 0.272 135 118 85 0 0
-0.1060 0.1476 -0.8015 -0.610 0.694 0.382 121 106 78 0 0
-0.1201 0.1716 -0.8697 -0.441 0.857 0.268 176 176 177 0 0
-0.1182 0.1694 -0.8769 -0.584 0.535 0.611 188 186 187 0 0
-0.1203 0.1722 -0.8757 -0.591 0.796 -0.128 192 190 191 0 0
-0.0004 -0.0387 -0.1534 -0.043 0.603 0.796 108 98 82 0 0
-0.0014 -0.0373 -0.1547 -0.128 0.645 0.754 105 95 85 0 0
-0.0250 -0.0008 -0.2179 -0.536 0.608 0.586 82 68 41 0 0
-0.0256 0.0002 -0.2192 -0.576 0.651 0.495 81 65 36 0 0
-0.0278 0.0049 -0.2453 -0.453 0.880 0.144 21 17 11 0 0
-0.0216 -0.0021 -0.2656 -0.645 0.651 0.401 40 32 28 0 0
-0.0219 -0.0016 -0.2671 -0.687 0.651 0.323 27 21 19 0 0
-0.0213 -0.0019 -0.2722 -0.896 0.263 0.357 11 9 7 0 0
-0.0596 0.0567 -0.3671 -0.516 0.824 0.235 62 52 40 0 0
-0.0632 0.0647 -0.4115 -0.498 0.854 0.152 61 49 35 0 0
-0.0667 0.0735 -0.4672 -0.753 0.560 0.346 28 22 20 0 0
-0.0771 0.0885 -0.4798 -0.529 0.721 0.448 57 47 38 0 0
-0.1265 0.1572 -0.5015 -0.719 0.681 0.140 94 81 54 0 0
-0.1290 0.1613 -0.5125 -0.611 0.788 0.073 120 102 69 0 0
-0.1290 0.1615 -0.5141 -0.653 0.750 0.105 119 102 69 0 0
-0.1258 0.1582 -0.5290 -0.341 0.918 0.203 133 118 80 0 0
-0.1259 0.1585 -0.5306 -0.341 0.918 0.203 129 111 76 0 0
-0.0640 0.0815 -0.6346 -0.233 0.960 0.152 75 68 58 0 0
-0.0813 0.1060 -0.6468 -0.172 0.440 0.882 80 72 54 0 0
-0.1145 0.1539 -0.6863 -0.295 0.955 0.027 110 94 64 0 0
-0.1146 0.1542 -0.6881 -0.243 0.895 0.375 111 95 69 0 0
-0.1086 0.1471 -0.7051 -0.305 0.952 -0.027 30 22 16 0 0
-0.0945 0.1331 -0.7765 -0.273 0.888 -0.369 27 18 8 0 0
-0.0924 0.1305 -0.7814 -0.559 0.626 0.543 26 16 9 0 0
-0.1092 0.1558 -0.8154 -0.584 0.808 0.073 91 77 48 0 0
-0.1169 0.1705 -0.8768 -0.506 0.481 0.716 188 186 187 0 0
0.0003 -0.0369 -0.1547 -0.043 0.603 0.796 109 100 89 0 0
-0.0115 -0.0202 -0.1640 -0.714 0.647 0.268 99 84 54 0 0
-0.0148 -0.0139 -0.1910 -0.610 0.597 0.522 167 152 123 0 0
-0.0215 -0.0033 -0.2108 -0.584 0.580 0.568 131 116 87 0 0
-0.0266 0.0059 -0.2436 -0.400 0.875 0.272 55 43 29 0 0
-0.0179 -0.0049 -0.2568 -0.655 0.747 0.112 19 15 11 0 0
-0.0180 -0.0047 -0.2584 -0.655 0.747 0.112 21 16 12 0 0
-0.0204 -0.0010 -0.2655 -0.645 0.651 0.401 55 47 40 0 0
-0.0207 -0.0004 -0.2669 -0.645 0.651 0.401 48 43 37 0 0
-0.0214 0.0012 -0.2748 -0.930 0.321 0.179 17 12 11 0 0
-0.0215 0.0013 -0.2764 -0.901 -0.027 0.433 20 16 15 0 0
-0.0621 0.0611 -0.3419 -0.139 0.976 0.166 58 47 33 0 0
-0.0579 0.0570 -0.3656 -0.798 0.464 0.385 59 48 40 0 0
-0.0582 0.0576 -0.3671 -0.516 0.824 0.235 68 58 46 0 0
-0.0622 0.0662 -0.4112 -0.069 0.969 0.235 60 48 32 0 0
-0.1279 0.1622 -0.5090 -0.520 0.833 0.190 110 96 63 0 0
-0.0784 0.1050 -0.6484 0.118 0.817 0.564 70 61 45 0 0
-0.0868 0.1162 -0.6469 -0.573 0.543 0.614 86 78 59 0 0
-0.0873 0.1171 -0.6481 -0.573 0.543 0.614 78 66 50 0 0
-0.1128 0.1543 -0.6867 -0.330 0.940 -0.080 116 100 69 0 0
-0.1126 0.1542 -0.6889 -0.330 0.940 -0.080 97 82 55 0 0
-0.1157 0.1602 -0.7136 -0.582 0.560 0.589 149 131 100 0 0
-0.1169 0.1621 -0.7178 -0.511 0.824 0.245 94 74 49 0 0
-0.1171 0.1625 -0.7195 -0.461 0.874 0.155 81 60 35 0 0
-0.0903 0.1306 -0.7822 -0.194 0.508 0.839 31 22 12 0 0
-0.1186 0.1751 -0.8677 -0.271 0.514 0.814 179 177 179 0 0
-0.1158 0.1719 -0.8762 -0.354 0.804 0.477 190 188 189 0 0
-0.0121 -0.0159 -0.1743 -0.692 0.612 0.384 186 172 138 0 0
-0.0124 -0.0155 -0.1758 -0.608 0.748 0.265 187 173 134 0 0
-0.0131 -0.0144 -0.1771 -0.634 0.733 0.245 121 104 73 0 0
-0.0209 -0.0013 -0.2136 -0.397 0.846 0.355 182 168 136 0 0
-0.0250 0.0064 -0.2437 -0.343 0.896 0.281 61 47 31 0 0
-0.0250 0.0067 -0.2469 -0.333 0.784 0.524 21 15 8 0 0
-0.0565 0.0576 -0.3640 -0.489 0.750 0.446 24 15 13 0 0
-0.0568 0.0584 -0.3671 -0.475 0.825 0.308 84 74 61 0 0
-0.0613 0.0675 -0.4092 -0.282 0.934 0.221 84 72 54 0 0
-0.0612 0.0676 -0.4126 -0.322 0.929 0.184 55 42 25 0 0
-0.0608 0.0671 -0.4146 -0.386 0.637 0.667 65 53 35 0 0
-0.0653 0.0775 -0.4731 -0.869 0.446 0.216 62 55 45 0 0
-0.1224 0.1557 -0.4880 -0.632 0.651 0.420 72 55 41 0 0
-0.1265 0.1619 -0.4975 -0.724 0.645 0.244 104 90 64 0 0
-0.1266 0.1622 -0.4990 -0.579 0.795 0.180 81 66 43 0 0
-0.1268 0.1625 -0.5006 -0.579 0.795 0.180 82 67 45 0 0
-0.1269 0.1628 -0.5021 -0.579 0.795 0.180 108 94 66 0 0
-0.1233 0.1597 -0.5273 -0.416 0.745 0.521 118 103 75 0 0
-0.0769 0.1058 -0.6485 0.050 0.743 0.667 64 55 40 0 0
-0.0855 0.1173 -0.6467 -0.577 0.686 0.443 86 77 60 0 0
-0.0862 0.1183 -0.6479 -0.658 0.430 0.618 95 84 68 0 0
-0.0891 0.1319 -0.7820 -0.340 0.636 0.693 51 42 29 0 0
-0.0968 0.1429 -0.7899 -0.400 0.449 0.799 68 56 38 0 0
-0.0114 -0.0142 -0.1756 -0.717 0.608 0.341 125 111 78 0 0
-0.0227 0.0061 -0.2440 -0.706 0.698 0.120 61 46 28 0 0
-0.0159 -0.0004 -0.2808 -0.654 0.642 -0.400 8 7 5 0 0
-0.0148 -0.0018 -0.2830 -0.671 0.641 -0.372 9 8 6 0 0
-0.0560 0.0599 -0.3667 -0.588 0.706 0.396 92 82 69 0 0
-0.0569 0.0613 -0.3695 -0.607 0.601 0.520 123 111 93 0 0
-0.0602 0.0689 -0.4124 -0.686 0.597 0.416 60 47 30 0 0
-0.0593 0.0685 -0.4249 -0.557 0.799 0.226 73 62 41 0 0
-0.0594 0.0691 -0.4299 -0.703 0.661 0.260 30 20 17 0 0
-0.1116 0.1426 -0.4732 -0.201 0.920 0.336 59 48 35 0 0
-0.1119 0.1431 -0.4746 -0.166 0.940 0.297 83 71 54 0 0
-0.1181 0.1514 -0.4742 0.111 0.668 0.736 93 81 63 0 0
-0.1188 0.1524 -0.4753 0.015 0.727 0.686 87 73 59 0 0
-0.0750 0.1061 -0.6490 0.050 0.743 0.667 64 55 41 0 0
-0.0955 0.1439 -0.7898 -0.242 0.442 0.864 42 32 23 0 0
-0.0963 0.1452 -0.7907 -0.242 0.442 0.864 61 49 38 0 0
-0.1032 0.1553 -0.8015 -0.261 0.649 0.715 76 64 36 0 0
-0.1040 0.1563 -0.8025 -0.504 0.828 0.246 64 51 28 0 0
0.0004 -0.0289 -0.1551 -0.407 0.005 0.913 158 148 129 0 0
-0.0042 -0.0224 -0.1586 -0.696 0.145 0.703 138 121 91 0 0
-0.0060 -0.0199 -0.1597 -0.516 0.546 0.660 105 89 61 0 0
-0.0080 -0.0172 -0.1607 -0.390 0.901 0.190 100 85 56 0 0
-0.0084 -0.0160 -0.1683 -0.597 0.737 0.316 97 81 54 0 0
-0.0089 -0.0153 -0.1697 -0.663 0.538 0.521 80 66 39 0 0
-0.0107 -0.0122 -0.1785 -0.775 0.591 0.223 102 80 45 0 0
-0.0146 0.0005 -0.2808 -0.461 0.766 -0.447 8 7 5 0 0
-0.0548 0.0608 -0.3650 -0.740 0.419 0.526 69 60 49 0 0
-0.0553 0.0615 -0.3663 -0.921 0.328 0.211 96 85 74 0 0
-0.1102 0.1433 -0.4733 -0.864 0.438 0.247 47 37 25 0 0
-0.1160 0.1511 -0.4750 0.023 0.571 0.821 92 82 69 0 0
-0.1161 0.1514 -0.4765 0.078 0.696 0.713 99 89 76 0 0
-0.0983 0.1411 -0.6614 -0.538 0.554 0.635 216 199 157 0 0
-0.1128 0.1653 -0.7255 -0.260 0.945 0.197 154 135 90 0 0
-0.1001 0.1541 -0.8038 -0.272 0.574 0.772 94 84 58 0 0
-0.1019 0.1566 -0.8054 -0.139 0.758 0.637 57 45 29 0 0
-0.1102 0.1709 -0.8490 -0.568 0.718 0.402 95 80 47 0 0
-0.0044 -0.0194 -0.1597 -0.286 0.626 0.725 107 94 69 0 0
-0.0066 -0.0163 -0.1622 -0.390 0.901 0.190 95 79 53 0 0
-0.0067 -0.0161 -0.1637 -0.390 0.901 0.190 87 72 44 0 0
-0.0064 -0.0164 -0.1653 -0.397 0.716 0.574 78 61 35 0 0
-0.0156 -0.0007 -0.2092 -0.432 0.785 0.444 148 133 102 0 0
-0.0536 0.0616 -0.3632 -0.681 0.612 0.403 67 58 49 0 0
-0.0540 0.0624 -0.3646 -0.755 0.306 0.580 84 76 63 0 0
-0.0547 0.0634 -0.3658 -0.971 0.154 0.184 99 90 77 0 0
-0.0593 0.0753 -0.4434 -0.626 0.653 0.426 37 28 19 0 0
-0.1139 0.1509 -0.4756 -0.057 0.484 0.873 86 76 64 0 0
-0.0545 0.0836 -0.6408 -0.503 0.747 -0.435 61 57 46 0 0
-0.0816 0.1204 -0.6483 -0.322 0.535 0.781 76 65 47 0 0
-0.0878 0.1292 -0.6528 -0.537 0.671 0.512 125 110 82 0 0
-0.0986 0.1549 -0.8040 -0.470 0.536 0.702 88 74 50 0 0
-0.0995 0.1562 -0.8048 -0.280 0.729 0.625 66 53 35 0 0
-0.1088 0.1719 -0.8490 -0.568 0.718 0.402 102 88 52 0 0
-0.1082 0.1726 -0.8686 -0.098 0.953 0.286 151 148 144 0 0
0.0020 -0.0258 -0.1548 -0.439 0.077 0.895 152 142 123 0 0
-0.0000 -0.0229 -0.1558 -0.531 0.070 0.844 168 152 125 0 0
-0.0031 -0.0186 -0.1581 -0.795 0.273 0.541 155 145 118 0 0
-0.0034 -0.0181 -0.1595 -0.672 0.461 0.579 131 117 88 0 0
-0.0088 -0.0095 -0.1782 -0.831 0.514 0.214 115 95 57 0 0
-0.0095 -0.0084 -0.1795 -0.736 0.586 0.338 124 105 63 0 0
-0.0118 0.0006 -0.2579 -0.662 0.691 -0.289 23 13 11 0 0
-0.0305 0.0294 -0.3096 -0.604 0.628 -0.491 178 178 181 0 0
-0.0298 0.0286 -0.3116 -0.559 0.694 -0.453 170 171 171 0 0
-0.0536 0.0645 -0.3657 -0.737 0.211 0.643 108 101 89 0 0
-0.0545 0.0658 -0.3668 -0.958 0.156 0.240 109 102 84 0 0
-0.0546 0.0680 -0.3932 -0.353 0.873 0.336 66 50 34 0 0
-0.0626 0.0805 -0.4180 -0.673 0.562 0.480 102 88 65 0 0
-0.0635 0.0818 -0.4190 -0.562 0.735 0.378 96 86 66 0 0
-0.0580 0.0763 -0.4433 -0.745 0.620 0.246 35 24 15 0 0
-0.0651 0.0882 -0.4759 -0.786 0.405 0.467 110 94 69 0 0
-0.0848 0.1277 -0.6508 -0.393 0.124 0.911 84 72 51 0 0
-0.0861 0.1295 -0.6513 -0.576 0.145 0.804 118 103 79 0 0
-0.0967 0.1551 -0.8026 -0.751 0.656 0.072 100 85 56 0 0
-0.0973 0.1560 -0.8038 -0.436 0.675 0.596 80 66 40 0 0
0.0076 -0.0307 -0.1511 -0.612 -0.013 0.791 178 178 178 0 0
0.0007 -0.0212 -0.1556 -0.291 0.540 0.790 143 129 102 0 0
-0.0015 -0.0181 -0.1581 -0.374 0.671 0.640 162 144 112 0 0
-0.0021 -0.0172 -0.1595 -0.374 0.671 0.640 148 131 97 0 0
-0.0033 -0.0154 -0.1623 -0.502 0.687 0.526 122 106 74 0 0
-0.0045 -0.0136 -0.1650 -0.644 0.635 0.426 93 78 50 0 0
-0.0180 0.0105 -0.2436 -0.401 0.915 -0.043 52 40 26 0 0
-0.0111 0.0022 -0.2576 -0.838 0.534 -0.117 20 13 9 0 0
-0.0104 0.0015 -0.2595 -0.546 0.838 -0.031 21 15 12 0 0
-0.0125 0.0045 -0.2635 -0.380 0.826 0.417 32 22 18 0 0
-0.0082 0.0009 -0.2916 -0.514 0.723 0.461 4 3 1 0 0
-0.0534 0.0691 -0.3948 -0.581 0.706 0.405 55 37 22 0 0
-0.0623 0.0828 -0.4190 -0.591 0.766 0.255 91 79 61 0 0
-0.0566 0.0771 -0.4433 -0.612 0.412 0.675 37 25 16 0 0
-0.0642 0.0896 -0.4755 -0.628 0.531 0.569 137 121 95 0 0
-0.0444 0.0756 -0.6365 -0.115 0.532 0.839 68 62 51 0 0
-0.0867 0.1331 -0.6509 -0.672 0.485 0.560 94 79 58 0 0
-0.0866 0.1330 -0.6529 -0.315 0.948 0.056 128 113 91 0 0
-0.0939 0.1431 -0.6579 -0.779 0.328 0.535 182 166 124 0 0
-0.0995 0.1674 -0.8775 -0.071 0.843 0.533 165 162 162 0 0
-0.0984 0.1662 -0.8813 -0.235 0.760 0.606 176 173 176 0 0
-0.0012 -0.0158 -0.1593 -0.238 0.831 0.502 148 130 94 0 0
-0.0019 -0.0148 -0.1607 -0.087 0.838 0.538 139 123 87 0 0
-0.0071 -0.0068 -0.1747 -0.494 0.806 0.326 91 78 52 0 0
-0.0073 -0.0064 -0.1762 -0.494 0.806 0.326 90 77 55 0 0
-0.0109 0.0006 -0.2046 -0.667 0.660 0.345 120 106 78 0 0
-0.0149 0.0091 -0.2458 -0.514 0.837 -0.186 44 35 25 0 0
-0.0112 0.0055 -0.2634 -0.474 0.860 0.188 25 17 14 0 0
-0.0609 0.0836 -0.4189 -0.706 0.693 0.149 80 68 48 0 0
-0.1103 0.1547 -0.4903 -0.059 0.799 -0.599 95 87 66 0 0
-0.0435 0.0773 -0.6379 -0.208 0.753 0.625 54 47 37 0 0
-0.0850 0.1335 -0.6513 -0.330 0.404 0.853 91 78 60 0 0
-0.0855 0.1343 -0.6526 -0.511 0.718 0.473 92 81 63 0 0
-0.0860 0.1350 -0.6540 -0.360 0.780 0.512 106 93 71 0 0
-0.0950 0.1473 -0.6569 -0.500 0.337 0.798 207 193 153 0 0
-0.0958 0.1603 -0.8121 -0.589 0.737 0.331 60 50 31 0 0
-0.0980 0.1681 -0.8754 -0.120 0.959 0.255 155 154 151 0 0
0.0059 -0.0230 -0.1530 -0.156 0.708 0.689 122 113 97 0 0
-0.0017 -0.0120 -0.1650 -0.400 0.704 0.587 125 108 79 0 0
-0.0024 -0.0109 -0.1663 -0.349 0.643 0.681 148 132 100 0 0
-0.0065 -0.0037 -0.1915 -0.679 0.446 0.584 117 102 74 0 0
-0.0091 0.0005 -0.2000 -0.281 0.696 0.660 81 63 31 0 0
-0.0093 0.0009 -0.2015 -0.496 0.763 0.414 94 76 46 0 0
-0.0097 0.0016 -0.2029 -0.479 0.743 0.468 114 93 63 0 0
-0.0170 0.0136 -0.2333 -0.560 0.775 0.293 98 82 56 0 0
-0.0090 0.0050 -0.2588 -0.626 0.776 -0.079 17 12 8 0 0
-0.0099 0.0080 -0.2829 -0.547 0.746 -0.379 6 5 4 0 0
-0.0051 0.0029 -0.2983 -0.379 0.482 0.790 2 2 2 0 0
-0.0057 0.0037 -0.2997 -0.530 0.366 0.765 3 3 3 0 0
-0.0066 0.0050 -0.3009 -0.524 0.423 0.739 3 3 3 0 0
-0.0074 0.0062 -0.3022 -0.524 0.423 0.739 5 5 5 0 0
-0.0036 0.0018 -0.3090 -0.894 0.259 -0.365 8 7 8 0 0
-0.0267 0.0343 -0.3340 0.604 0.680 0.416 88 86 87 0 0
-0.0344 0.0468 -0.3647 0.555 0.739 0.383 69 62 51 0 0
-0.0527 0.0714 -0.3670 -0.607 0.792 0.068 212 200 168 0 0
-0.0550 0.0752 -0.3771 -0.606 0.781 -0.150 84 70 51 0 0
-0.0598 0.0847 -0.4188 -0.695 0.712 0.105 76 63 43 0 0
-0.0650 0.0966 -0.4831 -0.759 0.438 0.482 95 77 53 0 0
-0.0421 0.0783 -0.6378 -0.690 0.612 0.387 62 55 45 0 0
-0.0814 0.1316 -0.6537 0.169 0.879 0.446 95 83 67 0 0
-0.0945 0.1508 -0.6766 -0.342 0.733 0.588 98 81 56 0 0
-0.0908 0.1489 -0.7155 -0.592 0.721 0.360 89 79 59 0 0
-0.0872 0.1505 -0.7975 -0.206 0.692 0.692 94 80 56 0 0
-0.0954 0.1675 -0.8751 -0.002 0.840 0.543 144 141 137 0 0
-0.0035 -0.0060 -0.1780 -0.657 0.694 0.294 172 156 116 0 0
-0.0039 -0.0052 -0.1809 -0.657 0.694 0.294 196 183 144 0 0
-0.0043 -0.0044 -0.1839 -0.725 0.633 0.271 142 129 96 0 0
-0.0060 -0.0015 -0.1927 -0.427 0.584 0.691 76 63 38 0 0
-0.0073 0.0003 -0.1939 -0.455 0.680 0.575 73 59 33 0 0
-0.0115 0.0080 -0.2222 -0.579 0.696 0.425 60 44 28 0 0
-0.0060 0.0062 -0.2906 -0.640 0.743 -0.194 18 17 15 0 0
-0.0046 0.0050 -0.2995 -0.530 0.366 0.765 22 22 22 0 0
-0.0057 0.0065 -0.3007 -0.332 0.428 0.841 16 16 16 0 0
-0.0067 0.0080 -0.3018 -0.332 0.428 0.841 4 4 4 0 0
-0.0033 0.0040 -0.3085 -0.867 0.362 -0.343 9 8 8 0 0
-0.0323 0.0470 -0.3667 0.103 0.298 0.949 123 116 113 0 0
-0.0360 0.0520 -0.3679 0.164 0.287 0.944 103 96 87 0 0
-0.0530 0.0806 -0.4463 -0.555 0.530 0.641 109 97 80 0 0
-0.0638 0.0974 -0.4795 -0.640 0.530 0.556 122 106 81 0 0
-0.0640 0.0983 -0.4862 -0.838 0.405 0.365 86 69 42 0 0
-0.0795 0.1321 -0.6562 0.035 0.941 0.337 59 44 35 0 0
-0.0931 0.1516 -0.6767 -0.424 0.561 0.711 124 111 83 0 0
-0.0758 0.1374 -0.7863 -0.471 0.442 0.763 59 47 30 0 0
-0.0766 0.1385 -0.7874 -0.535 0.507 0.676 64 52 33 0 0
-0.0769 0.1391 -0.7890 -0.626 0.583 0.519 70 57 37 0 0
0.0092 -0.0220 -0.1546 -0.048 0.997 0.064 124 116 104 0 0
-0.0091 0.0068 -0.2131 -0.525 0.845 0.100 129 110 76 0 0
-0.0084 0.0092 -0.2547 -0.625 0.754 0.204 27 17 12 0 0
-0.0085 0.0095 -0.2563 -0.625 0.754 0.204 31 22 16 0 0
-0.0038 0.0066 -0.2992 -0.821 0.252 0.512 58 54 51 0 0
-0.0044 0.0076 -0.3006 -0.283 0.307 0.908 92 89 86 0 0
-0.0053 0.0089 -0.3018 -0.396 0.457 0.797 22 21 17 0 0
-0.0054 0.0092 -0.3034 -0.568 0.527 0.632 13 12 9 0 0
-0.0026 0.0056 -0.3064 -0.740 0.480 -0.471 8 7 6 0 0
-0.0323 0.0496 -0.3659 -0.020 0.125 0.992 178 179 179 0 0
-0.0344 0.0524 -0.3663 -0.007 0.133 0.991 167 170 169 0 0
-0.0358 0.0543 -0.3672 -0.243 0.059 0.968 146 146 141 0 0
-0.0789 0.1341 -0.6572 0.142 0.475 0.868 63 51 36 0 0
-0.0798 0.1356 -0.6599 -0.039 0.930 0.366 123 108 74 0 0
-0.0812 0.1374 -0.6603 0.069 0.777 0.626 135 119 77 0 0
-0.0906 0.1500 -0.6629 -0.476 0.670 0.570 126 111 80 0 0
-0.0741 0.1381 -0.7866 -0.286 0.625 0.727 69 57 35 0 0
-0.0749 0.1392 -0.7877 -0.363 0.735 0.573 70 58 35 0 0
-0.0754 0.1400 -0.7890 -0.363 0.735 0.573 73 59 36 0 0
-0.0876 0.1572 -0.8033 -0.328 0.829 0.453 64 53 38 0 0
-0.0037 0.0001 -0.1848 -0.625 0.727 0.285 125 108 75 0 0
-0.0068 0.0060 -0.2087 -0.404 0.770 0.494 83 67 36 0 0
-0.0030 0.0083 -0.2989 -0.847 0.171 0.503 27 23 21 0 0
-0.0031 0.0086 -0.3005 -0.311 0.334 0.890 81 78 76 0 0
-0.0044 0.0103 -0.3016 -0.311 0.334 0.890 60 59 56 0 0
-0.0043 0.0103 -0.3033 -0.410 0.554 0.725 14 13 11 0 0
-0.0026 0.0085 -0.3074 -0.879 0.347 -0.326 8 6 7 0 0
-0.0348 0.0556 -0.3669 -0.259 0.206 0.943 176 178 176 0 0
-0.0512 0.0780 -0.3769 -0.572 0.821 0.008 57 44 28 0 0
-0.0646 0.1046 -0.4887 -0.428 0.708 0.562 102 84 55 0 0
-0.0643 0.1044 -0.4925 -0.657 0.516 0.550 82 64 39 0 0
-0.0164 0.0543 -0.6533 0.595 0.553 0.583 78 75 70 0 0
-0.0772 0.1349 -0.6613 0.081 0.977 0.197 121 105 82 0 0
-0.0886 0.1502 -0.6635 -0.648 0.720 0.246 98 82 56 0 0
-0.0884 0.1506 -0.6732 -0.679 0.631 0.377 102 87 60 0 0
-0.0894 0.1522 -0.6758 -0.462 0.751 0.471 108 94 69 0 0
-0.0894 0.1523 -0.6778 -0.290 0.905 0.312 108 93 71 0 0
-0.0945 0.1633 -0.7309 0.256 0.964 0.079 134 120 92 0 0
-0.0893 0.1645 -0.8318 0.059 0.980 0.192 121 105 64 0 0
-0.0903 0.1696 -0.8783 -0.399 0.917 -0.010 172 170 175 0 0
-0.0058 0.0076 -0.2117 -0.425 0.824 0.375 82 67 36 0 0
-0.0062 0.0082 -0.2131 -0.428 0.838 0.339 82 68 37 0 0
-0.0075 0.0104 -0.2190 -0.609 0.757 0.237 94 79 57 0 0
-0.0096 0.0150 -0.2419 -0.639 0.740 0.207 34 25 14 0 0
-0.0031 0.0083 -0.2637 -0.504 0.861 0.059 33 24 15 0 0
-0.0024 0.0102 -0.2985 -0.847 0.171 0.503 9 7 6 0 0
-0.0029 0.0110 -0.2999 -0.807 0.252 0.535 25 24 23 0 0
-0.0026 0.0107 -0.3017 -0.703 0.436 0.562 23 23 22 0 0
-0.0029 0.0112 -0.3032 -0.410 0.554 0.725 11 10 8 0 0
-0.0022 0.0106 -0.3069 -0.936 0.336 -0.101 9 7 8 0 0
-0.0014 0.0099 -0.3106 -0.857 0.489 -0.160 25 21 20 0 0
-0.0241 0.0438 -0.3623 -0.712 0.696 -0.095 179 182 185 0 0
-0.0599 0.1139 -0.6481 0.001 0.802 0.597 91 83 61 0 0
-0.0878 0.1527 -0.6761 -0.348 0.861 0.371 119 105 78 0 0
-0.0931 0.1639 -0.7270 0.087 0.989 -0.119 116 103 79 0 0
-0.0638 0.1301 -0.7860 0.040 0.738 0.673 70 58 44 0 0
-0.0878 0.1657 -0.8360 -0.140 0.949 0.281 111 98 62 0 0
-0.0007 0.0028 -0.2019 -0.325 0.862 0.389 58 38 18 0 0
-0.0047 0.0089 -0.2131 -0.478 0.713 0.513 78 64 36 0 0
-0.0081 0.0157 -0.2419 -0.778 0.623 0.079 41 32 22 0 0
-0.0018 0.0089 -0.2604 -0.504 0.861 0.059 29 21 13 0 0
-0.0031 0.0133 -0.2925 -0.498 0.685 0.532 19 18 15 0 0
-0.0015 0.0125 -0.3082 -0.871 0.373 -0.320 8 7 6 0 0
-0.0011 0.0122 -0.3100 -0.875 0.358 0.327 8 6 4 0 0
-0.0008 0.0118 -0.3119 -0.943 0.298 -0.149 33 30 32 0 0
-0.0341 0.0599 -0.3674 -0.027 0.459 0.888 166 166 167 0 0
-0.0524 0.0891 -0.4309 -0.585 0.788 0.191 74 58 42 0 0
-0.0509 0.1050 -0.6484 0.256 0.422 0.870 57 49 42 0 0
-0.0733 0.1355 -0.6645 0.283 0.948 0.146 116 101 76 0 0
-0.0870 0.1580 -0.7192 -0.233 0.495 0.837 110 94 67 0 0
-0.0628 0.1319 -0.7874 -0.312 0.715 0.625 84 74 52 0 0
-0.0634 0.1328 -0.7887 -0.248 0.895 0.372 94 83 57 0 0
-0.0639 0.1335 -0.7902 -0.089 0.980 0.180 105 92 67 0 0
-0.0708 0.1428 -0.7935 -0.352 0.660 0.664 78 63 37 0 0
-0.0840 0.1632 -0.8311 -0.167 0.805 0.569 133 120 83 0 0
-0.0845 0.1640 -0.8324 -0.167 0.805 0.569 128 115 80 0 0
-0.0855 0.1655 -0.8352 -0.174 0.812 0.558 115 103 71 0 0
-0.0893 0.1736 -0.8734 -0.264 0.958 0.113 171 169 173 0 0
0.0013 0.0022 -0.1958 -0.489 0.781 0.388 84 67 43 0 0
-0.0031 0.0106 -0.2274 -0.803 0.348 0.484 48 34 22 0 0
-0.0052 0.0161 -0.2617 -0.728 0.643 0.238 81 73 61 0 0
-0.0021 0.0146 -0.2923 -0.384 0.875 0.294 26 25 21 0 0
-0.0030 0.0162 -0.2969 -0.388 0.779 0.493 18 17 14 0 0
-0.0013 0.0148 -0.3059 -0.490 0.662 -0.568 14 13 11 0 0
-0.0006 0.0140 -0.3079 -0.932 0.277 -0.232 8 7 5 0 0
-0.0001 0.0135 -0.3098 -0.973 0.183 0.144 9 8 6 0 0
0.0007 0.0128 -0.3136 -0.933 0.145 -0.329 51 49 52 0 0
-0.0475 0.0802 -0.3684 -0.263 0.712 0.651 143 125 92 0 0
-0.0504 0.0870 -0.4045 -0.723 0.598 0.346 69 54 34 0 0
-0.0507 0.0875 -0.4060 -0.723 0.598 0.346 70 55 36 0 0
-0.0526 0.0940 -0.4553 -0.728 0.479 0.491 79 69 56 0 0
-0.0597 0.1052 -0.4773 -0.532 0.694 0.485 126 111 82 0 0
-0.0627 0.1091 -0.4783 -0.718 0.529 0.452 104 85 55 0 0
-0.0613 0.1086 -0.4950 -0.308 0.825 0.474 74 57 41 0 0
-0.0215 0.0698 -0.6536 0.471 0.240 0.849 54 50 45 0 0
-0.0252 0.0747 -0.6538 0.379 0.859 0.343 52 48 42 0 0
-0.0690 0.1325 -0.6619 -0.363 0.873 0.325 110 97 78 0 0
-0.0705 0.1348 -0.6659 0.137 0.981 0.137 103 91 70 0 0
-0.0754 0.1448 -0.7103 0.301 0.433 0.850 87 78 55 0 0
-0.0800 0.1508 -0.7106 -0.252 0.230 0.940 98 87 64 0 0
-0.0881 0.1623 -0.7200 -0.248 0.857 0.451 119 103 73 0 0
-0.0615 0.1332 -0.7892 -0.150 0.813 0.562 111 101 75 0 0
-0.0624 0.1344 -0.7902 -0.124 0.911 0.394 91 78 56 0 0
-0.0839 0.1656 -0.8271 -0.125 0.885 0.448 118 103 72 0 0
-0.0831 0.1653 -0.8365 -0.388 0.569 0.725 183 170 130 0 0
0.0208 -0.0235 -0.1603 0.297 0.812 0.502 178 177 176 0 0
0.0001 0.0156 -0.3059 -0.595 0.656 -0.465 16 15 13 0 0
-0.0002 0.0162 -0.3074 -0.859 0.417 -0.298 8 7 5 0 0
0.0006 0.0153 -0.3095 -0.934 0.242 0.264 9 8 6 0 0
0.0045 0.0110 -0.3180 -0.773 0.158 -0.615 177 177 180 0 0
-0.0431 0.0769 -0.3670 -0.001 0.386 0.923 119 104 84 0 0
-0.0492 0.0880 -0.4044 -0.547 0.717 0.433 74 59 39 0 0
-0.0495 0.0885 -0.4059 -0.422 0.685 0.594 75 60 40 0 0
-0.0194 0.0701 -0.6541 0.477 0.188 0.858 30 27 23 0 0
-0.0238 0.0757 -0.6537 0.304 0.634 0.711 59 56 51 0 0
-0.0845 0.1602 -0.7189 -0.497 0.608 0.619 132 118 90 0 0
-0.0597 0.1337 -0.7897 -0.369 0.761 0.534 108 97 76 0 0
-0.0604 0.1348 -0.7908 -0.245 0.897 0.369 78 65 46 0 0
-0.0814 0.1648 -0.8246 -0.056 0.970 0.237 125 111 76 0 0
0.0034 0.0048 -0.1971 -0.595 0.785 0.174 122 107 77 0 0
0.0020 0.0073 -0.2045 -0.555 0.474 0.683 118 103 75 0 0
-0.0007 0.0116 -0.2130 -0.354 0.800 0.485 147 130 95 0 0
-0.0040 0.0176 -0.2339 -0.664 0.669 0.333 87 72 45 0 0
-0.0038 0.0175 -0.2355 -0.714 0.633 0.299 138 124 93 0 0
-0.0028 0.0184 -0.2631 -0.314 0.773 0.551 77 68 54 0 0
-0.0045 0.0208 -0.2640 -0.726 0.238 0.645 109 100 83 0 0
-0.0053 0.0224 -0.2717 -0.966 0.177 0.190 26 19 13 0 0
0.0004 0.0182 -0.3087 -0.807 0.339 0.484 10 9 7 0 0
0.0010 0.0175 -0.3106 -0.965 0.231 0.127 11 9 10 0 0
-0.0458 0.0855 -0.3958 -0.253 0.834 0.491 62 49 31 0 0
-0.0232 0.0779 -0.6547 0.438 0.335 0.834 53 49 46 0 0
-0.0568 0.1325 -0.7853 -0.670 0.346 0.657 30 21 16 0 0
-0.0582 0.1348 -0.7918 -0.244 0.756 0.607 118 106 85 0 0
-0.0775 0.1627 -0.8259 -0.567 0.783 0.257 130 116 82 0 0
-0.0774 0.1628 -0.8280 -0.667 0.496 0.556 131 117 84 0 0
-0.0784 0.1642 -0.8287 -0.488 0.449 0.749 122 107 76 0 0
-0.0795 0.1661 -0.8355 -0.247 0.784 0.569 196 181 139 0 0
-0.0804 0.1673 -0.8363 -0.380 0.480 0.791 196 181 141 0 0
-0.0006 0.0147 -0.2220 -0.405 0.824 0.396 144 128 92 0 0
-0.0049 0.0220 -0.2425 -0.589 0.802 0.099 65 50 29 0 0
-0.0045 0.0228 -0.2570 -0.808 0.481 0.342 20 14 8 0 0
-0.0044 0.0239 -0.2715 -0.934 0.353 0.050 34 24 15 0 0
0.0014 0.0196 -0.3084 -0.837 0.506 0.208 9 8 6 0 0
0.0015 0.0195 -0.3102 -0.882 0.380 0.279 7 5 7 0 0
0.0016 0.0197 -0.3135 -0.954 0.255 -0.157 31 29 34 0 0
-0.0463 0.0904 -0.4162 -0.321 0.943 0.085 67 53 35 0 0
-0.0204 0.0773 -0.6561 0.502 0.398 0.768 51 49 47 0 0
-0.0741 0.1515 -0.7126 0.046 0.560 0.827 103 87 64 0 0
-0.0574 0.1364 -0.7890 -0.428 0.593 0.682 70 59 40 0 0
-0.0568 0.1361 -0.7938 -0.685 0.728 0.037 85 70 49 0 0
-0.0759 0.1633 -0.8240 -0.438 0.894 0.094 140 124 90 0 0
-0.0763 0.1642 -0.8275 -0.763 0.433 0.480 95 85 55 0 0
-0.0768 0.1649 -0.8289 -0.689 0.468 0.552 106 94 65 0 0
-0.0035 0.0241 -0.2568 -0.808 0.369 0.460 22 15 8 0 0
-0.0045 0.0255 -0.2580 -0.757 0.620 0.209 26 19 11 0 0
-0.0447 0.0910 -0.4163 -0.321 0.943 0.085 65 51 33 0 0
-0.0462 0.0962 -0.4560 0.063 0.883 0.466 81 69 46 0 0
-0.0482 0.0995 -0.4630 -0.198 0.906 0.374 118 101 82 0 0
-0.0466 0.1148 -0.6666 -0.518 0.777 0.357 93 82 59 0 0
-0.0484 0.1171 -0.6666 0.098 0.718 0.689 101 90 70 0 0
-0.0643 0.1416 -0.7128 0.178 0.455 0.873 101 88 68 0 0
-0.0656 0.1433 -0.7132 0.182 0.536 0.824 93 80 59 0 0
-0.0723 0.1520 -0.7131 0.099 0.576 0.812 111 95 72 0 0
-0.0563 0.1384 -0.7945 -0.148 0.854 0.499 75 60 38 0 0
-0.0743 0.1641 -0.8242 -0.438 0.894 0.094 93 78 50 0 0
-0.0747 0.1648 -0.8257 -0.632 0.711 0.309 83 69 42 0 0
0.0022 0.0161 -0.2188 -0.366 0.866 0.340 186 166 130 0 0
-0.0019 0.0231 -0.2394 -0.566 0.758 0.325 70 54 33 0 0
-0.0020 0.0234 -0.2409 -0.703 0.609 0.367 75 59 36 0 0
-0.0032 0.0265 -0.2579 -0.860 0.509 0.035 25 18 10 0 0
-0.0031 0.0270 -0.2660 -0.575 0.637 0.513 112 100 82 0 0
-0.0032 0.0277 -0.2724 -0.702 0.618 0.354 50 42 30 0 0
-0.0699 0.1518 -0.7142 0.210 0.565 0.798 130 113 88 0 0
-0.0547 0.1391 -0.7948 -0.038 0.759 0.650 75 60 40 0 0
0.0155 -0.0016 -0.1818 0.101 0.934 0.343 138 123 89 0 0
0.0154 -0.0002 -0.1958 -0.669 0.726 0.160 122 106 79 0 0
0.0153 -0.0000 -0.1974 -0.682 0.730 -0.050 123 107 79 0 0
0.0148 0.0008 -0.1988 -0.553 0.747 0.369 123 108 80 0 0
0.0145 0.0013 -0.2003 -0.553 0.747 0.369 134 119 91 0 0
-0.0044 0.0299 -0.2505 -0.116 0.747 0.655 79 67 41 0 0
-0.0018 0.0285 -0.2724 -0.604 0.753 0.261 48 39 29 0 0
-0.0016 0.0283 -0.2741 -0.772 0.633 -0.051 23 15 10 0 0
-0.0018 0.0288 -0.2756 -0.667 0.727 -0.162 24 15 9 0 0
-0.0013 0.0289 -0.2839 -0.802 0.509 0.313 26 22 19 0 0
-0.0500 0.1085 -0.4802 -0.281 0.852 0.441 89 75 51 0 0
-0.0598 0.1414 -0.7127 -0.059 0.389 0.920 90 78 57 0 0
-0.0623 0.1446 -0.7138 0.041 0.460 0.887 83 70 52 0 0
-0.0638 0.1552 -0.8118 -0.649 0.451 0.613 117 101 74 0 0
-0.0683 0.1620 -0.8243 -0.136 0.741 0.657 95 80 53 0 0
-0.0688 0.1628 -0.8257 -0.165 0.787 0.595 90 76 48 0 0
-0.0020 0.0296 -0.2525 -0.364 0.930 -0.052 72 60 37 0 0
-0.0012 0.0303 -0.2720 -0.484 0.518 0.705 51 41 32 0 0
-0.0007 0.0302 -0.2787 -0.641 0.694 0.328 101 92 77 0 0
-0.0010 0.0307 -0.2802 -0.653 0.626 0.427 103 94 80 0 0
-0.0012 0.0313 -0.2833 -0.592 0.445 0.672 25 20 17 0 0
0.0028 0.0283 -0.3080 -0.983 0.139 0.121 28 27 25 0 0
0.0041 0.0273 -0.3153 -0.899 0.330 -0.287 23 20 19 0 0
-0.0320 0.0828 -0.4204 -0.210 0.938 0.275 71 58 41 0 0
-0.0587 0.1270 -0.5345 -0.417 0.882 0.219 92 80 57 0 0
-0.0585 0.1426 -0.7145 -0.142 0.447 0.883 90 79 59 0 0
-0.0598 0.1443 -0.7150 -0.091 0.483 0.871 90 79 59 0 0
-0.0670 0.1632 -0.8241 -0.184 0.933 0.308 94 80 53 0 0
-0.0673 0.1637 -0.8258 -0.202 0.939 0.276 92 77 51 0 0
0.0045 0.0251 -0.2673 -0.716 0.690 0.110 127 110 81 0 0
-0.0007 0.0327 -0.2781 -0.701 0.605 0.377 86 75 61 0 0
-0.0010 0.0333 -0.2795 -0.701 0.605 0.377 81 71 57 0 0
-0.0013 0.0338 -0.2810 -0.746 0.552 0.371 51 42 33 0 0
-0.0010 0.0336 -0.2828 -0.432 0.632 0.643 24 17 14 0 0
0.0031 0.0307 -0.3091 -0.927 0.347 -0.140 26 24 21 0 0
0.0053 0.0285 -0.3168 -0.928 0.148 -0.341 32 28 28 0 0
-0.0302 0.0785 -0.3689 0.337 0.640 0.690 104 93 76 0 0
-0.0511 0.1187 -0.5205 -0.221 0.781 0.584 86 72 47 0 0
0.0053 0.0586 -0.6541 -0.839 -0.083 0.538 11 8 6 0 0
0.0049 0.0592 -0.6558 -0.562 0.038 0.826 9 8 6 0 0
0.0050 0.0592 -0.6579 -0.389 0.371 0.843 8 7 5 0 0
-0.0174 0.0887 -0.6674 0.635 0.447 0.631 12 10 8 0 0
-0.0461 0.1367 -0.7960 -0.307 0.919 0.246 106 95 70 0 0
-0.0671 0.1677 -0.8427 -0.618 0.644 0.450 149 134 94 0 0
0.0288 -0.0116 -0.1732 0.378 0.774 0.508 178 177 177 0 0
0.0011 0.0285 -0.2257 -0.318 0.785 0.532 143 129 87 0 0
0.0012 0.0299 -0.2447 -0.631 0.688 0.359 62 45 26 0 0
0.0010 0.0310 -0.2525 -0.156 0.927 0.341 74 59 35 0 0
0.0008 0.0313 -0.2540 -0.203 0.884 0.421 67 52 34 0 0
0.0064 0.0252 -0.2643 -0.605 0.779 0.167 107 91 68 0 0
0.0008 0.0335 -0.2781 -0.717 0.480 0.505 79 67 53 0 0
0.0036 0.0326 -0.3087 -0.966 0.257 0.032 41 38 34 0 0
-0.0276 0.0779 -0.3696 0.337 0.640 0.690 100 89 73 0 0
0.0044 0.0621 -0.6499 0.080 0.866 0.493 12 8 7 0 0
-0.0545 0.1429 -0.7139 -0.283 0.548 0.787 109 98 78 0 0
-0.0576 0.1471 -0.7162 -0.128 0.343 0.931 96 85 66 0 0
-0.0448 0.1379 -0.7958 -0.514 0.831 0.214 90 78 55 0 0
-0.0633 0.1654 -0.8397 -0.196 0.940 0.280 152 134 95 0 0
-0.0633 0.1656 -0.8418 -0.230 0.945 0.232 155 137 98 0 0
0.0272 -0.0038 -0.2071 -0.121 0.811 0.573 104 94 75 0 0
0.0024 0.0308 -0.2430 -0.447 0.631 0.634 57 42 22 0 0
0.0013 0.0325 -0.2457 -0.566 0.548 0.616 46 29 15 0 0
0.0009 0.0331 -0.2472 -0.622 0.642 0.448 60 46 29 0 0
0.0018 0.0325 -0.2522 -0.608 0.787 -0.105 77 64 39 0 0
0.0018 0.0348 -0.2779 -0.641 0.424 0.639 104 96 80 0 0
0.0006 0.0368 -0.2822 -0.846 0.205 0.493 30 22 18 0 0
0.0044 0.0333 -0.2985 -0.768 0.572 0.286 18 14 13 0 0
0.0041 0.0342 -0.3033 -0.846 0.530 0.051 25 21 18 0 0
0.0043 0.0343 -0.3067 -0.794 0.551 0.256 29 26 21 0 0
-0.0100 0.0850 -0.6679 0.487 0.736 0.471 9 8 6 0 0
-0.0108 0.0861 -0.6691 0.486 0.789 0.376 9 8 6 0 0
-0.0595 0.1665 -0.8744 0.119 0.972 0.201 151 151 149 0 0
-0.0716 0.1807 -0.8614 0.285 0.528 0.800 167 167 164 0 0
0.0287 -0.0032 -0.2072 -0.431 0.778 0.458 122 115 101 0 0
0.0033 0.0325 -0.2460 -0.669 0.484 0.564 46 30 14 0 0
0.0031 0.0334 -0.2522 -0.681 0.728 0.075 81 69 45 0 0
0.0029 0.0338 -0.2537 -0.910 0.210 0.357 75 63 40 0 0
0.0044 0.0320 -0.2559 -0.423 0.726 0.542 60 47 29 0 0
0.0093 0.0265 -0.2627 -0.618 0.694 0.369 68 53 31 0 0
0.0088 0.0275 -0.2657 -0.491 0.733 0.470 119 103 70 0 0
0.0084 0.0281 -0.2671 -0.491 0.733 0.470 141 126 88 0 0
0.0079 0.0288 -0.2686 -0.491 0.733 0.470 125 110 79 0 0
0.0050 0.0359 -0.3063 -0.853 0.519 0.062 24 20 16 0 0
0.0050 0.0361 -0.3080 -0.853 0.519 0.062 36 33 29 0 0
0.0061 0.0349 -0.3101 -0.835 0.522 -0.174 45 40 38 0 0
0.0062 0.0349 -0.3118 -0.882 0.468 -0.057 28 24 22 0 0
-0.0231 0.0835 -0.4380 0.030 0.999 0.023 74 64 47 0 0
-0.0228 0.0848 -0.4572 0.089 0.977 0.194 71 64 55 0 0
-0.0614 0.1692 -0.8467 -0.542 0.840 0.029 144 129 89 0 0
-0.0734 0.1853 -0.8569 0.326 0.825 0.462 171 171 169 0 0
0.0286 -0.0007 -0.2034 -0.941 0.275 -0.196 176 178 178 0 0
0.0290 -0.0009 -0.2067 -0.845 0.515 -0.145 171 169 163 0 0
0.0294 -0.0012 -0.2085 -0.401 0.753 0.522 138 133 121 0 0
0.0292 -0.0009 -0.2100 -0.003 0.695 0.719 95 86 71 0 0
0.0044 0.0344 -0.2538 -0.561 0.724 0.402 64 51 31 0 0
0.0059 0.0328 -0.2559 -0.288 0.848 0.445 53 40 23 0 0
0.0072 0.0363 -0.3116 -0.769 0.628 -0.123 35 32 28 0 0
-0.0206 0.0847 -0.4578 0.089 0.977 0.194 134 133 130 0 0
-0.0209 0.0853 -0.4593 -0.087 0.910 0.406 146 144 143 0 0
0.0050 0.0723 -0.6740 -0.821 0.046 0.568 16 13 12 0 0
0.0337 -0.0055 -0.1934 0.216 0.942 0.256 179 178 181 0 0
0.0307 -0.0003 -0.2084 -0.578 0.797 0.173 173 173 168 0 0
0.0305 0.0001 -0.2099 -0.393 0.796 0.460 147 140 130 0 0
0.0059 0.0340 -0.2411 -0.841 0.481 0.247 73 58 34 0 0
0.0057 0.0344 -0.2426 -0.834 0.471 0.286 62 47 28 0 0
0.0057 0.0354 -0.2537 -0.561 0.724 0.402 57 44 26 0 0
0.0030 0.0413 -0.2814 -0.680 0.527 0.510 26 19 15 0 0
0.0062 0.0400 -0.3105 -0.892 0.419 0.172 38 35 30 0 0
0.0066 0.0396 -0.3123 -0.881 0.185 0.436 24 22 17 0 0
-0.0156 0.0732 -0.3717 -0.662 0.399 0.634 171 170 169 0 0
0.0062 0.0712 -0.6478 -0.642 0.759 0.104 37 33 29 0 0
0.0062 0.0714 -0.6497 -0.529 0.827 0.188 33 29 25 0 0
0.0061 0.0717 -0.6516 -0.529 0.827 0.188 24 20 16 0 0
-0.0430 0.1393 -0.7126 -0.070 0.320 0.945 100 89 69 0 0
-0.0441 0.1407 -0.7134 -0.045 0.521 0.852 102 91 70 0 0
-0.0369 0.1406 -0.8107 0.131 0.802 0.583 92 78 52 0 0
-0.0531 0.1668 -0.8729 0.205 0.932 0.300 153 153 153 0 0
0.0318 0.0009 -0.2083 -0.654 0.714 -0.249 177 177 175 0 0
0.0322 0.0006 -0.2100 -0.338 0.859 0.385 177 175 169 0 0
0.0071 0.0362 -0.2537 -0.277 0.870 0.408 59 45 27 0 0
0.0129 0.0298 -0.2623 -0.798 0.456 0.394 113 98 72 0 0
0.0042 0.0426 -0.2829 -0.439 0.852 0.285 26 20 16 0 0
0.0066 0.0421 -0.3100 -0.723 0.419 0.550 33 28 25 0 0
-0.0149 0.0748 -0.3713 -0.644 0.465 0.607 182 183 187 0 0
-0.0185 0.0799 -0.3775 0.345 0.923 0.172 99 91 84 0 0
-0.0170 0.0784 -0.3817 0.246 0.968 -0.047 98 90 83 0 0
-0.0163 0.0777 -0.3838 0.267 0.963 -0.030 78 68 61 0 0
-0.0126 0.0796 -0.4545 0.507 0.844 0.178 201 202 206 0 0
-0.0128 0.0801 -0.4560 0.497 0.842 0.209 201 202 206 0 0
-0.0132 0.0807 -0.4575 0.485 0.835 0.259 201 202 206 0 0
-0.0136 0.0813 -0.4590 0.489 0.849 0.200 201 204 207 0 0
-0.0139 0.0820 -0.4622 0.480 0.876 0.051 200 204 207 0 0
-0.0139 0.0823 -0.4640 0.467 0.878 0.102 200 204 207 0 0
-0.0140 0.0825 -0.4657 0.464 0.879 0.110 202 203 207 0 0
0.0082 0.0715 -0.6462 -0.710 0.607 0.356 21 16 14 0 0
0.0077 0.0721 -0.6478 -0.574 0.796 0.190 23 18 16 0 0
0.0080 0.0721 -0.6500 -0.433 0.880 0.195 19 15 12 0 0
0.0079 0.0724 -0.6518 -0.365 0.901 0.233 17 13 11 0 0
-0.0460 0.1566 -0.8281 -0.031 0.711 0.702 117 98 71 0 0
-0.0552 0.1693 -0.8408 0.017 0.977 0.212 148 131 91 0 0
-0.0508 0.1669 -0.8741 0.142 0.733 0.666 160 160 160 0 0
0.0067 0.0377 -0.2372 -0.849 0.491 0.196 96 82 52 0 0
0.0077 0.0405 -0.2805 -0.587 0.678 0.443 36 28 19 0 0
0.0047 0.0459 -0.2970 -0.679 0.582 0.448 36 27 18 0 0
-0.0138 0.0760 -0.3711 -0.644 0.465 0.607 183 184 188 0 0
-0.0147 0.0772 -0.3722 -0.750 0.257 0.610 182 183 187 0 0
0.0096 0.0732 -0.6541 -0.738 0.674 0.013 13 9 8 0 0
0.0081 0.0771 -0.6745 -0.548 0.835 0.046 11 9 7 0 0
0.0023 0.0851 -0.6827 -0.920 0.376 0.113 7 6 4 0 0
0.0022 0.0854 -0.6846 -0.989 0.080 0.121 8 7 5 0 0
-0.0431 0.1451 -0.7151 -0.014 0.652 0.758 109 98 81 0 0
-0.0477 0.1525 -0.7334 -0.382 0.749 -0.542 120 108 87 0 0
-0.0473 0.1614 -0.8328 -0.309 0.660 0.685 116 103 73 0 0
-0.0479 0.1623 -0.8341 -0.624 0.656 0.424 121 106 77 0 0
-0.0453 0.1627 -0.8734 0.206 0.970 -0.131 139 137 134 0 0
0.0109 0.0331 -0.2178 -0.423 0.633 0.648 173 157 121 0 0
0.0098 0.0353 -0.2252 -0.148 0.924 0.352 77 62 31 0 0
0.0079 0.0392 -0.2418 -0.405 0.748 0.526 57 42 25 0 0
0.0071 0.0403 -0.2431 -0.444 0.769 0.460 70 55 35 0 0
0.0073 0.0402 -0.2447 -0.576 0.778 0.252 79 64 41 0 0
0.0084 0.0393 -0.2499 -0.719 0.690 -0.084 69 53 32 0 0
0.0058 0.0471 -0.2968 -0.679 0.582 0.448 36 26 17 0 0
-0.0126 0.0770 -0.3710 -0.524 0.466 0.713 183 184 188 0 0
-0.0139 0.0788 -0.3719 -0.721 0.271 0.638 182 183 187 0 0
0.0105 0.0749 -0.6535 -0.331 0.925 0.186 28 25 20 0 0
0.0103 0.0753 -0.6553 -0.266 0.929 0.258 25 22 19 0 0
0.0032 0.0862 -0.6761 -0.742 0.663 0.097 11 10 8 0 0
0.0032 0.0864 -0.6781 -0.741 0.669 0.049 11 10 8 0 0
0.0032 0.0866 -0.6801 -0.732 0.681 0.015 11 10 8 0 0
0.0033 0.0866 -0.6822 -0.834 0.544 0.098 8 7 5 0 0
0.0027 0.0878 -0.6855 -0.969 0.150 0.196 7 6 4 0 0
-0.0212 0.1201 -0.7123 -0.029 0.224 0.974 62 58 51 0 0
-0.0417 0.1460 -0.7152 -0.237 0.532 0.813 101 90 72 0 0
-0.0486 0.1559 -0.7287 -0.258 0.922 -0.289 98 87 66 0 0
0.0335 0.0069 -0.2106 -0.919 0.107 0.381 179 177 179 0 0
0.0341 0.0062 -0.2124 -0.267 0.219 0.938 180 176 171 0 0
0.0103 0.0373 -0.2264 -0.787 0.611 0.088 94 77 48 0 0
0.0086 0.0411 -0.2447 -0.576 0.778 0.252 62 43 28 0 0
0.0083 0.0416 -0.2461 -0.723 0.606 0.331 63 45 30 0 0
0.0089 0.0412 -0.2495 -0.841 0.535 -0.080 74 58 37 0 0
0.0106 0.0459 -0.3213 -0.578 0.580 0.573 70 66 57 0 0
0.0101 0.0467 -0.3227 -0.578 0.580 0.573 40 35 31 0 0
-0.0040 0.0741 -0.4261 0.457 0.889 0.017 193 193 197 0 0
-0.0029 0.0732 -0.4303 0.487 0.873 -0.039 194 195 198 0 0
0.0113 0.0771 -0.6567 -0.347 0.841 0.414 30 26 22 0 0
0.0110 0.0777 -0.6584 -0.377 0.889 0.259 35 30 27 0 0
0.0040 0.0884 -0.6794 -0.599 0.741 0.303 21 18 17 0 0
-0.0124 0.1123 -0.7163 -0.236 0.543 0.806 57 52 49 0 0
-0.0467 0.1563 -0.7293 -0.258 0.922 -0.289 111 101 77 0 0
0.0351 0.0074 -0.2106 -0.432 0.205 0.878 178 178 180 0 0
0.0337 0.0092 -0.2117 -0.432 0.205 0.878 178 174 170 0 0
0.0120 0.0375 -0.2250 -0.498 0.600 0.626 81 66 39 0 0
0.0117 0.0380 -0.2264 -0.816 0.548 0.183 87 70 43 0 0
0.0094 0.0466 -0.2859 -0.778 0.627 0.025 46 37 28 0 0
0.0056 0.0888 -0.6755 -0.713 0.694 0.103 13 9 7 0 0
0.0057 0.0890 -0.6776 -0.677 0.708 0.202 14 10 9 0 0
0.0072 0.0887 -0.6951 -0.785 0.560 -0.263 12 8 7 0 0
0.0081 0.0879 -0.6981 -0.910 0.408 -0.076 10 7 5 0 0
0.0059 0.0912 -0.7039 -0.526 0.623 0.579 14 12 10 0 0
-0.0104 0.1127 -0.7168 -0.298 0.598 0.744 60 56 53 0 0
-0.0289 0.1356 -0.7165 -0.136 0.485 0.864 86 76 64 0 0
0.0347 0.0106 -0.2116 -0.475 0.216 0.853 175 171 167 0 0
0.0335 0.0122 -0.2128 -0.205 0.173 0.963 166 155 142 0 0
0.0154 0.0393 -0.2604 -0.760 0.579 0.295 66 53 38 0 0
0.0151 0.0397 -0.2620 -0.696 0.526 0.489 54 38 24 0 0
0.0115 0.0501 -0.3220 -0.733 0.567 0.377 44 37 29 0 0
0.0124 0.0780 -0.6216 -0.680 0.593 0.432 16 11 8 0 0
0.0120 0.0786 -0.6232 -0.680 0.593 0.432 19 14 11 0 0
0.0134 0.0801 -0.6559 -0.740 0.398 0.543 17 12 9 0 0
0.0063 0.0913 -0.6807 -0.811 0.527 0.253 10 9 7 0 0
0.0074 0.0920 -0.7018 -0.939 0.232 0.256 16 12 11 0 0
0.0056 0.0946 -0.7061 -0.625 0.586 0.516 7 6 6 0 0
0.0059 0.0945 -0.7084 -0.238 0.968 0.081 7 6 5 0 0
-0.0135 0.1195 -0.7178 -0.294 0.516 0.805 69 64 57 0 0
-0.0152 0.1216 -0.7180 -0.306 0.468 0.829 73 66 57 0 0
