ply
format ascii 1.0
element vertex 844
property float x
property float y
property float z
property float nx
property float ny
property float nz
property uchar diffuse_red
property uchar diffuse_green
property uchar diffuse_blue
property uchar class
property uchar detection
end_header
-0.0182 0.0123 -0.7056 0.687 -0.692 0.223 24 22 17 0 0
-0.0183 0.0124 -0.7079 0.692 -0.589 0.417 40 38 31 0 0
-0.0178 0.0115 -0.7095 0.457 -0.820 0.345 68 64 57 0 0
-0.0172 0.0104 -0.7108 0.466 -0.635 0.616 57 51 41 0 0
-0.0166 0.0094 -0.7123 0.466 -0.635 0.616 97 90 79 0 0
-0.0152 0.0072 -0.7128 0.242 -0.446 0.862 73 66 52 0 0
-0.0101 -0.0009 -0.7154 -0.074 -0.478 0.875 107 95 75 0 0
0.0091 -0.0370 -0.8046 0.566 -0.816 0.117 177 159 113 0 0
-0.0002 -0.0276 -0.8703 0.839 -0.409 0.358 115 113 110 0 0
0.0263 -0.0260 -0.2615 0.643 -0.598 0.478 93 79 50 0 0
0.0265 -0.0265 -0.2629 0.427 -0.610 0.668 93 79 50 0 0
0.0263 -0.0263 -0.2646 0.590 -0.613 0.525 97 83 54 0 0
0.0170 -0.0159 -0.3167 0.543 -0.544 -0.640 134 127 109 0 0
0.0173 -0.0165 -0.3182 0.264 -0.942 -0.207 154 150 142 0 0
-0.0297 0.0450 -0.4590 0.716 -0.625 0.311 125 110 87 0 0
-0.0673 0.0894 -0.6377 0.421 0.288 0.860 88 84 73 0 0
-0.0650 0.0859 -0.6376 0.416 0.277 0.866 97 91 81 0 0
-0.0255 0.0260 -0.6268 0.754 -0.609 0.246 101 90 72 0 0
-0.0253 0.0256 -0.6286 0.754 -0.609 0.246 99 88 69 0 0
-0.0163 0.0079 -0.6809 0.848 -0.524 -0.078 96 84 58 0 0
-0.0195 0.0106 -0.7095 0.457 -0.820 0.345 51 47 40 0 0
-0.0178 0.0078 -0.7118 0.242 -0.446 0.862 88 80 69 0 0
-0.0168 0.0063 -0.7128 0.242 -0.446 0.862 79 71 56 0 0
-0.0106 -0.0034 -0.7141 0.225 -0.593 0.773 104 92 71 0 0
-0.0077 -0.0079 -0.7150 0.389 -0.274 0.879 109 96 73 0 0
-0.0005 -0.0195 -0.7213 0.727 -0.470 0.500 204 188 154 0 0
0.0077 -0.0369 -0.7872 0.607 -0.767 0.209 172 154 105 0 0
0.0081 -0.0385 -0.7995 0.547 -0.836 0.034 169 151 105 0 0
0.0085 -0.0392 -0.8011 0.589 -0.803 0.095 175 157 111 0 0
0.0084 -0.0392 -0.8034 0.383 -0.840 0.385 174 155 109 0 0
0.0167 -0.0069 -0.1663 0.723 -0.350 0.595 171 169 164 0 0
0.0173 -0.0080 -0.1676 0.765 -0.404 0.502 144 138 126 0 0
0.0209 -0.0141 -0.1754 0.936 -0.046 0.349 164 146 100 0 0
0.0223 -0.0164 -0.1764 0.743 -0.359 0.565 165 147 102 0 0
0.0230 -0.0174 -0.1777 0.405 -0.516 0.755 153 136 90 0 0
0.0241 -0.0199 -0.1876 0.889 -0.455 0.049 128 109 76 0 0
0.0266 -0.0250 -0.2046 0.552 -0.810 0.197 113 97 64 0 0
0.0251 -0.0269 -0.2598 0.782 -0.556 0.283 93 79 50 0 0
-0.0316 0.0469 -0.4296 0.915 -0.376 0.146 43 39 29 0 0
-0.0316 0.0468 -0.4315 0.871 -0.491 -0.007 14 12 11 0 0
-0.0317 0.0468 -0.4334 0.825 -0.564 0.036 13 11 12 0 0
-0.0312 0.0442 -0.4571 0.704 -0.634 0.319 91 79 61 0 0
-0.0309 0.0437 -0.4588 0.716 -0.625 0.311 107 94 73 0 0
-0.0727 0.0940 -0.6390 -0.255 -0.144 0.956 86 83 74 0 0
-0.0708 0.0910 -0.6393 -0.313 -0.261 0.913 87 83 72 0 0
-0.0691 0.0884 -0.6399 -0.452 -0.465 0.761 92 86 76 0 0
-0.0265 0.0242 -0.6283 0.754 -0.609 0.246 130 115 94 0 0
-0.0181 0.0094 -0.6524 0.868 -0.297 0.397 105 95 73 0 0
-0.0209 0.0097 -0.7051 0.687 -0.692 0.223 37 32 25 0 0
-0.0123 -0.0042 -0.7142 0.323 -0.629 0.708 112 100 80 0 0
-0.0105 -0.0069 -0.7143 0.277 -0.246 0.929 104 93 73 0 0
0.0070 -0.0403 -0.8010 0.601 -0.794 0.090 175 157 111 0 0
0.0073 -0.0408 -0.8028 0.715 -0.623 0.316 176 157 112 0 0
0.0075 -0.0414 -0.8046 0.715 -0.623 0.316 174 153 108 0 0
0.0078 -0.0420 -0.8064 0.715 -0.623 0.316 175 155 110 0 0
0.0152 -0.0074 -0.1648 0.687 -0.356 0.633 178 178 172 0 0
0.0164 -0.0094 -0.1674 0.765 -0.404 0.502 123 108 86 0 0
0.0170 -0.0104 -0.1687 0.696 -0.108 0.710 132 112 80 0 0
0.0207 -0.0167 -0.1764 0.374 -0.749 0.547 168 149 104 0 0
0.0210 -0.0172 -0.1778 0.540 -0.656 0.527 164 145 100 0 0
0.0242 -0.0259 -0.2275 0.696 -0.601 0.392 96 81 52 0 0
0.0245 -0.0265 -0.2289 0.558 -0.791 0.249 110 95 66 0 0
0.0244 -0.0272 -0.2395 0.727 -0.672 0.144 77 63 37 0 0
0.0243 -0.0288 -0.2626 0.620 -0.630 0.468 87 73 44 0 0
-0.0032 0.0046 -0.3750 0.982 -0.128 0.138 96 84 60 0 0
-0.0004 -0.0004 -0.3853 0.895 -0.446 0.024 81 64 45 0 0
-0.0017 0.0013 -0.3896 0.803 -0.580 0.133 93 79 60 0 0
-0.0328 0.0459 -0.4257 0.748 -0.652 -0.123 78 69 51 0 0
-0.0326 0.0453 -0.4293 0.829 -0.559 0.019 27 22 17 0 0
-0.0334 0.0462 -0.4335 0.564 -0.807 -0.175 9 8 7 0 0
-0.0341 0.0468 -0.4395 0.789 -0.615 -0.014 9 8 8 0 0
-0.0334 0.0456 -0.4408 0.808 -0.588 0.038 13 12 12 0 0
-0.0336 0.0458 -0.4428 0.659 -0.703 0.267 12 10 12 0 0
-0.0338 0.0459 -0.4448 0.493 -0.865 0.094 10 8 8 0 0
-0.0359 0.0386 -0.5811 0.577 -0.722 0.382 205 205 210 0 0
-0.0355 0.0380 -0.5828 0.648 -0.655 0.389 206 205 210 0 0
-0.0196 0.0087 -0.6482 0.837 -0.547 0.017 69 58 41 0 0
-0.0154 0.0015 -0.6581 0.756 -0.583 0.296 59 46 26 0 0
-0.0139 -0.0051 -0.7143 0.397 -0.373 0.839 108 96 77 0 0
-0.0121 -0.0078 -0.7143 0.350 -0.254 0.902 110 99 79 0 0
0.0042 -0.0343 -0.7348 0.742 -0.471 0.478 116 100 73 0 0
0.0054 -0.0383 -0.7626 0.914 -0.382 0.137 170 150 114 0 0
0.0057 -0.0388 -0.7645 0.865 -0.489 0.114 164 145 105 0 0
0.0063 -0.0406 -0.7742 0.465 -0.842 0.272 169 149 106 0 0
0.0069 -0.0416 -0.7755 0.766 -0.630 0.128 172 152 111 0 0
0.0067 -0.0445 -0.8165 0.791 -0.515 0.331 172 154 109 0 0
-0.0032 -0.0334 -0.8698 0.527 -0.269 0.806 103 102 98 0 0
-0.0014 -0.0362 -0.8718 0.629 -0.342 0.699 143 142 140 0 0
0.0156 -0.0109 -0.1672 0.813 -0.569 0.123 118 102 74 0 0
0.0159 -0.0115 -0.1686 0.711 -0.073 0.699 137 118 83 0 0
0.0200 -0.0183 -0.1762 0.538 -0.669 0.513 159 139 95 0 0
0.0212 -0.0203 -0.1773 0.425 -0.628 0.652 167 147 102 0 0
0.0243 -0.0262 -0.1925 0.419 -0.756 0.503 149 130 89 0 0
0.0239 -0.0276 -0.2210 0.836 -0.535 0.125 97 84 52 0 0
0.0235 -0.0285 -0.2393 0.661 -0.711 0.240 86 70 44 0 0
0.0236 -0.0288 -0.2408 0.661 -0.711 0.240 87 72 45 0 0
0.0238 -0.0292 -0.2422 0.661 -0.711 0.240 89 75 48 0 0
0.0239 -0.0295 -0.2437 0.661 -0.711 0.240 85 71 45 0 0
0.0241 -0.0300 -0.2451 0.648 -0.676 0.350 79 65 39 0 0
0.0244 -0.0305 -0.2466 0.648 -0.676 0.350 85 72 44 0 0
0.0246 -0.0309 -0.2480 0.648 -0.676 0.350 93 79 52 0 0
0.0244 -0.0309 -0.2511 0.582 -0.575 0.575 98 84 57 0 0
0.0249 -0.0317 -0.2525 0.582 -0.575 0.575 99 85 59 0 0
0.0254 -0.0325 -0.2538 0.520 -0.704 0.483 96 83 56 0 0
0.0246 -0.0321 -0.2634 0.657 -0.625 0.422 95 81 53 0 0
0.0240 -0.0320 -0.2745 0.641 -0.478 0.601 104 90 61 0 0
0.0212 -0.0296 -0.2978 0.576 -0.687 0.443 98 84 53 0 0
0.0214 -0.0300 -0.2993 0.682 -0.473 0.558 93 77 53 0 0
0.0220 -0.0310 -0.3006 0.862 -0.463 0.205 114 98 69 0 0
-0.0348 0.0457 -0.4260 0.595 -0.040 0.802 62 56 42 0 0
-0.0343 0.0448 -0.4275 0.218 -0.799 -0.560 56 50 38 0 0
-0.0349 0.0456 -0.4298 -0.006 -0.767 -0.642 16 15 11 0 0
-0.0393 0.0516 -0.4382 -0.420 -0.902 -0.100 7 5 6 0 0
-0.0363 0.0466 -0.4436 0.618 -0.551 0.561 8 6 8 0 0
-0.0318 0.0393 -0.4498 0.382 -0.795 -0.471 54 44 36 0 0
-0.0336 0.0417 -0.4547 0.885 -0.464 -0.030 81 69 56 0 0
-0.0373 0.0375 -0.5809 0.629 -0.654 0.421 200 200 202 0 0
-0.0156 -0.0059 -0.7143 0.333 -0.459 0.824 108 97 79 0 0
0.0020 -0.0343 -0.7334 0.792 -0.387 0.473 112 98 67 0 0
0.0046 -0.0414 -0.7743 0.402 -0.886 0.232 175 157 115 0 0
0.0055 -0.0460 -0.8160 0.791 -0.515 0.331 173 155 107 0 0
-0.0094 -0.0280 -0.8762 0.796 -0.360 -0.486 90 88 83 0 0
0.0244 -0.0300 -0.2053 0.687 -0.697 0.206 111 96 68 0 0
0.0242 -0.0298 -0.2069 0.721 -0.689 -0.072 106 90 63 0 0
0.0225 -0.0297 -0.2391 0.754 -0.650 0.092 95 79 53 0 0
0.0241 -0.0334 -0.2537 0.520 -0.704 0.483 106 92 65 0 0
0.0245 -0.0342 -0.2566 0.676 -0.716 0.171 99 85 56 0 0
0.0231 -0.0328 -0.2649 0.741 -0.600 0.301 104 90 64 0 0
-0.0024 -0.0039 -0.3898 0.599 -0.709 0.373 122 109 79 0 0
-0.0041 -0.0015 -0.3926 0.731 -0.645 0.224 108 94 70 0 0
-0.0349 0.0425 -0.4268 0.139 -0.678 -0.722 41 34 26 0 0
-0.0372 0.0458 -0.4302 0.144 -0.660 -0.737 14 13 10 0 0
-0.0398 0.0495 -0.4338 0.162 -0.649 -0.744 5 5 5 0 0
-0.0346 0.0401 -0.4524 0.723 -0.684 -0.098 59 49 40 0 0
-0.0347 0.0402 -0.4544 0.723 -0.684 -0.098 68 57 46 0 0
-0.0175 -0.0019 -0.6570 0.856 -0.395 0.333 125 114 89 0 0
-0.0024 -0.0299 -0.7223 0.480 -0.570 0.666 182 169 129 0 0
0.0044 -0.0455 -0.7896 0.853 -0.522 0.018 173 154 112 0 0
0.0234 -0.0312 -0.2052 0.744 -0.658 0.115 115 98 68 0 0
0.0230 -0.0308 -0.2068 0.643 -0.756 -0.121 113 96 66 0 0
0.0213 -0.0292 -0.2194 0.900 -0.434 0.021 99 85 55 0 0
0.0226 -0.0335 -0.2476 0.634 -0.720 0.284 86 72 45 0 0
0.0221 -0.0353 -0.2802 0.766 -0.576 0.286 108 94 65 0 0
-0.0352 0.0385 -0.4444 0.795 -0.572 0.204 9 7 8 0 0
-0.0327 0.0209 -0.6179 0.579 -0.333 0.745 100 92 77 0 0
0.0026 -0.0440 -0.7624 0.713 -0.643 0.280 146 126 91 0 0
0.0152 -0.0176 -0.1544 0.089 -0.962 0.259 179 179 179 0 0
0.0216 -0.0347 -0.2474 0.512 -0.834 0.205 88 74 46 0 0
0.0217 -0.0373 -0.2782 0.500 -0.629 0.595 104 90 60 0 0
0.0053 -0.0163 -0.3265 -0.053 -0.991 0.122 79 75 64 0 0
0.0053 -0.0165 -0.3281 -0.053 -0.991 0.122 72 71 67 0 0
-0.0367 0.0378 -0.4406 0.834 -0.397 -0.384 9 8 9 0 0
-0.0367 0.0376 -0.4424 0.631 -0.772 0.080 7 6 6 0 0
-0.0368 0.0376 -0.4443 0.486 -0.768 0.417 10 10 9 0 0
-0.0365 0.0370 -0.4460 0.521 -0.800 0.298 22 18 17 0 0
-0.0314 0.0232 -0.5229 0.818 -0.446 0.363 101 86 54 0 0
-0.0314 0.0231 -0.5249 0.558 -0.592 0.581 85 70 38 0 0
0.0163 -0.0230 -0.1682 0.915 -0.307 0.262 159 141 98 0 0
0.0218 -0.0332 -0.1929 0.732 -0.617 0.291 140 120 84 0 0
0.0223 -0.0361 -0.2179 0.919 -0.268 0.290 97 85 54 0 0
0.0222 -0.0360 -0.2194 0.951 -0.294 0.095 99 85 55 0 0
0.0206 -0.0358 -0.2457 0.727 -0.610 0.314 92 78 49 0 0
0.0203 -0.0355 -0.2474 0.512 -0.834 0.205 93 79 52 0 0
0.0205 -0.0360 -0.2488 0.442 -0.825 0.352 86 72 45 0 0
0.0213 -0.0375 -0.2546 0.693 -0.409 0.594 80 66 39 0 0
0.0185 -0.0375 -0.3058 0.721 -0.590 0.363 153 137 101 0 0
0.0188 -0.0380 -0.3072 0.721 -0.590 0.363 151 135 100 0 0
0.0197 -0.0395 -0.3084 0.691 -0.686 0.226 155 141 104 0 0
0.0200 -0.0401 -0.3098 0.289 -0.682 0.672 163 150 111 0 0
0.0070 -0.0218 -0.3264 0.117 -0.730 -0.673 72 71 64 0 0
-0.0033 -0.0117 -0.3909 0.630 -0.616 0.473 102 90 64 0 0
-0.0384 0.0368 -0.4462 0.325 -0.875 0.359 34 30 27 0 0
-0.0238 -0.0065 -0.7079 0.610 -0.650 0.453 81 72 62 0 0
0.0119 -0.0179 -0.1530 0.441 -0.870 0.222 178 178 178 0 0
0.0189 -0.0296 -0.1685 0.565 -0.790 0.238 168 151 114 0 0
0.0217 -0.0379 -0.2176 0.904 -0.247 0.349 98 83 52 0 0
0.0218 -0.0386 -0.2250 0.234 -0.966 0.110 86 72 45 0 0
0.0215 -0.0384 -0.2266 0.454 -0.887 0.088 82 68 41 0 0
0.0193 -0.0369 -0.2487 0.537 -0.723 0.435 86 72 45 0 0
0.0195 -0.0416 -0.3029 0.775 -0.320 0.545 150 136 100 0 0
0.0172 -0.0384 -0.3073 0.644 -0.542 0.541 146 130 97 0 0
0.0180 -0.0398 -0.3085 0.629 -0.750 0.205 144 130 96 0 0
0.0186 -0.0409 -0.3113 0.129 -0.954 -0.270 154 141 104 0 0
0.0101 -0.0289 -0.3207 0.230 -0.624 -0.747 121 111 92 0 0
-0.0030 -0.0126 -0.3610 0.649 -0.610 0.455 99 84 62 0 0
-0.0401 0.0361 -0.4463 0.502 -0.668 0.550 44 40 35 0 0
-0.0080 -0.0470 -0.8717 0.641 -0.181 0.746 130 130 128 0 0
0.0098 -0.0177 -0.1560 0.644 -0.467 0.607 178 175 170 0 0
0.0207 -0.0398 -0.2249 0.758 -0.237 0.608 87 73 46 0 0
0.0196 -0.0441 -0.2975 0.331 -0.932 0.145 111 96 67 0 0
0.0168 -0.0411 -0.3115 0.129 -0.954 -0.270 142 130 95 0 0
-0.0037 -0.0171 -0.3927 0.564 -0.580 0.588 100 87 59 0 0
-0.0394 0.0325 -0.4374 0.371 -0.889 -0.269 35 32 31 0 0
-0.0422 0.0360 -0.4466 0.829 -0.210 0.518 33 28 22 0 0
-0.0416 0.0350 -0.4481 0.436 -0.884 0.169 38 29 23 0 0
-0.0414 0.0346 -0.4498 0.562 -0.704 0.434 49 39 33 0 0
-0.0421 0.0353 -0.4521 0.461 -0.869 -0.182 68 60 52 0 0
-0.0420 0.0351 -0.4539 0.573 -0.814 -0.096 37 30 25 0 0
-0.0291 0.0017 -0.6242 0.729 -0.660 0.182 65 56 39 0 0
-0.0230 -0.0099 -0.6544 0.562 -0.689 0.457 90 79 53 0 0
-0.0212 -0.0144 -0.6748 0.700 -0.708 -0.089 102 88 61 0 0
-0.0142 -0.0283 -0.7163 0.409 -0.563 0.718 108 96 77 0 0
-0.0022 -0.0470 -0.7252 0.734 -0.602 0.315 163 144 112 0 0
0.0008 -0.0546 -0.7630 0.489 -0.771 0.407 142 123 87 0 0
-0.0091 -0.0486 -0.8711 0.641 -0.181 0.746 121 120 118 0 0
0.0092 -0.0195 -0.1558 0.649 -0.654 0.388 162 155 145 0 0
0.0103 -0.0214 -0.1584 0.615 -0.406 0.675 145 128 108 0 0
0.0209 -0.0426 -0.2228 0.814 -0.578 0.050 96 82 54 0 0
0.0205 -0.0421 -0.2244 0.732 -0.301 0.612 96 82 55 0 0
0.0195 -0.0450 -0.2765 0.738 -0.547 0.396 102 89 62 0 0
0.0197 -0.0461 -0.2857 0.763 -0.582 0.281 99 85 58 0 0
-0.0052 -0.0158 -0.3672 0.815 -0.577 0.046 107 93 67 0 0
-0.0054 -0.0157 -0.3690 0.872 -0.341 0.352 111 97 71 0 0
-0.0049 -0.0165 -0.3704 0.919 -0.391 0.045 113 99 74 0 0
-0.0049 -0.0183 -0.3926 0.557 -0.603 0.571 107 94 62 0 0
-0.0041 -0.0196 -0.3937 0.346 -0.591 0.729 97 83 55 0 0
-0.0409 0.0317 -0.4374 0.451 -0.849 -0.276 16 12 9 0 0
-0.0414 0.0321 -0.4395 0.451 -0.849 -0.276 25 20 17 0 0
-0.0420 0.0325 -0.4473 0.719 -0.551 0.423 39 33 27 0 0
-0.0323 0.0037 -0.6178 0.513 -0.512 0.689 113 99 77 0 0
-0.0304 0.0004 -0.6239 0.729 -0.660 0.182 58 49 36 0 0
-0.0245 -0.0110 -0.6542 0.562 -0.689 0.457 80 68 40 0 0
-0.0222 -0.0157 -0.6701 0.579 -0.816 -0.004 113 100 68 0 0
-0.0223 -0.0158 -0.6722 0.579 -0.816 -0.004 104 91 59 0 0
-0.0224 -0.0157 -0.6744 0.552 -0.833 -0.035 125 110 80 0 0
0.0000 -0.0566 -0.7620 0.759 -0.591 0.271 161 144 106 0 0
0.0213 -0.0426 -0.1838 0.317 -0.920 0.230 123 103 70 0 0
0.0190 -0.0398 -0.1919 0.249 -0.945 0.212 128 109 75 0 0
0.0189 -0.0400 -0.1948 0.480 -0.877 0.020 133 115 78 0 0
0.0202 -0.0441 -0.2210 0.883 -0.466 0.058 93 79 52 0 0
0.0200 -0.0442 -0.2255 0.818 -0.524 0.236 94 79 50 0 0
0.0196 -0.0462 -0.2559 0.864 -0.394 0.314 85 71 44 0 0
0.0188 -0.0475 -0.2855 0.767 -0.564 0.304 102 88 61 0 0
-0.0427 0.0310 -0.4393 0.574 -0.792 -0.208 34 29 25 0 0
-0.0435 0.0318 -0.4435 0.886 -0.459 -0.069 32 27 22 0 0
-0.0414 0.0194 -0.5535 0.615 -0.680 0.399 124 110 80 0 0
-0.0411 0.0188 -0.5552 0.800 -0.558 0.222 108 95 63 0 0
-0.0384 0.0143 -0.5607 0.572 -0.170 0.803 90 80 57 0 0
-0.0413 0.0181 -0.5671 0.576 -0.811 0.102 53 43 30 0 0
-0.0420 0.0189 -0.5697 0.578 -0.756 0.308 60 50 37 0 0
-0.0421 0.0188 -0.5717 0.518 -0.712 0.475 52 42 28 0 0
-0.0416 0.0181 -0.5733 0.396 -0.687 0.609 100 91 75 0 0
-0.0439 0.0191 -0.6011 0.868 -0.382 0.317 72 59 42 0 0
-0.0311 -0.0018 -0.6231 0.696 -0.586 0.415 58 49 35 0 0
-0.0237 -0.0168 -0.6700 0.579 -0.816 -0.004 148 133 100 0 0
-0.0238 -0.0168 -0.6721 0.579 -0.816 -0.004 120 105 72 0 0
-0.0241 -0.0175 -0.6847 0.447 -0.766 0.462 120 106 78 0 0
-0.0236 -0.0185 -0.6882 0.560 -0.590 0.582 82 70 49 0 0
-0.0231 -0.0193 -0.6898 0.579 -0.714 0.395 73 60 43 0 0
-0.0172 -0.0303 -0.7162 0.409 -0.563 0.718 119 106 84 0 0
-0.0013 -0.0570 -0.7513 0.681 -0.732 -0.014 112 94 59 0 0
0.0159 -0.0354 -0.1619 0.372 -0.614 0.696 202 184 137 0 0
0.0172 -0.0469 -0.2747 0.843 -0.508 0.180 97 82 56 0 0
0.0173 -0.0473 -0.2762 0.838 -0.517 0.175 97 82 55 0 0
0.0181 -0.0492 -0.2867 0.733 -0.601 0.319 108 94 66 0 0
0.0181 -0.0494 -0.2882 0.763 -0.582 0.281 109 95 66 0 0
-0.0365 0.0159 -0.4707 0.387 -0.825 0.411 117 103 79 0 0
-0.0363 0.0155 -0.4724 0.697 -0.513 0.502 82 67 44 0 0
-0.0354 0.0130 -0.4866 0.724 -0.613 0.317 119 107 82 0 0
-0.0354 0.0116 -0.5015 0.473 -0.816 0.332 99 85 59 0 0
-0.0351 0.0111 -0.5032 0.473 -0.816 0.332 115 101 72 0 0
-0.0385 0.0138 -0.5305 0.599 -0.623 0.503 112 96 70 0 0
-0.0420 0.0171 -0.5527 0.378 -0.897 0.231 121 107 79 0 0
-0.0435 0.0178 -0.5716 0.527 -0.729 0.436 43 34 20 0 0
-0.0245 -0.0178 -0.6570 0.479 -0.848 0.224 121 105 71 0 0
-0.0251 -0.0172 -0.6596 0.747 -0.558 0.360 134 119 86 0 0
-0.0248 -0.0186 -0.6715 0.719 -0.695 0.007 130 114 81 0 0
-0.0248 -0.0187 -0.6736 0.719 -0.695 0.007 139 123 92 0 0
-0.0249 -0.0188 -0.6757 0.719 -0.695 0.007 115 99 70 0 0
-0.0244 -0.0208 -0.6915 0.877 -0.377 0.298 61 49 33 0 0
-0.0139 -0.0517 -0.8709 0.903 -0.410 0.129 87 86 82 0 0
0.0141 -0.0351 -0.1591 0.835 -0.377 0.401 212 195 151 0 0
0.0162 -0.0387 -0.1642 0.746 -0.342 0.571 212 195 145 0 0
0.0150 -0.0397 -0.1966 0.338 -0.820 0.462 116 97 65 0 0
0.0153 -0.0402 -0.1980 0.377 -0.798 0.469 113 96 66 0 0
0.0186 -0.0507 -0.2627 0.809 -0.531 0.253 84 70 41 0 0
0.0185 -0.0507 -0.2643 0.841 -0.452 0.296 87 73 46 0 0
-0.0364 0.0115 -0.4843 0.690 -0.678 0.253 89 77 55 0 0
-0.0368 0.0105 -0.5033 0.565 -0.735 0.374 108 94 70 0 0
-0.0365 0.0003 -0.6152 0.754 -0.535 0.381 128 114 89 0 0
-0.0355 -0.0012 -0.6163 0.728 -0.632 0.266 128 114 86 0 0
-0.0354 -0.0015 -0.6182 0.588 -0.526 0.614 129 116 84 0 0
-0.0348 -0.0025 -0.6196 0.588 -0.526 0.614 110 98 68 0 0
-0.0338 -0.0042 -0.6206 0.672 -0.218 0.708 80 68 47 0 0
-0.0024 -0.0622 -0.7550 0.916 -0.374 0.143 144 124 85 0 0
-0.0151 -0.0533 -0.8703 0.886 -0.458 0.067 74 73 69 0 0
-0.0151 -0.0535 -0.8725 0.911 -0.413 -0.006 101 100 98 0 0
0.0150 -0.0423 -0.1947 0.627 -0.779 -0.015 148 131 90 0 0
0.0175 -0.0476 -0.2145 0.362 -0.912 0.195 91 80 49 0 0
0.0177 -0.0485 -0.2203 0.424 -0.846 0.322 79 65 36 0 0
0.0182 -0.0493 -0.2216 0.568 -0.677 0.468 78 63 35 0 0
0.0160 -0.0523 -0.2941 0.616 -0.593 0.518 106 91 66 0 0
0.0163 -0.0529 -0.2955 0.699 -0.707 0.109 102 88 63 0 0
0.0164 -0.0532 -0.2970 0.531 -0.816 0.231 101 87 59 0 0
0.0165 -0.0535 -0.2985 0.570 -0.800 0.189 106 92 64 0 0
0.0133 -0.0497 -0.3096 0.649 -0.583 -0.489 130 115 87 0 0
-0.0456 0.0250 -0.4491 0.450 -0.570 0.687 53 45 35 0 0
-0.0461 0.0255 -0.4512 0.461 -0.761 0.456 58 51 41 0 0
-0.0379 0.0071 -0.5237 0.352 -0.902 0.249 112 98 72 0 0
-0.0413 0.0113 -0.5341 0.503 -0.862 0.062 125 111 85 0 0
-0.0362 -0.0034 -0.6154 0.575 -0.815 0.072 130 116 86 0 0
-0.0368 -0.0027 -0.6179 0.588 -0.526 0.614 121 108 76 0 0
-0.0364 -0.0034 -0.6196 0.653 -0.503 0.566 138 127 97 0 0
-0.0297 -0.0145 -0.6330 0.813 -0.542 0.212 100 88 61 0 0
-0.0160 -0.0555 -0.8715 0.826 -0.402 0.395 90 89 85 0 0
0.0116 -0.0364 -0.1561 0.373 -0.448 0.813 131 115 97 0 0
0.0164 -0.0532 -0.2655 0.428 -0.901 0.072 90 76 49 0 0
-0.0471 0.0240 -0.4490 0.450 -0.570 0.687 60 53 43 0 0
-0.0476 0.0246 -0.4512 0.461 -0.761 0.456 79 72 62 0 0
-0.0421 0.0155 -0.4621 0.713 -0.451 0.537 57 46 30 0 0
-0.0392 0.0102 -0.4748 0.578 -0.797 0.176 111 99 75 0 0
-0.0384 0.0084 -0.4816 0.687 -0.558 0.466 108 96 71 0 0
-0.0430 0.0095 -0.5456 0.578 -0.789 0.208 98 85 64 0 0
-0.0428 0.0091 -0.5474 0.578 -0.789 0.208 101 88 68 0 0
-0.0427 0.0088 -0.5493 0.676 -0.690 0.257 97 84 65 0 0
-0.0425 0.0083 -0.5510 0.667 -0.713 0.217 100 87 68 0 0
-0.0432 0.0090 -0.5555 0.653 -0.757 0.007 88 76 57 0 0
-0.0433 0.0089 -0.5575 0.638 -0.770 0.024 89 77 59 0 0
-0.0440 0.0077 -0.5835 0.850 -0.510 -0.128 61 52 43 0 0
-0.0439 0.0063 -0.5972 0.830 -0.440 0.343 99 87 65 0 0
-0.0322 -0.0133 -0.6239 0.613 -0.500 0.612 82 72 53 0 0
-0.0177 -0.0428 -0.7177 0.113 -0.404 0.908 96 86 74 0 0
-0.0167 -0.0444 -0.7186 0.321 -0.385 0.865 103 92 78 0 0
0.0141 -0.0549 -0.2921 0.779 -0.582 0.234 112 99 67 0 0
-0.0471 0.0205 -0.4534 0.491 -0.799 0.348 47 40 31 0 0
-0.0458 0.0184 -0.4563 0.408 -0.654 0.637 45 40 36 0 0
-0.0432 0.0141 -0.4618 0.807 -0.414 0.421 94 81 65 0 0
-0.0416 0.0109 -0.4717 0.396 -0.626 0.671 113 100 81 0 0
-0.0409 0.0095 -0.4749 0.428 -0.872 0.236 90 77 56 0 0
-0.0435 0.0080 -0.5352 0.452 -0.868 0.203 114 100 74 0 0
-0.0444 0.0086 -0.5436 0.381 -0.893 0.241 103 88 65 0 0
-0.0444 0.0084 -0.5455 0.329 -0.775 0.539 97 83 62 0 0
-0.0451 0.0078 -0.5635 0.744 -0.347 0.571 86 75 57 0 0
-0.0453 0.0057 -0.5911 0.835 -0.501 0.228 115 103 85 0 0
-0.0446 0.0043 -0.5944 0.686 -0.567 0.457 117 101 78 0 0
-0.0442 0.0036 -0.5960 0.686 -0.567 0.457 109 94 71 0 0
-0.0330 -0.0156 -0.6271 0.661 -0.655 0.368 107 96 69 0 0
-0.0114 -0.0556 -0.7210 0.848 -0.427 0.313 164 149 124 0 0
0.0127 -0.0489 -0.2176 0.870 -0.425 0.249 92 78 51 0 0
0.0124 -0.0556 -0.2985 0.636 -0.771 -0.031 107 92 65 0 0
-0.0118 -0.0291 -0.3971 0.865 -0.399 -0.304 107 95 73 0 0
-0.0441 0.0058 -0.5344 0.230 -0.954 0.193 98 83 58 0 0
-0.0439 0.0050 -0.5399 0.411 -0.844 0.344 110 95 72 0 0
-0.0458 0.0071 -0.5472 0.362 -0.857 0.367 97 83 61 0 0
-0.0450 0.0057 -0.5505 0.669 -0.672 0.319 94 80 57 0 0
-0.0448 0.0051 -0.5522 0.644 -0.740 0.196 97 85 63 0 0
-0.0453 0.0054 -0.5584 0.581 -0.797 0.165 96 83 64 0 0
-0.0449 0.0044 -0.5620 0.528 -0.784 0.325 89 77 57 0 0
-0.0449 0.0043 -0.5639 0.742 -0.583 0.332 92 80 64 0 0
-0.0451 0.0045 -0.5661 0.774 -0.606 0.186 59 46 31 0 0
-0.0466 0.0044 -0.5908 0.728 -0.642 0.240 93 84 68 0 0
-0.0458 0.0030 -0.5941 0.680 -0.593 0.431 117 101 78 0 0
-0.0454 0.0022 -0.5957 0.686 -0.567 0.457 104 89 66 0 0
-0.0428 -0.0020 -0.5992 0.678 -0.663 0.316 101 90 62 0 0
-0.0395 -0.0076 -0.6080 0.425 -0.739 0.523 97 82 56 0 0
-0.0344 -0.0166 -0.6249 0.595 -0.719 0.360 111 99 78 0 0
-0.0194 -0.0469 -0.7181 0.418 -0.433 0.799 83 74 58 0 0
-0.0061 -0.0706 -0.7664 0.791 -0.580 0.193 169 151 106 0 0
-0.0059 -0.0710 -0.7682 0.791 -0.580 0.193 163 143 100 0 0
-0.0170 -0.0635 -0.8639 0.867 -0.405 -0.292 20 20 16 0 0
-0.0190 -0.0612 -0.8710 0.923 -0.266 0.279 82 81 76 0 0
0.0164 -0.0538 -0.1822 0.286 -0.759 0.585 154 137 94 0 0
0.0148 -0.0549 -0.2207 0.631 -0.709 0.315 87 72 44 0 0
0.0149 -0.0552 -0.2222 0.489 -0.862 0.135 87 72 44 0 0
0.0086 -0.0543 -0.3138 0.729 -0.565 -0.387 139 125 91 0 0
-0.0411 0.0028 -0.4838 0.750 -0.637 0.179 105 90 67 0 0
-0.0414 0.0026 -0.4915 0.528 -0.849 0.007 75 64 45 0 0
-0.0431 0.0038 -0.5058 0.392 -0.920 -0.025 107 93 67 0 0
-0.0468 0.0043 -0.5583 0.581 -0.797 0.165 78 64 47 0 0
-0.0466 0.0037 -0.5621 0.524 -0.841 0.130 90 77 58 0 0
-0.0463 0.0032 -0.5638 0.601 -0.734 0.316 94 81 66 0 0
-0.0259 -0.0378 -0.6869 0.479 -0.749 0.457 68 59 45 0 0
-0.0073 -0.0720 -0.7660 0.815 -0.579 -0.019 156 137 95 0 0
-0.0081 -0.0747 -0.8089 0.658 -0.689 0.303 172 152 105 0 0
-0.0197 -0.0633 -0.8698 0.953 -0.269 0.135 65 64 60 0 0
0.0124 -0.0513 -0.1902 0.410 -0.727 0.551 118 102 70 0 0
0.0111 -0.0496 -0.1921 0.691 -0.415 0.592 112 95 65 0 0
0.0104 -0.0494 -0.2011 0.176 -0.723 0.668 106 92 61 0 0
0.0109 -0.0502 -0.2024 0.454 -0.608 0.652 104 90 59 0 0
0.0126 -0.0528 -0.2033 0.348 -0.601 0.719 96 82 53 0 0
0.0131 -0.0537 -0.2061 0.661 -0.570 0.489 89 75 46 0 0
0.0133 -0.0558 -0.2252 0.720 -0.635 0.280 93 77 51 0 0
0.0136 -0.0599 -0.2657 0.721 -0.671 0.175 91 76 47 0 0
0.0143 -0.0610 -0.2669 0.591 -0.682 0.431 91 76 47 0 0
0.0148 -0.0620 -0.2682 0.467 -0.724 0.508 92 78 49 0 0
0.0153 -0.0627 -0.2695 0.440 -0.790 0.426 98 84 57 0 0
0.0105 -0.0589 -0.3026 0.582 -0.772 -0.255 128 114 80 0 0
-0.0464 0.0044 -0.5165 0.499 -0.867 -0.008 123 109 82 0 0
-0.0465 0.0044 -0.5185 0.499 -0.867 -0.008 120 106 80 0 0
-0.0473 0.0015 -0.5633 0.742 -0.583 0.332 81 70 56 0 0
-0.0444 -0.0063 -0.6017 0.746 -0.613 0.260 105 91 63 0 0
-0.0268 -0.0388 -0.6781 0.852 -0.450 0.269 94 83 66 0 0
-0.0272 -0.0384 -0.6805 0.668 -0.257 0.698 67 57 46 0 0
-0.0282 -0.0374 -0.6836 0.465 -0.790 0.399 62 52 42 0 0
-0.0278 -0.0380 -0.6852 0.487 -0.761 0.429 103 93 81 0 0
-0.0275 -0.0387 -0.6869 0.450 -0.769 0.453 69 60 45 0 0
-0.0095 -0.0759 -0.8086 0.658 -0.689 0.303 173 154 107 0 0
-0.0091 -0.0767 -0.8102 0.780 -0.603 0.167 175 158 111 0 0
-0.0088 -0.0773 -0.8119 0.754 -0.506 0.419 178 160 114 0 0
-0.0088 -0.0774 -0.8141 0.780 -0.603 0.167 175 157 111 0 0
0.0130 -0.0539 -0.1809 0.488 -0.605 0.629 170 153 109 0 0
0.0135 -0.0548 -0.1822 0.482 -0.748 0.456 152 136 93 0 0
0.0131 -0.0545 -0.1852 0.630 -0.775 -0.053 134 120 82 0 0
0.0109 -0.0517 -0.1903 0.839 -0.516 0.173 124 108 76 0 0
0.0119 -0.0555 -0.2148 0.680 -0.592 0.433 86 72 45 0 0
0.0120 -0.0558 -0.2162 0.628 -0.562 0.538 87 73 46 0 0
-0.0107 -0.0356 -0.3551 0.747 -0.658 -0.093 147 132 97 0 0
-0.0109 -0.0355 -0.3569 0.794 -0.607 0.019 145 130 97 0 0
-0.0510 0.0134 -0.4573 0.418 -0.796 0.437 52 42 32 0 0
-0.0456 -0.0078 -0.6013 0.680 -0.672 0.294 95 81 55 0 0
-0.0278 -0.0405 -0.6775 0.852 -0.450 0.269 80 69 51 0 0
-0.0294 -0.0387 -0.6832 0.509 -0.852 0.127 68 58 49 0 0
-0.0293 -0.0392 -0.6871 0.206 -0.922 0.329 99 90 75 0 0
-0.0081 -0.0765 -0.7568 0.658 -0.694 0.292 132 114 84 0 0
-0.0092 -0.0799 -0.8126 0.756 -0.643 0.122 177 160 114 0 0
-0.0216 -0.0672 -0.8702 0.948 -0.284 -0.146 71 70 68 0 0
0.0123 -0.0559 -0.1850 0.691 -0.720 0.058 123 107 73 0 0
0.0096 -0.0525 -0.1902 0.610 -0.675 0.416 115 99 67 0 0
0.0105 -0.0630 -0.2888 0.887 -0.371 0.276 109 94 65 0 0
0.0088 -0.0617 -0.3021 0.953 -0.253 0.167 143 129 92 0 0
-0.0118 -0.0379 -0.3665 0.783 -0.606 0.138 117 100 71 0 0
-0.0118 -0.0381 -0.3682 0.748 -0.574 0.333 105 88 59 0 0
-0.0483 0.0070 -0.4507 0.687 -0.696 -0.210 41 33 30 0 0
-0.0295 -0.0410 -0.6756 0.947 -0.295 0.129 92 81 59 0 0
-0.0311 -0.0395 -0.6833 0.377 -0.899 0.222 71 61 50 0 0
-0.0309 -0.0399 -0.6852 0.377 -0.899 0.222 75 65 55 0 0
-0.0369 -0.0326 -0.6997 0.337 -0.940 -0.047 47 41 30 0 0
-0.0362 -0.0342 -0.7050 0.667 -0.624 0.407 23 21 16 0 0
-0.0128 -0.0799 -0.8322 0.799 -0.595 0.084 146 128 89 0 0
-0.0224 -0.0695 -0.8713 0.950 -0.291 -0.111 89 88 83 0 0
0.0106 -0.0585 -0.2113 0.740 -0.670 0.058 87 73 46 0 0
0.0106 -0.0587 -0.2128 0.721 -0.397 0.567 87 73 46 0 0
0.0110 -0.0594 -0.2141 0.688 -0.410 0.599 83 69 42 0 0
0.0114 -0.0651 -0.2693 0.694 -0.599 0.399 95 81 54 0 0
0.0114 -0.0653 -0.2708 0.283 -0.848 0.448 95 81 54 0 0
-0.0152 -0.0383 -0.3929 0.647 -0.736 -0.200 83 74 54 0 0
-0.0470 -0.0033 -0.5077 0.912 -0.409 0.017 57 44 30 0 0
-0.0507 -0.0027 -0.5582 0.822 -0.569 0.028 68 57 38 0 0
-0.0486 -0.0089 -0.5934 0.839 -0.386 0.385 94 81 58 0 0
-0.0292 -0.0446 -0.6757 0.936 -0.314 0.157 86 74 56 0 0
-0.0329 -0.0401 -0.6835 0.242 -0.958 0.155 98 87 71 0 0
-0.0352 -0.0382 -0.6982 0.677 -0.682 -0.276 32 26 19 0 0
-0.0381 -0.0348 -0.7075 0.708 -0.641 0.296 25 22 19 0 0
-0.0344 -0.0405 -0.7117 0.311 -0.588 0.746 83 75 66 0 0
-0.0331 -0.0425 -0.7122 0.474 -0.495 0.728 98 90 78 0 0
-0.0223 -0.0728 -0.8689 0.874 -0.349 0.338 72 71 67 0 0
-0.0019 -0.1025 -0.8711 0.830 -0.283 0.481 193 189 186 0 0
-0.0016 -0.0375 -0.1463 0.460 -0.447 0.768 178 178 178 0 0
0.0027 -0.0441 -0.1509 0.592 -0.727 0.348 151 146 141 0 0
0.0030 -0.0446 -0.1523 0.592 -0.727 0.348 164 156 144 0 0
0.0097 -0.0577 -0.1892 0.707 -0.694 0.134 116 100 67 0 0
0.0110 -0.0598 -0.1903 0.508 -0.722 0.469 107 91 61 0 0
0.0108 -0.0597 -0.1932 0.269 -0.707 0.654 107 93 65 0 0
0.0096 -0.0595 -0.2097 0.241 -0.886 0.397 89 75 47 0 0
0.0097 -0.0599 -0.2126 0.454 -0.626 0.633 84 70 43 0 0
0.0108 -0.0617 -0.2137 0.749 -0.261 0.609 81 67 40 0 0
0.0107 -0.0629 -0.2285 0.614 -0.632 0.474 87 73 46 0 0
0.0114 -0.0642 -0.2312 0.758 -0.223 0.613 86 72 43 0 0
0.0100 -0.0659 -0.2708 0.375 -0.785 0.493 97 83 56 0 0
0.0101 -0.0671 -0.2815 0.689 -0.681 0.249 101 87 57 0 0
0.0078 -0.0657 -0.3027 0.909 -0.328 0.258 160 148 109 0 0
-0.0480 -0.0114 -0.5758 0.460 -0.677 0.575 46 36 23 0 0
-0.0496 -0.0106 -0.5928 0.839 -0.386 0.385 96 82 59 0 0
-0.0449 -0.0192 -0.6121 0.806 -0.498 0.320 102 90 67 0 0
-0.0430 -0.0222 -0.6143 0.769 -0.372 0.520 114 100 75 0 0
-0.0425 -0.0231 -0.6157 0.769 -0.372 0.520 112 98 72 0 0
-0.0407 -0.0262 -0.6219 0.654 -0.700 0.287 63 53 38 0 0
-0.0348 -0.0410 -0.6879 0.567 -0.784 0.254 81 70 52 0 0
-0.0356 -0.0401 -0.6908 0.785 -0.234 0.574 116 106 88 0 0
-0.0353 -0.0407 -0.6925 0.871 -0.289 0.396 71 61 47 0 0
-0.0120 -0.0837 -0.7932 0.704 -0.687 0.182 176 158 110 0 0
-0.0136 -0.0845 -0.8270 0.894 -0.436 0.107 158 140 95 0 0
-0.0027 -0.0385 -0.1462 0.460 -0.447 0.768 178 178 179 0 0
0.0098 -0.0606 -0.1902 0.463 -0.756 0.462 106 92 59 0 0
0.0098 -0.0608 -0.1931 0.539 -0.696 0.474 107 93 65 0 0
0.0103 -0.0623 -0.2002 0.809 -0.382 0.447 83 69 39 0 0
0.0088 -0.0611 -0.2094 0.818 -0.447 0.361 84 70 42 0 0
0.0085 -0.0608 -0.2110 0.595 -0.633 0.495 80 66 39 0 0
0.0100 -0.0667 -0.2521 0.839 -0.534 0.106 94 79 51 0 0
0.0100 -0.0669 -0.2536 0.806 -0.549 0.223 93 79 51 0 0
0.0095 -0.0678 -0.2704 0.457 -0.887 0.065 102 88 61 0 0
0.0071 -0.0649 -0.2761 0.247 -0.910 0.334 103 89 60 0 0
0.0090 -0.0681 -0.2813 0.689 -0.681 0.249 103 88 59 0 0
-0.0136 -0.0445 -0.3733 0.565 -0.825 -0.000 81 66 44 0 0
-0.0517 0.0023 -0.4553 0.877 -0.325 0.354 40 32 27 0 0
-0.0496 -0.0014 -0.4630 0.712 -0.547 0.441 47 37 26 0 0
-0.0530 -0.0069 -0.5710 0.625 -0.619 0.476 58 49 37 0 0
-0.0510 -0.0118 -0.5926 0.824 -0.332 0.459 101 87 62 0 0
-0.0450 -0.0224 -0.6126 0.479 -0.690 0.543 113 101 79 0 0
-0.0428 -0.0258 -0.6165 0.544 -0.678 0.494 94 82 61 0 0
-0.0413 -0.0284 -0.6210 0.509 -0.831 0.226 63 53 39 0 0
-0.0408 -0.0295 -0.6244 0.404 -0.898 0.171 106 93 69 0 0
-0.0316 -0.0444 -0.6431 0.449 -0.885 0.119 121 107 81 0 0
-0.0336 -0.0484 -0.7134 0.634 -0.283 0.720 72 62 54 0 0
-0.0139 -0.0765 -0.7137 0.711 -0.227 0.665 122 105 74 0 0
-0.0121 -0.0836 -0.7603 0.626 -0.777 0.068 178 162 119 0 0
-0.0120 -0.0839 -0.7623 0.695 -0.705 0.143 172 153 110 0 0
-0.0119 -0.0842 -0.7642 0.755 -0.603 0.258 164 143 98 0 0
-0.0120 -0.0843 -0.7664 0.541 -0.790 0.287 169 150 105 0 0
-0.0135 -0.0841 -0.7869 0.545 -0.663 0.513 181 164 115 0 0
-0.0131 -0.0849 -0.7885 0.578 -0.736 0.353 183 164 117 0 0
-0.0147 -0.0859 -0.8243 0.904 -0.390 0.174 166 148 101 0 0
-0.0151 -0.0857 -0.8268 0.832 -0.554 0.026 157 140 95 0 0
0.0082 -0.0604 -0.1859 0.384 -0.605 0.697 120 104 71 0 0
0.0075 -0.0596 -0.1876 0.572 -0.662 0.484 110 94 64 0 0
0.0082 -0.0612 -0.1931 0.747 -0.661 0.068 103 89 61 0 0
0.0085 -0.0618 -0.1945 0.693 -0.464 0.553 106 92 63 0 0
0.0093 -0.0630 -0.1957 0.534 -0.386 0.753 99 85 56 0 0
0.0086 -0.0622 -0.1974 0.593 -0.720 0.361 90 76 47 0 0
0.0090 -0.0630 -0.2001 0.712 -0.610 0.349 83 69 40 0 0
0.0106 -0.0660 -0.2068 0.436 -0.625 0.648 80 66 39 0 0
0.0110 -0.0685 -0.2272 0.213 -0.700 0.681 88 74 45 0 0
0.0105 -0.0700 -0.2497 0.178 -0.891 0.418 92 77 48 0 0
0.0085 -0.0675 -0.2536 0.973 -0.109 0.202 93 78 49 0 0
0.0064 -0.0693 -0.3035 0.705 -0.680 0.199 138 125 89 0 0
0.0064 -0.0695 -0.3051 0.652 -0.548 0.523 125 112 79 0 0
0.0069 -0.0702 -0.3064 0.652 -0.548 0.523 112 97 68 0 0
-0.0150 -0.0450 -0.3699 0.587 -0.763 0.270 96 79 51 0 0
-0.0485 -0.0066 -0.4684 0.572 -0.504 0.647 67 54 38 0 0
-0.0497 -0.0181 -0.6057 0.648 -0.635 0.421 109 92 67 0 0
-0.0478 -0.0214 -0.6118 0.494 -0.739 0.458 96 84 65 0 0
-0.0470 -0.0227 -0.6130 0.451 -0.757 0.472 97 84 65 0 0
-0.0466 -0.0234 -0.6146 0.564 -0.597 0.571 132 120 99 0 0
-0.0428 -0.0292 -0.6190 0.507 -0.613 0.606 74 64 50 0 0
-0.0433 -0.0287 -0.6214 0.359 -0.854 0.377 57 47 34 0 0
-0.0421 -0.0307 -0.6242 0.236 -0.971 0.038 103 89 66 0 0
-0.0418 -0.0313 -0.6259 0.268 -0.664 0.698 100 85 59 0 0
-0.0311 -0.0511 -0.6727 0.904 -0.402 -0.144 109 96 68 0 0
-0.0136 -0.0801 -0.7136 0.750 -0.631 0.197 145 124 87 0 0
-0.0135 -0.0847 -0.7601 0.626 -0.777 0.068 177 162 118 0 0
-0.0131 -0.0861 -0.7678 0.695 -0.705 0.143 178 156 113 0 0
-0.0143 -0.0869 -0.7943 0.575 -0.793 0.200 165 147 101 0 0
-0.0029 -0.0434 -0.1469 0.169 -0.835 0.524 177 178 175 0 0
-0.0027 -0.0439 -0.1483 0.341 -0.423 0.839 170 169 163 0 0
0.0061 -0.0602 -0.1875 0.400 -0.720 0.568 111 96 65 0 0
0.0070 -0.0618 -0.1902 0.577 -0.687 0.441 94 80 51 0 0
0.0072 -0.0625 -0.1944 0.114 -0.955 0.274 99 85 56 0 0
0.0075 -0.0630 -0.1958 0.007 -0.867 0.499 98 84 55 0 0
0.0091 -0.0660 -0.2025 0.221 -0.892 0.394 95 81 52 0 0
0.0077 -0.0687 -0.2518 0.807 -0.381 0.451 91 76 47 0 0
0.0082 -0.0696 -0.2531 0.961 -0.232 0.152 93 78 49 0 0
0.0064 -0.0694 -0.2782 0.573 -0.729 0.374 101 87 58 0 0
0.0067 -0.0700 -0.2796 0.674 -0.580 0.458 107 93 64 0 0
0.0071 -0.0707 -0.2809 0.684 -0.628 0.371 106 91 62 0 0
-0.0167 -0.0457 -0.3734 0.429 -0.776 0.463 73 57 41 0 0
-0.0163 -0.0464 -0.3748 0.497 -0.819 0.285 78 65 49 0 0
-0.0216 -0.0410 -0.3966 0.542 -0.650 -0.532 99 87 61 0 0
-0.0517 -0.0042 -0.4586 0.753 -0.572 0.326 42 34 28 0 0
-0.0484 -0.0106 -0.4763 0.480 -0.831 0.282 81 69 49 0 0
-0.0522 -0.0114 -0.5408 0.792 -0.601 0.108 106 98 78 0 0
-0.0512 -0.0183 -0.5978 0.432 -0.768 0.473 104 91 65 0 0
-0.0485 -0.0237 -0.6130 0.604 -0.614 0.509 97 86 66 0 0
-0.0410 -0.0435 -0.7078 0.412 -0.870 0.269 29 28 26 0 0
-0.0403 -0.0447 -0.7090 0.382 -0.241 0.892 43 39 38 0 0
-0.0148 -0.0815 -0.7132 0.750 -0.631 0.197 165 147 105 0 0
-0.0150 -0.0820 -0.7215 0.806 -0.588 0.070 161 141 100 0 0
-0.0143 -0.0842 -0.7348 0.748 -0.662 0.047 110 89 54 0 0
-0.0168 -0.0899 -0.8292 0.821 -0.572 0.007 170 152 104 0 0
-0.0258 -0.0807 -0.8671 0.911 -0.402 -0.096 35 33 31 0 0
0.0060 -0.0635 -0.1958 0.587 -0.441 0.679 89 75 46 0 0
0.0062 -0.0640 -0.1972 0.543 -0.435 0.718 85 71 42 0 0
0.0068 -0.0650 -0.1999 0.346 -0.768 0.539 84 70 41 0 0
0.0052 -0.0698 -0.2720 0.635 -0.728 0.257 93 78 50 0 0
-0.0045 -0.0611 -0.3234 0.446 -0.475 -0.759 93 82 57 0 0
-0.0172 -0.0464 -0.3579 0.702 -0.712 -0.001 63 47 29 0 0
-0.0186 -0.0454 -0.3686 0.711 -0.579 0.399 78 60 40 0 0
-0.0179 -0.0470 -0.3749 0.645 -0.744 0.175 107 95 73 0 0
-0.0181 -0.0474 -0.3817 0.513 -0.858 -0.029 65 52 38 0 0
-0.0386 -0.0216 -0.4150 0.456 -0.559 -0.692 82 71 53 0 0
-0.0497 -0.0117 -0.4761 0.639 -0.738 0.215 89 76 54 0 0
-0.0534 -0.0127 -0.5405 0.828 -0.557 0.068 92 82 66 0 0
-0.0534 -0.0130 -0.5424 0.685 -0.728 0.028 93 82 65 0 0
-0.0524 -0.0197 -0.5975 0.622 -0.748 0.229 91 78 52 0 0
-0.0346 -0.0497 -0.6453 0.706 -0.636 0.311 79 67 40 0 0
-0.0329 -0.0543 -0.6673 0.872 -0.487 -0.047 101 91 64 0 0
-0.0331 -0.0543 -0.6695 0.872 -0.487 -0.047 158 145 118 0 0
-0.0425 -0.0446 -0.7077 0.554 -0.781 0.289 24 23 21 0 0
-0.0161 -0.0834 -0.7210 0.806 -0.588 0.070 165 143 103 0 0
-0.0180 -0.0917 -0.8330 0.699 -0.710 -0.086 152 133 91 0 0
-0.0257 -0.0839 -0.8647 0.930 -0.340 -0.141 27 24 24 0 0
0.0051 -0.0639 -0.1870 0.807 -0.266 0.528 102 89 55 0 0
0.0087 -0.0733 -0.2309 0.855 -0.458 0.243 86 73 41 0 0
0.0089 -0.0761 -0.2561 0.727 -0.686 -0.029 94 78 52 0 0
0.0079 -0.0750 -0.2580 0.739 -0.674 -0.005 93 77 51 0 0
0.0060 -0.0755 -0.2908 0.461 -0.860 0.216 108 92 61 0 0
-0.0039 -0.0645 -0.3223 0.575 -0.383 -0.723 89 78 52 0 0
-0.0186 -0.0458 -0.3431 -0.010 -0.987 -0.163 15 13 11 0 0
-0.0189 -0.0454 -0.3449 -0.019 -0.997 -0.076 17 13 12 0 0
-0.0197 -0.0466 -0.3684 0.711 -0.579 0.399 69 51 35 0 0
-0.0192 -0.0485 -0.3798 0.526 -0.846 0.092 80 69 49 0 0
-0.0196 -0.0482 -0.3834 0.513 -0.858 -0.029 83 74 58 0 0
-0.0521 -0.0101 -0.4640 0.814 -0.443 0.376 45 35 25 0 0
-0.0518 -0.0113 -0.4710 0.794 -0.453 0.405 119 106 86 0 0
-0.0507 -0.0173 -0.5164 0.679 -0.724 0.121 77 65 49 0 0
-0.0510 -0.0170 -0.5185 0.780 -0.492 0.386 66 54 40 0 0
-0.0506 -0.0178 -0.5201 0.706 -0.689 0.164 76 64 53 0 0
-0.0542 -0.0147 -0.5398 0.753 -0.658 0.010 71 61 49 0 0
-0.0540 -0.0155 -0.5454 0.452 -0.855 0.253 102 90 69 0 0
-0.0537 -0.0161 -0.5470 0.680 -0.687 0.257 108 95 77 0 0
-0.0541 -0.0157 -0.5493 0.816 -0.499 0.292 93 80 64 0 0
-0.0541 -0.0159 -0.5512 0.846 -0.516 0.138 74 63 47 0 0
-0.0357 -0.0522 -0.6547 0.718 -0.695 0.026 76 64 41 0 0
-0.0337 -0.0558 -0.6625 0.865 -0.243 0.438 123 107 82 0 0
-0.0329 -0.0570 -0.6637 0.312 -0.900 0.305 114 99 76 0 0
-0.0337 -0.0564 -0.6685 0.252 -0.966 0.058 155 141 113 0 0
-0.0347 -0.0557 -0.6755 0.569 -0.746 0.346 116 101 76 0 0
-0.0418 -0.0486 -0.7051 0.540 -0.784 0.305 18 17 15 0 0
-0.0425 -0.0478 -0.7080 0.387 0.033 0.921 36 31 30 0 0
-0.0186 -0.0819 -0.7100 0.583 0.001 0.812 118 101 70 0 0
-0.0164 -0.0860 -0.7195 0.632 -0.675 0.380 169 148 108 0 0
-0.0163 -0.0863 -0.7214 0.664 -0.638 0.390 144 121 84 0 0
-0.0166 -0.0867 -0.7298 0.752 -0.639 0.163 116 95 57 0 0
-0.0279 -0.0843 -0.8677 0.858 -0.430 -0.282 47 43 41 0 0
0.0055 -0.0669 -0.1849 0.694 -0.637 0.336 105 91 60 0 0
0.0051 -0.0665 -0.1865 0.829 -0.486 0.276 105 92 60 0 0
0.0030 -0.0648 -0.2002 0.465 -0.678 0.569 88 74 47 0 0
0.0032 -0.0657 -0.2060 0.835 -0.395 0.382 76 62 37 0 0
0.0046 -0.0761 -0.2908 0.645 -0.702 0.302 113 98 67 0 0
-0.0070 -0.0633 -0.3264 0.601 -0.336 -0.725 48 42 31 0 0
-0.0113 -0.0575 -0.3303 0.331 -0.549 -0.767 25 20 17 0 0
-0.0208 -0.0470 -0.3599 0.656 -0.749 0.089 41 32 23 0 0
-0.0205 -0.0494 -0.3797 0.526 -0.846 0.092 78 68 48 0 0
-0.0209 -0.0490 -0.3816 0.513 -0.858 -0.029 83 75 56 0 0
-0.0209 -0.0493 -0.3833 0.361 -0.920 -0.154 85 76 58 0 0
-0.0570 -0.0056 -0.4572 0.651 -0.493 0.578 35 30 26 0 0
-0.0530 -0.0118 -0.4635 0.685 -0.680 0.260 44 33 20 0 0
-0.0498 -0.0174 -0.4740 0.649 -0.625 0.434 70 56 34 0 0
-0.0500 -0.0173 -0.4759 0.703 -0.698 0.137 82 67 47 0 0
-0.0507 -0.0186 -0.4985 0.709 -0.701 0.077 48 39 27 0 0
-0.0517 -0.0185 -0.5122 0.678 -0.719 0.150 76 67 52 0 0
-0.0519 -0.0188 -0.5180 0.689 -0.719 0.089 64 55 40 0 0
-0.0548 -0.0166 -0.5372 0.551 -0.834 -0.005 71 64 53 0 0
-0.0549 -0.0166 -0.5392 0.499 -0.855 0.143 65 57 45 0 0
-0.0549 -0.0168 -0.5411 0.598 -0.801 0.034 84 75 59 0 0
-0.0549 -0.0172 -0.5448 0.674 -0.684 0.279 104 92 74 0 0
-0.0547 -0.0177 -0.5466 0.674 -0.684 0.279 101 90 72 0 0
-0.0545 -0.0182 -0.5483 0.633 -0.717 0.291 83 71 54 0 0
-0.0550 -0.0177 -0.5506 0.735 -0.674 0.077 77 67 50 0 0
-0.0547 -0.0224 -0.5947 0.637 -0.683 0.358 115 101 78 0 0
-0.0424 -0.0432 -0.6283 0.631 -0.756 0.176 72 60 46 0 0
-0.0416 -0.0445 -0.6294 0.449 -0.720 0.530 70 59 41 0 0
-0.0375 -0.0514 -0.6412 0.663 -0.746 0.059 110 93 65 0 0
-0.0368 -0.0525 -0.6424 0.443 -0.887 0.132 92 77 50 0 0
-0.0370 -0.0535 -0.6544 0.828 -0.490 0.272 77 65 40 0 0
-0.0354 -0.0572 -0.6686 0.558 -0.828 0.055 137 123 97 0 0
-0.0172 -0.0888 -0.7288 0.750 -0.647 0.135 136 118 74 0 0
-0.0238 -0.0913 -0.8470 0.745 -0.648 -0.156 122 109 76 0 0
-0.0242 -0.0910 -0.8497 0.686 -0.705 -0.180 72 65 45 0 0
0.0047 -0.0683 -0.1847 0.642 -0.577 0.505 96 81 53 0 0
0.0042 -0.0677 -0.1863 0.682 -0.685 0.256 98 85 54 0 0
0.0029 -0.0669 -0.1969 0.118 -0.853 0.509 89 75 48 0 0
0.0064 -0.0732 -0.2102 0.276 -0.903 0.329 90 76 47 0 0
0.0036 -0.0720 -0.2377 0.237 -0.780 0.579 89 75 48 0 0
-0.0025 -0.0717 -0.3201 0.790 -0.036 -0.612 85 75 50 0 0
-0.0220 -0.0502 -0.3797 0.596 -0.741 0.309 85 74 58 0 0
-0.0224 -0.0498 -0.3816 0.576 -0.815 0.067 86 76 62 0 0
-0.0224 -0.0500 -0.3833 0.585 -0.806 -0.097 72 63 49 0 0
-0.0238 -0.0486 -0.3892 0.596 -0.691 -0.409 70 58 45 0 0
-0.0511 -0.0186 -0.4738 0.649 -0.625 0.434 64 52 33 0 0
-0.0515 -0.0198 -0.4924 0.557 -0.700 0.446 59 51 41 0 0
-0.0530 -0.0197 -0.5120 0.678 -0.719 0.150 57 48 32 0 0
-0.0530 -0.0199 -0.5139 0.597 -0.749 0.286 56 46 36 0 0
-0.0528 -0.0203 -0.5156 0.678 -0.719 0.150 72 64 50 0 0
-0.0528 -0.0207 -0.5193 0.823 -0.525 0.217 83 76 60 0 0
-0.0562 -0.0184 -0.5446 0.708 -0.680 0.191 83 74 58 0 0
-0.0560 -0.0189 -0.5463 0.674 -0.684 0.279 102 92 75 0 0
-0.0558 -0.0194 -0.5481 0.674 -0.684 0.279 99 90 72 0 0
-0.0556 -0.0199 -0.5498 0.674 -0.684 0.279 88 79 60 0 0
-0.0476 -0.0380 -0.6180 0.796 -0.460 0.393 79 69 52 0 0
-0.0428 -0.0457 -0.6271 0.432 -0.870 0.236 61 51 35 0 0
-0.0386 -0.0533 -0.6446 0.417 -0.895 0.161 100 86 56 0 0
-0.0373 -0.0560 -0.6532 0.212 -0.922 0.325 76 64 38 0 0
-0.0362 -0.0577 -0.6540 0.505 -0.754 0.420 150 137 110 0 0
-0.0361 -0.0586 -0.6618 0.495 -0.867 0.045 100 85 61 0 0
-0.0357 -0.0597 -0.6673 0.670 -0.670 0.319 125 111 87 0 0
-0.0360 -0.0605 -0.6796 0.867 -0.297 0.400 111 99 73 0 0
-0.0356 -0.0612 -0.6812 0.780 -0.427 0.456 77 65 49 0 0
-0.0173 -0.0952 -0.7635 0.594 -0.803 0.043 146 127 84 0 0
-0.0174 -0.0955 -0.7678 0.601 -0.798 0.041 163 142 97 0 0
-0.0273 -0.0906 -0.8583 0.411 -0.873 0.263 8 8 8 0 0
-0.0271 -0.0911 -0.8602 0.604 -0.650 0.461 16 16 16 0 0
-0.0280 -0.0909 -0.8700 0.890 -0.294 0.348 115 114 111 0 0
-0.0167 -0.0369 -0.1470 0.139 -0.706 0.694 179 178 179 0 0
-0.0161 -0.0379 -0.1483 0.072 -0.858 0.508 177 177 178 0 0
0.0047 -0.0734 -0.2103 0.358 -0.850 0.387 109 94 64 0 0
0.0049 -0.0738 -0.2117 0.421 -0.900 0.116 119 105 73 0 0
0.0049 -0.0747 -0.2204 0.330 -0.596 0.732 83 69 39 0 0
0.0060 -0.0795 -0.2526 0.588 -0.809 0.031 93 78 51 0 0
-0.0246 -0.0457 -0.3440 -0.027 -0.990 -0.137 18 17 14 0 0
-0.0248 -0.0455 -0.3457 -0.047 -0.997 0.067 29 25 23 0 0
-0.0247 -0.0458 -0.3473 -0.059 -0.983 0.175 36 31 28 0 0
-0.0229 -0.0517 -0.3793 0.408 -0.868 0.284 57 46 38 0 0
-0.0235 -0.0510 -0.3814 0.466 -0.884 -0.032 51 41 32 0 0
-0.0236 -0.0510 -0.3831 0.333 -0.940 -0.078 61 52 42 0 0
-0.0235 -0.0514 -0.3847 0.435 -0.853 -0.289 53 43 34 0 0
-0.0271 -0.0473 -0.3937 0.442 -0.748 -0.496 73 63 42 0 0
-0.0421 -0.0279 -0.4116 0.501 -0.597 -0.626 106 95 76 0 0
-0.0437 -0.0260 -0.4143 0.629 -0.571 -0.528 94 83 64 0 0
-0.0455 -0.0239 -0.4190 0.679 -0.535 -0.502 80 69 50 0 0
-0.0554 -0.0149 -0.4685 0.701 -0.690 0.178 67 56 44 0 0
-0.0521 -0.0202 -0.4753 0.548 -0.762 0.343 62 50 33 0 0
-0.0568 -0.0215 -0.5534 0.610 -0.777 0.160 85 75 54 0 0
-0.0497 -0.0378 -0.6146 0.856 -0.326 0.401 90 78 59 0 0
-0.0489 -0.0392 -0.6177 0.657 -0.733 0.178 78 67 50 0 0
-0.0488 -0.0395 -0.6196 0.510 -0.706 0.491 64 52 35 0 0
-0.0444 -0.0465 -0.6272 0.432 -0.870 0.236 61 50 31 0 0
-0.0401 -0.0544 -0.6465 0.645 -0.628 0.436 157 141 110 0 0
-0.0399 -0.0549 -0.6483 0.570 -0.805 0.167 115 100 72 0 0
-0.0372 -0.0594 -0.6555 0.259 -0.746 0.613 124 108 83 0 0
-0.0375 -0.0592 -0.6577 0.382 -0.773 0.506 109 94 67 0 0
-0.0367 -0.0627 -0.6807 0.854 -0.503 0.135 81 69 52 0 0
-0.0363 -0.0635 -0.6822 0.758 -0.545 0.360 108 98 85 0 0
-0.0361 -0.0639 -0.6840 0.464 -0.859 0.218 85 81 70 0 0
-0.0400 -0.0592 -0.6921 0.986 -0.168 0.013 17 15 12 0 0
-0.0187 -0.0919 -0.7189 0.574 -0.766 0.291 175 157 114 0 0
-0.0186 -0.0922 -0.7208 0.543 -0.717 0.437 158 139 97 0 0
-0.0188 -0.0921 -0.7230 0.421 -0.771 0.478 169 151 108 0 0
-0.0177 -0.0967 -0.7519 0.827 -0.543 0.146 155 134 92 0 0
-0.0263 -0.0945 -0.8504 0.835 -0.482 -0.264 65 61 44 0 0
-0.0279 -0.0931 -0.8591 0.834 -0.473 0.285 10 10 11 0 0
-0.0296 -0.0920 -0.8722 0.811 -0.552 0.194 127 126 124 0 0
-0.0183 -0.0372 -0.1470 0.469 -0.525 0.710 179 178 177 0 0
-0.0164 -0.0400 -0.1480 0.616 -0.755 -0.225 178 178 179 0 0
0.0016 -0.0713 -0.2080 0.431 -0.763 0.481 77 63 37 0 0
0.0059 -0.0783 -0.2166 0.423 -0.748 0.512 89 75 48 0 0
0.0050 -0.0784 -0.2302 0.764 -0.403 0.504 80 66 36 0 0
0.0040 -0.0803 -0.2633 0.872 -0.490 0.027 88 75 44 0 0
-0.0005 -0.0794 -0.3160 0.772 -0.304 -0.558 121 110 79 0 0
-0.0267 -0.0456 -0.3443 -0.027 -0.990 -0.137 13 12 10 0 0
-0.0269 -0.0455 -0.3460 -0.047 -0.997 0.067 22 19 18 0 0
-0.0268 -0.0458 -0.3476 -0.000 -0.949 0.317 30 25 24 0 0
-0.0269 -0.0457 -0.3493 0.305 -0.910 0.282 34 29 26 0 0
-0.0263 -0.0472 -0.3539 0.602 -0.750 0.275 41 36 32 0 0
-0.0243 -0.0525 -0.3793 0.327 -0.927 0.183 36 27 22 0 0
-0.0250 -0.0517 -0.3814 0.294 -0.947 -0.130 54 45 38 0 0
-0.0559 -0.0175 -0.4714 0.768 -0.573 0.287 54 41 25 0 0
-0.0535 -0.0213 -0.4751 0.618 -0.751 0.235 76 63 47 0 0
-0.0566 -0.0228 -0.5330 0.842 -0.539 0.022 52 46 34 0 0
-0.0579 -0.0234 -0.5567 0.741 -0.663 0.110 73 63 47 0 0
-0.0504 -0.0394 -0.6099 0.645 -0.646 0.409 122 111 89 0 0
-0.0421 -0.0544 -0.6430 0.578 -0.768 0.277 75 59 34 0 0
-0.0415 -0.0556 -0.6463 0.645 -0.628 0.436 137 122 93 0 0
-0.0405 -0.0572 -0.6493 0.469 -0.651 0.597 116 103 79 0 0
-0.0405 -0.0575 -0.6513 0.533 -0.790 0.303 94 82 59 0 0
-0.0391 -0.0600 -0.6578 0.324 -0.887 0.331 112 96 69 0 0
-0.0377 -0.0645 -0.6821 0.242 -0.943 -0.226 101 91 78 0 0
-0.0404 -0.0616 -0.6909 0.986 -0.168 0.013 18 17 13 0 0
-0.0236 -0.1006 -0.8427 0.886 -0.455 -0.083 117 104 75 0 0
-0.0309 -0.0937 -0.8739 0.615 -0.602 0.510 137 136 134 0 0
-0.0194 -0.0383 -0.1469 0.449 -0.545 0.708 178 178 176 0 0
0.0001 -0.0719 -0.2080 0.604 -0.724 0.334 80 67 41 0 0
-0.0285 -0.0461 -0.3478 -0.114 -0.927 0.356 18 15 14 0 0
-0.0285 -0.0464 -0.3494 0.005 -0.950 0.312 21 18 16 0 0
-0.0280 -0.0472 -0.3507 0.136 -0.902 0.411 33 29 26 0 0
-0.0272 -0.0484 -0.3520 0.516 -0.769 0.378 45 41 38 0 0
-0.0445 -0.0303 -0.4112 0.602 -0.568 -0.561 97 86 66 0 0
-0.0475 -0.0268 -0.4183 0.631 -0.637 -0.443 97 86 66 0 0
-0.0596 -0.0240 -0.5549 0.650 -0.719 0.246 79 66 50 0 0
-0.0594 -0.0244 -0.5567 0.650 -0.719 0.246 79 67 51 0 0
-0.0516 -0.0415 -0.6173 0.507 -0.789 0.347 100 89 68 0 0
-0.0421 -0.0559 -0.6278 0.457 -0.845 0.277 103 91 67 0 0
-0.0419 -0.0564 -0.6296 0.457 -0.845 0.277 89 77 54 0 0
-0.0377 -0.0649 -0.6547 0.494 -0.647 0.581 106 91 65 0 0
-0.0388 -0.0646 -0.6677 0.194 -0.772 0.605 122 108 82 0 0
-0.0388 -0.0648 -0.6696 0.526 -0.729 0.437 102 87 62 0 0
-0.0384 -0.0668 -0.6831 0.828 -0.560 -0.021 81 75 66 0 0
-0.0238 -0.1031 -0.8387 0.802 -0.589 -0.101 160 142 103 0 0
-0.0240 -0.1031 -0.8411 0.840 -0.542 -0.014 136 122 89 0 0
-0.0323 -0.0948 -0.8737 0.811 -0.566 0.145 128 127 125 0 0
-0.0069 -0.0595 -0.1592 0.085 -0.862 0.500 156 146 129 0 0
-0.0060 -0.0609 -0.1604 0.177 -0.736 0.653 180 166 141 0 0
-0.0013 -0.0723 -0.2065 0.756 -0.582 0.300 75 63 41 0 0
-0.0017 -0.0720 -0.2081 0.645 -0.699 0.309 77 65 43 0 0
0.0031 -0.0797 -0.2181 0.326 -0.749 0.577 82 68 41 0 0
0.0027 -0.0805 -0.2314 0.118 -0.906 0.407 80 66 38 0 0
0.0029 -0.0813 -0.2372 0.494 -0.846 0.202 93 79 50 0 0
-0.0302 -0.0465 -0.3462 0.596 -0.496 0.632 9 7 7 0 0
-0.0296 -0.0474 -0.3475 0.268 -0.884 0.382 8 6 7 0 0
-0.0289 -0.0486 -0.3488 0.526 -0.851 0.006 8 7 6 0 0
-0.0286 -0.0493 -0.3519 0.680 -0.689 0.252 30 28 24 0 0
-0.0456 -0.0317 -0.4109 0.643 -0.548 -0.535 102 91 71 0 0
-0.0516 -0.0246 -0.4234 0.627 -0.616 -0.476 88 77 57 0 0
-0.0606 -0.0256 -0.5544 0.678 -0.601 0.424 94 81 66 0 0
-0.0596 -0.0272 -0.5575 0.816 -0.471 0.335 89 77 62 0 0
-0.0438 -0.0567 -0.6279 0.604 -0.639 0.477 85 72 53 0 0
-0.0435 -0.0571 -0.6297 0.661 -0.665 0.348 79 67 46 0 0
-0.0429 -0.0584 -0.6329 0.623 -0.776 0.095 100 87 67 0 0
-0.0429 -0.0587 -0.6369 0.513 -0.818 0.260 116 103 79 0 0
-0.0427 -0.0593 -0.6386 0.421 -0.827 0.373 86 70 50 0 0
-0.0400 -0.0660 -0.6673 0.684 -0.541 0.489 116 103 77 0 0
-0.0395 -0.0668 -0.6688 0.684 -0.541 0.489 101 87 62 0 0
-0.0241 -0.1057 -0.8370 0.832 -0.555 -0.013 162 143 101 0 0
-0.0251 -0.1047 -0.8404 0.840 -0.542 -0.014 152 137 98 0 0
-0.0333 -0.0964 -0.8706 0.889 -0.388 -0.244 93 92 87 0 0
-0.0331 -0.0968 -0.8726 0.895 -0.444 0.035 119 118 116 0 0
0.0009 -0.0753 -0.1823 0.611 -0.501 0.612 84 69 42 0 0
-0.0021 -0.0740 -0.2092 0.796 -0.588 0.142 78 66 41 0 0
0.0019 -0.0811 -0.2239 0.251 -0.845 0.472 81 68 36 0 0
0.0027 -0.0824 -0.2250 0.183 -0.900 0.396 85 70 39 0 0
0.0014 -0.0809 -0.2284 0.579 -0.646 0.497 82 68 41 0 0
0.0031 -0.0861 -0.2559 0.653 -0.718 0.241 85 71 44 0 0
0.0027 -0.0873 -0.2725 0.578 -0.632 0.516 102 87 58 0 0
-0.0000 -0.0873 -0.3089 0.462 -0.583 0.669 103 88 55 0 0
-0.0299 -0.0502 -0.3518 0.293 -0.780 0.553 21 16 15 0 0
-0.0297 -0.0506 -0.3534 0.565 -0.732 0.381 33 29 26 0 0
-0.0471 -0.0324 -0.4109 0.356 -0.735 -0.578 88 76 54 0 0
-0.0523 -0.0264 -0.4229 0.808 -0.505 -0.303 91 80 60 0 0
-0.0563 -0.0293 -0.5030 0.824 -0.566 0.027 54 48 36 0 0
-0.0589 -0.0289 -0.5348 0.778 -0.628 -0.032 80 72 55 0 0
-0.0591 -0.0288 -0.5369 0.585 -0.806 -0.087 75 66 50 0 0
-0.0621 -0.0295 -0.5831 0.705 -0.564 0.430 77 67 49 0 0
-0.0540 -0.0437 -0.6108 0.414 -0.799 0.436 127 110 84 0 0
-0.0442 -0.0602 -0.6385 0.487 -0.724 0.488 69 57 35 0 0
-0.0407 -0.0667 -0.6547 0.554 -0.784 0.278 100 89 62 0 0
-0.0417 -0.0660 -0.6616 0.596 -0.747 0.295 84 73 51 0 0
-0.0415 -0.0665 -0.6633 0.420 -0.711 0.564 69 58 39 0 0
-0.0408 -0.0679 -0.6665 0.762 -0.558 0.328 125 111 87 0 0
-0.0405 -0.0684 -0.6682 0.607 -0.712 0.354 107 91 67 0 0
-0.0207 -0.1022 -0.7282 0.665 -0.746 -0.011 178 161 117 0 0
-0.0208 -0.1053 -0.7584 0.707 -0.700 0.103 173 156 107 0 0
-0.0227 -0.1075 -0.8059 0.615 -0.732 0.294 179 161 113 0 0
-0.0228 -0.1076 -0.8081 0.635 -0.759 0.147 179 162 113 0 0
-0.0251 -0.1073 -0.8363 0.832 -0.555 -0.013 157 139 98 0 0
-0.0261 -0.1063 -0.8397 0.840 -0.542 -0.014 149 133 93 0 0
0.0030 -0.0809 -0.1826 0.419 -0.810 0.410 79 65 39 0 0
0.0021 -0.0878 -0.2601 0.783 -0.617 0.077 83 69 42 0 0
0.0016 -0.0883 -0.2724 0.678 -0.453 0.579 103 88 59 0 0
0.0027 -0.0900 -0.2734 0.841 -0.505 0.193 111 96 65 0 0
0.0021 -0.0894 -0.2752 0.677 -0.734 -0.058 95 80 49 0 0
-0.0026 -0.0874 -0.3188 0.838 -0.487 -0.248 94 83 63 0 0
-0.0316 -0.0511 -0.3569 0.300 -0.907 0.296 21 17 14 0 0
-0.0312 -0.0519 -0.3583 0.344 -0.938 0.038 22 18 14 0 0
-0.0493 -0.0325 -0.4131 0.410 -0.772 -0.487 93 81 58 0 0
-0.0532 -0.0281 -0.4225 0.799 -0.537 -0.270 97 86 66 0 0
-0.0600 -0.0301 -0.5326 0.581 -0.794 -0.183 72 63 46 0 0
-0.0599 -0.0306 -0.5343 0.638 -0.768 -0.057 79 70 53 0 0
-0.0615 -0.0297 -0.5489 0.753 -0.654 0.072 79 68 50 0 0
-0.0639 -0.0281 -0.5641 0.638 -0.769 -0.047 45 37 26 0 0
-0.0627 -0.0309 -0.5746 0.663 -0.674 0.326 59 44 31 0 0
-0.0607 -0.0349 -0.5863 0.609 -0.759 0.231 132 116 92 0 0
-0.0606 -0.0352 -0.5882 0.615 -0.761 0.209 90 75 53 0 0
-0.0589 -0.0386 -0.5983 0.711 -0.513 0.481 141 124 98 0 0
-0.0558 -0.0440 -0.6091 0.686 -0.598 0.414 107 93 69 0 0
-0.0556 -0.0445 -0.6108 0.562 -0.627 0.539 128 112 85 0 0
