ply
format ascii 1.0
element vertex 665
property float x
property float y
property float z
property uchar diffuse_red
property uchar diffuse_green
property uchar diffuse_blue
end_header
0.008863749601805696 0.006274884002801073 -0.208738624415138 172 151 107
0.009623569443064396 0.008676331843037538 -0.20977784269373542 143 123 89
0.009516048884509541 0.008014712662345283 -0.21146938655579148 132 112 82
0.010376897596078113 0.010774311216627419 -0.21242484541989415 167 151 118
0.011051074476620262 0.012875280617398087 -0.21351719107034978 172 156 124
0.012393253632244774 0.01733883042855664 -0.2140872013864741 166 145 113
0.013837677898808541 0.022166071855772296 -0.2145654203127327 181 161 125
0.015244619487361007 0.026863022278249937 -0.21505993753887853 205 186 146
0.016794656661486815 0.03206853908713157 -0.21542846160621204 214 197 156
0.018128680436411096 0.036512021417177944 -0.21595470457996224 191 174 140
0.018980629131352032 0.03925091065638817 -0.2168555981533161 138 121 94
0.01979196737470834 0.041847174059929104 -0.21778250666379295 157 138 107
0.01998875782013952 0.04226767239697143 -0.21920276033098712 182 164 126
0.019932629879604855 0.04179196028448407 -0.22083045034532667 218 203 168
0.02016517618969231 0.04233880180329446 -0.22222341724718234 164 144 114
0.02030626857917022 0.04256142636274046 -0.22369226108783288 187 168 132
0.020415018197933333 0.042669182719324586 -0.22518913045112182 205 188 150
0.020778690164087718 0.04368092647121121 -0.22647305775623278 157 137 97
0.020947997945023118 0.04400331158122743 -0.22792001734301162 181 165 124
0.021281102495728725 0.04490689034363633 -0.22922815846470182 186 173 130
0.021920831582111597 0.046899177989401124 -0.23027229122031112 172 149 110
0.021755891247474637 0.04603490707354717 -0.23200627876793775 164 140 100
0.022025336359110373 0.04671277121001089 -0.23336742500145236 195 181 135
0.022122120686814246 0.04677725710672448 -0.23487908863433613 185 165 129
0.022497701772871963 0.04783229227739472 -0.2361470107523092 172 148 108
0.022741040177477908 0.04841750051635525 -0.23753041104820874 192 175 131
0.02308658034252984 0.049366145268833816 -0.23882263538608492 151 136 102
0.023344804585992703 0.05000444252318452 -0.24019187619064924 89 73 42
0.023471936332339717 0.05017638443469531 -0.24167910318394334 102 84 56
0.023599145783961217 0.05034839432846922 -0.2431674512390748 105 85 55
0.023747520393639077 0.050595539363385435 -0.24463765809364815 179 161 122
0.023308895974242717 0.04875232665283591 -0.24664838448258783 217 202 166
0.023383791955160917 0.048736837168102294 -0.24819179591293303 147 130 98
0.023470873881828697 0.048764448270276296 -0.24972567004013876 99 82 52
0.023651719013798117 0.0491259199505795 -0.25117342727330727 91 74 44
0.024040889532989745 0.05022992230961852 -0.2524255566137583 100 80 53
0.02440522332985704 0.05124567294026657 -0.25369944687130513 118 100 70
0.024830947043284153 0.0524806503712153 -0.254913313516259 131 114 87
0.02517227483343271 0.05341490617646909 -0.2562059216415781 118 100 78
0.025976528715825523 0.056001468879579956 -0.25705063678006856 121 105 82
0.02682940329974372 0.05876274726598934 -0.2578415943342248 140 125 95
0.027337160739686325 0.06029292708310979 -0.2589623666393709 167 147 114
0.028112002473183267 0.06277764091913683 -0.25981764987030387 173 150 115
0.02881648724649334 0.06501207898133207 -0.26073616580597786 187 167 132
0.029781454191387342 0.06817839859396072 -0.2613903680744421 197 179 144
0.030170203932386376 0.06928631058422433 -0.26261198550189363 180 162 128
0.03065426175851234 0.07073535419246926 -0.26373595284936296 175 157 124
0.03130117753014554 0.07276744016494859 -0.2646923016032998 188 168 131
0.031779413352419114 0.07419685330105145 -0.2658153323339456 219 203 164
0.03228258250246163 0.07571600862431462 -0.2669099629306178 206 192 153
0.03251756417217442 0.0762756229538128 -0.2682772600996714 197 183 140
0.032830694854463445 0.07711509909423186 -0.2695636489782257 208 194 156
0.033185129847090655 0.0781026995894651 -0.27080608543906304 203 188 155
0.03353923135655069 0.07908936238981018 -0.27204740132897337 190 175 141
0.03419813486719753 0.08116871427570621 -0.272966563550981 191 175 141
0.03472089955778442 0.08276088131667175 -0.2740246942828822 189 171 138
0.03520720388104984 0.08422290412771813 -0.275118143863735 198 180 145
0.03569589759480357 0.08569403173847343 -0.27620598818909325 209 193 155
0.03618148988838395 0.08715457075444741 -0.2772940838319968 198 182 145
0.036625324228559825 0.08846576502168102 -0.27842429234745375 185 169 136
0.03713767514603079 0.09002340282644779 -0.27947741310525304 163 143 110
0.03750665017728478 0.09106672380184305 -0.2806839375676134 172 154 115
0.03803048352599846 0.0926666491590889 -0.28171850005562277 197 179 140
0.03827017064423597 0.09324613790646158 -0.28306365010718293 198 180 142
0.038952240348486496 0.09541578266169205 -0.28391693791275374 193 175 137
0.03949454499926151 0.09708385462394559 -0.28492095854844735 188 170 129
0.03971593671827171 0.09759840490979337 -0.28628173752361546 185 164 122
0.039879593862499216 0.09790523741551965 -0.287707790218654 185 163 120
0.04031794283134156 0.09920046405740168 -0.28882267350197294 192 172 128
0.040667162658059995 0.10017529726718724 -0.2900367482874525 194 176 134
0.04117056228136902 0.10170555956799604 -0.2910723954320148 186 167 126
0.04159614844550827 0.10295613706214982 -0.2921944579182852 204 186 142
0.04202112004774203 0.1042049241798599 -0.2933148115281548 212 196 151
0.042440338501912485 0.10543340070440024 -0.29443945202072397 207 192 149
0.043303948080785276 0.10826433776285667 -0.2950409447952489 213 196 157
0.04371412800320639 0.10946152056832331 -0.2961688040415906 189 170 134
0.043409928684625225 0.1080822069863864 -0.29814031635764143 175 156 120
0.04368832188280353 0.10880389864724148 -0.29942487401113166 170 152 115
0.043975975845314506 0.10955912938445217 -0.30069770092549214 173 155 116
0.044281023142929546 0.11037729113979643 -0.3019488453205248 167 146 108
0.04463708145230476 0.11137984971296747 -0.3031373518092259 160 138 102
0.045053590030824354 0.11260107034370684 -0.304250808024677 163 142 103
0.04546946691163546 0.11382042200470101 -0.3053626715366619 185 167 122
0.04581504314347867 0.11478607051489344 -0.30655844422306017 195 178 129
0.04633026982655237 0.11636540255017151 -0.30754347724958936 196 178 130
0.046826042770414265 0.11787500389320658 -0.30854901834795306 189 169 122
0.04720451320094361 0.11896079886406369 -0.3096973196855635 182 165 119
0.047519181549671406 0.11981602680339315 -0.31092357978418994 174 156 111
0.047779785530802484 0.1204757316835509 -0.3122167346777355 172 152 108
0.0482029370661526 0.12172414110982101 -0.31330389008103227 171 152 107
0.04839682665302485 0.12214252282656968 -0.3146798858496309 165 151 106
0.048667489737432616 0.12283902303768963 -0.3159582134808881 159 144 104
0.04877654360007053 0.12294986842579783 -0.3174433435925713 151 135 100
0.049194709809348154 0.12418118999462552 -0.3185312880532071 144 129 95
0.049385072783186865 0.12458675787143673 -0.31991198955566696 135 120 85
0.04952686339538819 0.124816039558979 -0.32135636088787317 130 115 81
0.0495492460697351 0.12461181498256053 -0.3229580140727553 134 119 84
0.04987275073715896 0.12550023413614828 -0.32416628579159606 135 118 83
0.0501194050037365 0.12610981797280765 -0.3254748273635648 137 121 83
0.050351331509758825 0.12666595742018394 -0.32680262967346735 145 129 88
0.05052759171018733 0.1270198575334537 -0.3282045818741163 144 129 87
0.050847930530285246 0.12789730684674214 -0.32941403163990063 139 125 85
0.05118084110215992 0.1288206783322004 -0.330605317332197 132 117 79
0.05152614103590506 0.1297893514925381 -0.3317784411480884 129 114 77
0.051810498433937924 0.13053659676585758 -0.33303285536594646 128 113 76
0.05199160756033472 0.13090825905898829 -0.33442751604113086 128 113 79
0.05229802257121383 0.13173595450051173 -0.3356507578521461 119 103 72
0.05258462689702551 0.13249170145645575 -0.33690024532444174 114 99 67
0.05259907255809278 0.13225628661878738 -0.3385259239781651 118 103 69
0.0530949627877561 0.13377454679473363 -0.33948427053478314 121 106 72
0.05359952999893218 0.13532504914294008 -0.34042695589070726 121 106 72
0.0539920625705583 0.13646773693280362 -0.34152336346084783 120 105 71
0.054357116745344006 0.13751059902329052 -0.3426563441953581 118 102 69
0.05462845411247442 0.1382119009701497 -0.34392033519234194 115 99 68
0.054763659508844625 0.13841654122680594 -0.3453775744356594 114 98 68
0.0550413467090809 0.13914108870449945 -0.34663210061628524 113 98 69
0.05553956373808062 0.14067102416500693 -0.3475689393742423 113 97 68
0.055554970707317304 0.14043806237812873 -0.349199276471974 117 102 71
0.055377514137999566 0.1394999420846702 -0.3511120707886878 121 107 74
0.055599198886288156 0.14001973686714395 -0.35244857724476025 116 102 72
0.055506356838904314 0.13938958943337082 -0.35424544604275343 108 94 66
0.05545682562531948 0.13891711011874577 -0.35598281162787115 110 95 67
0.05601370574964454 0.14066249819981153 -0.35682822027455097 109 94 67
0.05621922026776561 0.14112281372230304 -0.3581904471029011 105 89 62
0.0566259250212909 0.1423195909780922 -0.35925311570459817 99 84 57
0.05674460477526756 0.1424620784528328 -0.36074444654190874 94 81 53
0.05682689746781662 0.14247103430389235 -0.36229187438512406 92 80 51
0.05778635257672257 0.14569378440075614 -0.36251658516372476 93 81 52
0.05799783412129325 0.1461766362188603 -0.36386596313685554 98 85 56
0.058034883806169175 0.14601989484018993 -0.3654812351944631 106 91 61
0.05791086379850462 0.14527195448856853 -0.3673454674224551 112 98 67
0.0578874172813219 0.14489219412144294 -0.3690597911311016 105 92 62
0.058544339875913926 0.1470088765600065 -0.36972718157974194 100 87 60
0.05881204243971047 0.14769764602152807 -0.37099216909106025 93 80 57
0.058807003436271335 0.14738488695561838 -0.37268125559229215 88 73 53
0.05912880426310067 0.14827228318873256 -0.37386227345378137 88 71 50
0.059352803799814356 0.1488005096405438 -0.3751955714349597 90 74 53
0.05942699717579256 0.14877804649321344 -0.3767651787900676 88 73 49
0.05955318828656583 0.1489464356482693 -0.3782544321729681 89 74 48
0.05958984472855444 0.14878524750907332 -0.37988747209802903 83 68 41
0.0599028196917068 0.1496403575207945 -0.3810815106896858 78 63 37
0.060297917862247925 0.15079796188107938 -0.3821425299877667 76 61 37
0.060529235317605914 0.15135293636725947 -0.38346515712322576 79 63 41
0.060589131148555686 0.1512765481501286 -0.38506512888329336 79 63 40
0.06105425656228455 0.15269280101922483 -0.3860086722099568 75 59 36
0.0614817554438826 0.1539709602171509 -0.3870103004956214 70 54 31
0.0621172103043078 0.15601631245807035 -0.3876682145380239 62 45 23
0.06252451646609558 0.15722124158032783 -0.3886959896346215 68 50 28
0.06279885958566839 0.15793608412462407 -0.38994100440204765 69 51 30
0.063058115090946 0.1585953724791375 -0.3912103439836313 67 49 28
0.06318623192958064 0.15877062723742155 -0.3926977789350056 68 48 28
0.06339177786937619 0.15923159085632488 -0.39405691320449976 66 45 26
0.06335121176737399 0.15878334247456485 -0.3958299875652518 67 46 27
0.06285156094986304 0.15663796753077244 -0.3983816571559123 67 47 26
0.06299987706084123 0.15688608500017986 -0.399845171549823 63 45 22
0.06317149419997924 0.15722018091729512 -0.4012700815699778 59 41 20
0.06326459467347811 0.1572637125875491 -0.4028299071319113 57 39 20
0.06341448787746072 0.15751707159099562 -0.4042941098426416 58 38 19
0.06412244398807841 0.15983592653599304 -0.4047977367846832 59 38 20
0.06421760147216818 0.1598869389015908 -0.40635477980532964 62 41 24
0.0637064609322574 0.15769190986344236 -0.40896695533255795 68 47 29
0.06387735980122172 0.15802217234172186 -0.41039981505872764 70 49 28
0.06401295635309358 0.15822145526387593 -0.41189526233578166 69 48 27
0.06425950714884546 0.15883190572953854 -0.413196842357315 74 53 32
0.06469595526105348 0.16014673714576408 -0.4141627866784599 73 52 31
0.06473573594118498 0.15999037301943353 -0.41582895492398436 69 48 27
0.06427064443267959 0.15795972217802276 -0.4183964802537206 74 53 32
0.0639778047749715 0.15656686583889468 -0.4206660401567028 73 53 32
0.06435986838913958 0.1576792965381015 -0.4217319565233602 66 48 26
0.06471354905677885 0.1586866728895068 -0.4228467487771432 72 54 32
0.06453647786910092 0.15772182251844036 -0.4249197537758592 80 62 40
0.06501686077812484 0.1592002303008728 -0.42580455861407407 74 56 34
0.0654183016284947 0.16038569500813465 -0.42682960703137107 74 57 34
0.06551991034628551 0.16045613399412295 -0.4284009746571501 87 71 45
0.06581505259943365 0.16124651371335802 -0.4296184408706828 98 83 55
0.06548940130115545 0.15972593470051846 -0.4319803631516486 96 80 52
0.06538244889089331 0.1590184170674519 -0.43394518805817783 88 73 46
0.06532379864622015 0.15848999496165658 -0.4358250430038543 97 81 54
0.06504913657176252 0.15715582852175478 -0.4381123869595786 102 86 57
0.06477265461369151 0.15581359093098499 -0.4404104934404591 103 86 57
0.06537262162497726 0.15773858947644334 -0.441066679262086 104 87 56
0.06593583166236117 0.15952742531781824 -0.4417868091400971 104 88 56
0.06595628783779833 0.15929164397368062 -0.44353134064376115 105 88 56
0.06569449657321448 0.15800165350104084 -0.44581630703160346 98 82 49
0.06583713174440235 0.15822071147237407 -0.44733549854891314 98 82 49
0.06601731583098217 0.15857982407823534 -0.44878389322855755 104 87 54
0.06617098862507734 0.15883974032513154 -0.4502840520212555 111 92 60
0.06610159693562093 0.15826556816203796 -0.45221664274638995 114 95 63
0.06616040508085283 0.15817004655603195 -0.4539048054762717 119 100 68
0.06616562791429857 0.15787362169018637 -0.4556999092123786 121 102 69
0.06595481393533127 0.15676814007851356 -0.4579209423709544 120 101 68
0.06517827469417956 0.15354365161100744 -0.4612594429672774 116 97 64
0.06533383919862189 0.15380717634924798 -0.46277573227151636 114 95 61
0.06600885193138745 0.15601648698779133 -0.4632652989971616 117 99 63
0.06592951981967286 0.155400018725955 -0.46524645151248417 120 102 66
0.06589639222984854 0.15495595009436694 -0.46714014327388725 119 101 65
0.06586324210110701 0.15451110115249367 -0.46903785556254757 116 99 64
0.06582998882538796 0.15406516742033954 -0.47093976217578454 113 97 63
0.06593857204578044 0.15415082863151783 -0.4725596414358313 112 96 62
0.06579663664347506 0.1532956661967586 -0.47468847518482793 122 106 68
0.06573606673304866 0.15274508152491156 -0.4766576666954936 134 117 74
0.06567537024568687 0.15219324210515905 -0.47863156845203114 142 123 81
0.06573230769930459 0.15208271631762688 -0.4803691191265917 146 124 83
0.06572316364310524 0.15172328444695546 -0.4822451305296113 148 128 86
0.06572141041702748 0.15139100181715992 -0.48410959512329244 148 129 87
0.06575307036483788 0.1511837996080748 -0.4859084792941386 154 135 93
0.06555386057131041 0.15010715017429294 -0.48819019766682614 154 135 93
0.06531446978351882 0.14887805259319672 -0.49056239404214025 143 121 80
0.06508510961311637 0.14768545365621297 -0.4929209049383698 147 126 84
0.0648920207860182 0.14662825766550752 -0.4952103789711952 157 136 93
0.06475226237473077 0.14577090590658143 -0.49739401128890165 151 130 87
0.06468922622391857 0.14520181061789644 -0.49942105604654385 150 129 84
0.06463728191820528 0.14467373945086534 -0.5014291738122683 150 129 85
0.06461224409656639 0.1442464068552519 -0.5033843928110895 144 122 82
0.06431598953102305 0.14279464474997988 -0.5059241781677177 142 120 80
0.06431340992686098 0.14245031249986265 -0.5078414361737 149 128 87
0.06418720762395613 0.14163836622277637 -0.5100289784393035 152 134 92
0.06405104886705423 0.14078779910131317 -0.5122437722182374 153 136 93
0.06396967480311917 0.14014329197407396 -0.5143454604792895 154 136 94
0.06385379345177673 0.139367417343696 -0.5165273969091649 141 123 83
0.06358929984429014 0.13802838905499148 -0.519040049572366 146 127 91
0.06341420751262494 0.13702627984074178 -0.521364376608926 145 128 87
0.06347478016052743 0.13691515808282143 -0.5231759488041766 157 140 97
0.06343393950184342 0.136419487961558 -0.5252146374460315 145 126 87
0.06339785466585937 0.13594105475249052 -0.5272472271181877 124 105 72
0.06313995495520883 0.13462121455542014 -0.5297783385781838 125 108 77
0.06294063360126252 0.1335220631000758 -0.5321864568344976 130 113 84
0.0628890672749011 0.132982058050417 -0.5342701022903055 142 125 98
0.06372953723629027 0.13582565619750603 -0.5343497503932346 140 124 103
0.06373336741655347 0.13549552379006297 -0.5363103914169007 136 124 106
0.06378335338226346 0.13533997303486983 -0.538170157794015 145 136 121
0.0638334195157473 0.13518418983093666 -0.5400328096044993 163 158 146
0.06385155861259177 0.13490655468065366 -0.5419714650414452 189 185 177
0.06396143827899892 0.1349770073919747 -0.5437034236782325 204 202 197
0.0639108978328505 0.1344370809589921 -0.5458065484505766 210 210 209
0.06403236653994795 0.1345506462127542 -0.5475173061431816 212 213 212
0.06448097951614765 0.13590879656347746 -0.5484720560863638 215 214 215
-0.0046141963759031325 -0.034801039552526 -0.1495901333059199 220 207 179
-0.003808070526666079 -0.0322521122959084 -0.15074407659255118 196 180 150
-0.0021670150411186168 -0.02705002751466836 -0.1530192033235336 138 124 98
-0.0013087262982227066 -0.024314739528757776 -0.1541273052776978 166 154 126
0.0004155241510102915 -0.018534942372287123 -0.15475161491160255 147 128 103
0.0006216328575417256 -0.01808928332566119 -0.1562056456777032 134 111 82
0.0014291924637359725 -0.015528815284429023 -0.1573222256605173 153 131 92
0.0016212410203970996 -0.015132183523932669 -0.15878183477826616 175 155 108
0.001918687930266113 -0.01436483584208502 -0.1601816539423463 141 124 83
0.0020541823616759894 -0.014167295977009414 -0.16167432914202245 117 102 73
0.002597874270464179 -0.012533118333880308 -0.16293042966055932 112 96 71
0.0030008210199334133 -0.011393925657685905 -0.16426605819965895 94 76 54
0.003592142330499315 -0.009591020807480692 -0.16548838369483942 168 147 118
0.004555840443660451 -0.006475700821150621 -0.16648450513206367 193 174 133
0.004701849665211619 -0.006240261851455271 -0.16796606533958958 191 171 128
0.005181072125711322 -0.00483057248258488 -0.16924597445662642 231 212 170
0.005511253378193387 -0.003945876252823298 -0.17061477864022936 187 169 128
0.006059686894997002 -0.0022913690418074548 -0.17184764719332452 121 100 67
0.006563240892662938 -0.0007945904627709999 -0.1731052695991239 171 153 112
0.006773871226155564 -0.00033082259144671944 -0.1745443325030856 165 149 100
0.007027843974111096 0.0002858576015695932 -0.17595619411655744 193 177 128
0.007166098668461737 0.0004940720824001266 -0.17744186987402827 134 114 75
0.007486469362020631 0.0013451582573638307 -0.17881119679881796 127 108 73
0.007286146730640302 0.000357328271329449 -0.18051803102357228 104 83 49
0.007606012378468464 0.00120645205011876 -0.18188869072479125 157 138 95
0.008345267204861659 0.0035377825862524317 -0.18298152658607408 151 136 94
0.008279082801631515 0.00302300651924179 -0.1846052266886593 93 75 46
0.008434701428411732 0.003291891963353284 -0.1860833186733017 110 93 61
0.008612029037906872 0.003637399860321633 -0.18754760057081551 122 107 69
0.008627875817271095 0.003411538662188421 -0.1891225843408414 95 79 49
0.008437516361253242 0.0024555875043272973 -0.1908415667104833 102 86 58
0.008469238974059268 0.002284883365453183 -0.19241138493671073 87 71 47
0.008547536961025212 0.0022786847281480033 -0.193950919478112 74 60 34
0.008697341371130752 0.002525413850255828 -0.19544190626050867 69 54 31
0.009030998244639689 0.0034232418918007657 -0.19680363662504463 69 54 31
0.00873760488872517 0.0020994280093248885 -0.1986117980795382 68 53 29
0.00954877816449327 0.004689455590689978 -0.19963155234895946 104 85 55
0.009787250991053039 0.005250237351214271 -0.20105997365270387 136 119 82
0.009994555076103053 0.005700489367248263 -0.20251114111507623 98 82 49
0.010060610633347032 0.005649656103500891 -0.20406647709246578 126 107 75
0.01005942708604617 0.005359921786439348 -0.20567346749929483 129 109 77
0.010043195602064403 0.005016320141905201 -0.20729427865374989 136 115 78
0.009981272319408416 0.004510020812361223 -0.20895218449585726 171 151 109
0.010996038555641723 0.007826428793540341 -0.20979858636305895 140 122 86
0.01137803889707463 0.008896793013559612 -0.21111883885988977 130 112 85
0.011609643809925175 0.009433094265199005 -0.21255297924588773 154 140 109
0.012980346651306832 0.014017587174622675 -0.21310659683936312 168 153 120
0.013840174507828179 0.0167881988871037 -0.21404558279733116 172 153 117
0.015311199589860332 0.02173332322859635 -0.21449858632738994 202 183 142
0.01678746206985734 0.026699479070250096 -0.2149339372649514 212 193 150
0.018319439735002125 0.031866275559769834 -0.21531138842337183 215 197 155
0.019566168030649762 0.036020477829622276 -0.21590291720494983 180 163 129
0.02050466832799684 0.03907945704103316 -0.21673172015324216 145 128 101
0.021035774938330427 0.04068921237926773 -0.2178833402657451 150 130 100
0.021460290753510483 0.041919910962855154 -0.21911875153535704 180 161 121
0.021184934382227162 0.04065757734715087 -0.2209277111177217 213 198 163
0.021447617750197844 0.041311628054835486 -0.22229675993149067 158 135 105
0.02170747391794656 0.04195565955301058 -0.22366783522733152 210 192 150
0.022017135076646814 0.04277733022770066 -0.2249968150278718 222 205 167
0.022552785241037418 0.04440516856030633 -0.2261340339492505 123 100 67
0.022620437706968144 0.04436397609583857 -0.22766582922332726 127 108 75
0.022972586449665176 0.04533770921072956 -0.22895596081276134 149 129 91
0.023222336229318446 0.04594615726275113 -0.2303329740286364 187 167 122
0.023209590679485328 0.045617376180465054 -0.23193741045239352 199 178 134
0.02343660220374523 0.0461444189708738 -0.2333353569801612 188 169 123
0.02369202275390451 0.04677294395560187 -0.2347084151818156 168 144 108
0.023886595391426225 0.0471840687852375 -0.23613500757247285 167 142 105
0.024229014650562743 0.04812360841061064 -0.23743050172279265 191 175 134
0.024647538186664302 0.04933548651922559 -0.2386566220287106 145 129 96
0.024785760213546053 0.04954521121250437 -0.24013317517178434 94 77 49
0.024921577810277793 0.04974614359733591 -0.24161297802069884 112 93 66
0.025041167367635946 0.04988880646056434 -0.24310868538215794 96 75 51
0.024996319881322757 0.0494426163262953 -0.2447566301891595 150 127 93
0.024611165359524095 0.04777734484501263 -0.24672207410209412 191 172 135
0.024628651310238482 0.04755294015170591 -0.24832036541111335 158 138 104
0.0247886492373063 0.047838670553986495 -0.2497878635733106 113 93 59
0.024997917753187514 0.048300821559013093 -0.25120985092087317 130 114 77
0.025556135277693588 0.050013804952263596 -0.2523018162997751 156 140 105
0.02595097982306309 0.05114163874132002 -0.2535456361362483 164 148 115
0.026891530691644794 0.054227119350403745 -0.25426477683944376 150 130 103
0.027214838857291777 0.05509951623465525 -0.25557068251728154 134 114 88
0.027849267206567614 0.05708865001289037 -0.2565738799262888 175 159 125
0.028673045444638473 0.05975834519219505 -0.25738774165322703 194 176 140
0.0293261137199662 0.06181626153926249 -0.25836224910450234 196 177 137
0.030032270685661343 0.06406573603041402 -0.25927947135132884 218 200 158
0.030567069637217732 0.06570051350114647 -0.2603613001930985 231 215 175
0.03109708991732908 0.06731874510494452 -0.2614443656972217 236 223 184
0.03169210673517096 0.06917125974965319 -0.26245865691948256 212 199 164
0.0322843667596416 0.07101461759232305 -0.26347147666545984 207 193 160
0.032848367858745495 0.07275707863473536 -0.26450877644884924 197 181 140
0.03335309873729167 0.07428697390394524 -0.2656027361836107 229 217 177
0.03376184497711762 0.07547197816200252 -0.26679212777715416 228 216 179
0.03417693101426343 0.07668018172560179 -0.2679728580504526 215 201 162
0.034554440418113494 0.07775345089104765 -0.26919046721521944 223 209 171
0.03489552024125733 0.07869580042383292 -0.2704444156347235 213 197 159
0.03525532275475113 0.07970584984730815 -0.2716773545814328 224 208 166
0.03575137540079547 0.0812072764510168 -0.2727646772464811 223 208 166
0.0361670748400392 0.0824195553716412 -0.27393427179468033 222 207 166
0.036515527684011 0.08338970276881695 -0.27517354798562327 227 214 172
0.03701501863086083 0.08490498627032592 -0.2762490010845275 244 232 191
0.03751352825729433 0.08641730297578404 -0.27732228397422326 237 224 187
0.037956336198454 0.0877291269213915 -0.2784528942132279 202 188 152
0.03851274718073197 0.0894516017741605 -0.27945675413593346 193 174 134
0.03904105709106112 0.09107328024390798 -0.28048756275610526 206 189 146
0.03959631814863118 0.09279297226189138 -0.2814849775991347 221 205 162
0.04010059920538879 0.09432912524019221 -0.2825350938538211 228 212 169
0.0406051459238345 0.09586683225412372 -0.2835815740412863 234 218 175
0.04092768935484823 0.0967469910768892 -0.2848291233144434 233 217 172
0.041152385981935734 0.09727342625566171 -0.2861860017849864 226 209 162
0.04140461317403654 0.09789947042726928 -0.28751164700038645 215 196 149
0.04174545161155379 0.0988462842240588 -0.28873584549877146 217 198 151
0.04214728564461824 0.10001417460186546 -0.2898886682257887 230 212 168
0.04268424613714526 0.10167180493897676 -0.2908834900777324 225 207 163
0.04307698368129344 0.10280764912062533 -0.29204176137489163 228 210 162
0.04350165889572133 0.10405958687081418 -0.293160767053802 231 214 166
0.04398846709194196 0.10553717386055744 -0.29420453345602166 239 226 178
0.044377900397899184 0.10666226360003145 -0.2953597995350866 230 214 170
0.04498802252339593 0.10858813504698304 -0.2962517456135686 220 200 158
0.04533151067089606 0.1095474923574972 -0.2974563077342844 226 207 164
0.04561302146465325 0.11028218591702783 -0.2987335565632893 221 204 159
0.045758751795083694 0.1105240911977647 -0.30017338472754806 226 211 164
0.04605501867788691 0.11131246867461111 -0.3014322359851962 224 210 164
0.04648730846471151 0.1125950951250769 -0.30252495063339035 216 197 155
0.04678288008503041 0.11338141106559915 -0.3037820368913768 210 188 142
0.047144126166369274 0.11440658558341874 -0.30495763958546296 216 197 145
0.04769318499578169 0.11611489852569126 -0.305899871492476 222 205 153
0.04772767186467523 0.11595251714837691 -0.3074759960256569 225 207 156
0.04823241360344131 0.11750047636104675 -0.30846855606998763 225 206 156
0.04859454737854346 0.11853010059627139 -0.3096361884048401 219 201 150
0.049111611417470794 0.12012400490671772 -0.31060711059117885 212 195 142
0.0495940128378995 0.1215923466783957 -0.3116181948177675 208 192 139
0.05009466445158336 0.12312774120936408 -0.31260282957092383 203 188 137
0.05038765076663277 0.12390712312912519 -0.31384923688671473 197 183 134
0.050441122716889664 0.12381371702026575 -0.31540222045730465 178 164 118
0.0507460190273878 0.12463656436158171 -0.31663301457708865 165 150 109
0.050913877408024395 0.12495983280396276 -0.3180404198069743 156 140 101
0.05139408514690461 0.126422432887219 -0.31904164421625 147 130 92
0.0516674105603453 0.12713066890778046 -0.32031041476859284 139 123 85
0.05173054520914664 0.1270717636719416 -0.32185502334737376 137 120 84
0.05176895202370406 0.12692220464980278 -0.32343435340582666 135 117 82
0.052096690804411504 0.1278290249777617 -0.32463177365998286 138 120 81
0.052195413619801456 0.12789933075066923 -0.3261334842528621 147 130 86
0.05231427155975356 0.12804294326548024 -0.3276097902578803 156 140 94
0.05254700918222166 0.128602657454667 -0.32893400204140605 141 124 80
0.05290356559754533 0.12961521157150763 -0.33009047136652736 136 119 78
0.05326884254855837 0.13065997252589437 -0.3312333637588527 136 118 81
0.05363010807102748 0.13169037978830736 -0.33237990624185576 134 118 82
0.053622349199509846 0.1313702728053084 -0.33403138144324884 128 112 79
0.05375800266255125 0.13157476735210757 -0.3354879931961382 122 105 75
0.05416896473616167 0.13278747470839047 -0.33656413894727066 115 99 68
0.05456914644612289 0.13396111622185616 -0.3376528589319153 118 102 69
0.05472130305905623 0.1342261146090146 -0.3390862851409947 121 103 71
0.05511279879563676 0.1353684434882876 -0.3401842164189692 119 100 68
0.05559376291162699 0.13683928749523283 -0.34115360479164575 117 100 66
0.05624873158607028 0.13894909341465486 -0.34187275743945 113 95 63
0.05650803471407097 0.13960788801540294 -0.34315016346399396 109 91 63
0.05695686932944462 0.14096253551739635 -0.34415571002398704 107 90 63
0.057098173324462036 0.14118841419681158 -0.345600624928644 107 90 62
0.05706604105851578 0.14077701637275827 -0.3472972163361474 105 88 60
0.05709550729726896 0.14059136514405118 -0.3489077496972898 109 92 62
0.05727971570557832 0.1409740417066723 -0.35029519015139665 109 94 62
0.05723971755146342 0.14053225422108162 -0.3520115609339537 100 84 58
0.05708972655016889 0.13968529019507056 -0.3538932669096971 94 78 53
0.057045655222877606 0.13922714571963496 -0.35562336963193897 97 82 53
0.05738057749871207 0.14016321475755808 -0.35679431460240846 97 82 53
0.0574125359827976 0.13998416248140202 -0.35841562328960924 95 80 51
0.0578341149171952 0.1412395380356106 -0.35945578975040404 94 79 50
0.05800626814133993 0.1415765108517166 -0.36086864369895005 91 76 47
0.058214768161713185 0.14204730525402046 -0.36222724422570496 90 74 46
0.05914290381675569 0.145170891655962 -0.362493456988297 89 74 45
0.059721791566518766 0.14700829790584616 -0.3632827764144546 93 78 49
0.05983630394691457 0.14713359648409124 -0.3647785875428099 97 81 54
0.05968620651278767 0.1462822401918727 -0.3666829543622059 98 83 56
0.05990467780019263 0.14679042913715368 -0.3680228330307167 88 73 48
0.06033166004225226 0.14806850392258064 -0.36903915434971246 83 67 45
0.060528798508743084 0.14849812965045223 -0.3704109885420268 82 66 47
0.06053573774558029 0.14822495093562288 -0.37208095199038027 75 60 40
0.06064896684988595 0.1483440949337851 -0.3735867212263798 77 61 40
0.06078099259242591 0.14853246761401723 -0.3750643027180075 78 61 41
0.060941228034037884 0.14882495025404177 -0.3764983843877631 79 62 41
0.06091670293047984 0.1484337335585512 -0.37822764670632153 77 60 40
0.06119522608790861 0.14916344971170595 -0.37947547910255186 75 59 37
0.061423878323475276 0.1497086749168004 -0.38080268071312584 72 56 34
0.06212828225906004 0.15201576592152233 -0.38136212586044227 71 54 34
0.062426407872150556 0.1528189678444849 -0.3825733102477287 68 51 33
0.06239522972829249 0.15240203426583399 -0.38431937542975375 63 47 29
0.0628782510204722 0.15389060826748677 -0.3852285670020167 60 43 26
0.0635106332819727 0.15593368849255557 -0.3858889994289444 54 37 19
0.06384778011775746 0.15688261690372127 -0.3870303611435977 55 38 20
0.06422941210199888 0.1579969008031566 -0.38809648978486344 60 43 25
0.06443632438948725 0.15846303074565138 -0.38945081579356094 60 43 25
0.06515341109451243 0.160823495450288 -0.3899537649340387 61 44 26
0.06524859572459601 0.1608751803754116 -0.39149222247200244 63 44 28
0.06544111183871676 0.16128820220776183 -0.3928686237474086 63 43 28
0.06547606377216214 0.16111549582914894 -0.3945117629123437 62 43 28
0.0644327445477041 0.15693311263988047 -0.39798770148737994 62 44 27
0.06457235113000029 0.15714737216026473 -0.3994653538222426 60 42 22
0.06470860256231147 0.15734893813591527 -0.4009499298707314 56 37 20
0.06627151359832961 0.16255587958463003 -0.4016960211036717 56 36 19
0.06593418092635604 0.16099456342070187 -0.4039957255640667 63 42 25
0.0659422724250927 0.16071879248872645 -0.40570241329005274 65 44 26
0.0652398825758346 0.15779450254647343 -0.4086533732278906 70 49 31
0.06574870859667047 0.1593836186430238 -0.40949291717942626 73 52 31
0.06555565267225345 0.1583557504885507 -0.41156460896705066 70 49 28
0.06588751399586712 0.1592851986886077 -0.4127139727638783 69 48 27
0.06579260883393516 0.15862218201876696 -0.41461958327507353 70 49 28
0.06655290775172022 0.16115116211867778 -0.4150050628377322 74 53 32
0.06619000298438833 0.15948671574519405 -0.41739344343852897 79 58 37
0.06607853015134543 0.15876010155275116 -0.4193384013186478 75 55 34
0.06604889867003644 0.15833848435777947 -0.42114053402349166 68 50 28
0.06651264960294767 0.15976074089416079 -0.4220524343640258 69 51 29
0.06577551251976609 0.15669249611052966 -0.42514538566121546 73 55 33
0.06623873957300143 0.15811247497731426 -0.42606003023310146 73 55 33
0.06627929088726475 0.15795123901217242 -0.4277462535310539 78 60 36
0.06641315902210612 0.15813887539239557 -0.4292633822690103 87 70 45
0.06660939028107561 0.15855982492132684 -0.43066658547801767 94 79 51
0.06641762531482667 0.1575271360652643 -0.4327902019624798 93 78 49
0.06628025422353967 0.15669720493794315 -0.4348186183639888 86 70 46
0.06634173147585891 0.15661179430695266 -0.43648046738911256 94 78 52
0.0665883981167893 0.15722045952465116 -0.43779700978687036 102 86 56
0.06671357705687446 0.15737340800902044 -0.43934227351842975 104 87 56
0.06736561761643124 0.15950334386082543 -0.439891926579076 106 89 57
0.06781703120100012 0.1608812069646073 -0.44081644758784394 105 89 56
0.0680497020419157 0.16143817053466158 -0.44215484805368993 103 87 54
0.06755866437045106 0.15927628345788475 -0.4448789421785698 102 86 53
0.06767466707041066 0.15939386268741515 -0.4464468138537991 106 90 57
0.06775365057641171 0.15937197394236788 -0.4480877778846799 114 97 64
0.06797341059431675 0.15987913042677832 -0.44945822985668593 114 95 63
0.06780427813583559 0.15892318521521964 -0.45158510212026676 112 93 61
0.06755383158895815 0.15766015451980403 -0.4538766796682029 114 95 63
0.06767283339827729 0.1577867638839157 -0.45545139194862005 119 100 67
0.06735201798133689 0.15625664332545042 -0.45789303865706715 117 98 65
0.06732359170984621 0.1558266360068103 -0.4597655259606025 115 96 63
0.06670479566038391 0.15317089900058167 -0.4628123331044557 115 97 63
0.0672853801448084 0.1550348257781787 -0.463485082934138 116 98 62
0.06720345848877345 0.15440100046277824 -0.4654760007177611 116 98 62
0.06713638429434696 0.1538223514329514 -0.46744188238934287 117 99 63
0.06718911146606528 0.15369506462306423 -0.4691711299322937 116 99 63
0.06723989156175467 0.15355994539037604 -0.47090701695592146 113 97 63
0.06712458281536784 0.15279701663846224 -0.4729825261495796 116 100 64
0.06710246526432488 0.15238525817745086 -0.47487360083894864 125 110 70
0.06729392403999858 0.1527800765669254 -0.47633207610336026 134 117 74
0.06692193810227536 0.1510443304048066 -0.4789469983109422 138 120 78
0.06690622292441363 0.15065452494706244 -0.4808376245739608 151 129 88
0.06692019267908456 0.1503763646613857 -0.4826707158320032 158 138 96
0.06699418837618501 0.15032481888061744 -0.48438264687921884 157 138 96
0.06679910740597042 0.14925394193109237 -0.4866573443719488 156 137 95
0.06666717385691764 0.14842108780415453 -0.4888066967448045 150 131 89
0.06618307501841783 0.1462527260535121 -0.49170055535137863 143 121 80
0.06578216003294932 0.14439770679585376 -0.49443044507435674 148 126 85
0.06575654616388353 0.14396413572304595 -0.4963770247254325 151 130 87
0.06556162333796749 0.1428875535255193 -0.49868685292094633 147 126 84
0.06519351039493747 0.14115251946832738 -0.5013721976816388 157 136 92
0.06519767799991742 0.1408291175039959 -0.5032714003371844 155 133 90
0.06520647235325562 0.14052263944956295 -0.5051643203301545 152 130 91
0.06513432806411129 0.13990802376939715 -0.5072350788476478 156 134 95
0.06507237966218334 0.13933129238495745 -0.5092886772524094 155 134 96
0.06491069398913943 0.13837451908911094 -0.5115633137555906 153 134 95
0.0648772184499172 0.13790425871188836 -0.5135651888818876 150 133 95
0.06481755967830935 0.13733361088061352 -0.5156285680053797 142 128 93
0.06493048486382615 0.13741902107730036 -0.5173182470018184 136 122 92
0.06497905717891633 0.1372590434498384 -0.5191515333734934 124 109 83
0.06480593668304202 0.13625407760789512 -0.5214775042956773 127 112 90
0.06472663242968826 0.13560542995407043 -0.5236020958121526 139 126 102
0.06479283581383632 0.13551054526139528 -0.5254080587532741 136 126 104
0.06488139790399967 0.13550043085786362 -0.5271668664684412 140 133 115
0.0650796980530445 0.13590851912381305 -0.5286821716273664 158 153 141
0.06512007549190628 0.13571381660002407 -0.5305533005329869 175 171 162
0.06598412976594767 0.13866310428339568 -0.5305684667881106 193 190 184
0.06606932236449499 0.13863960454075958 -0.5323378139049774 205 204 201
-0.0030854633195619915 -0.034908482004956186 -0.14793675661697783 172 166 155
-0.0030086674244865254 -0.0349228001821313 -0.14947619167712803 213 200 171
-0.002830295959828085 -0.03457892226222061 -0.15096313265670197 229 214 178
-0.0013618333098747576 -0.029680721055728956 -0.15175596671034175 176 160 132
-0.0007203929527506668 -0.027700678842488405 -0.15298588258974388 131 114 90
-0.0001942627393147038 -0.026127193298664066 -0.15427498609176798 183 167 135
0.0015614820462668579 -0.020208831336853708 -0.15488009265341313 140 120 89
0.0023963990582850613 -0.017541890063732697 -0.15598441705753746 147 122 92
0.002841354075630312 -0.016252341960408104 -0.15730262983136922 152 130 97
0.0030352077037558295 -0.01585027750145316 -0.1587616860907286 139 122 85
0.0032260260994177274 -0.015459033158288366 -0.16022295710846085 114 98 63
0.0034338314701639894 -0.015007784077272351 -0.1616748851206787 107 92 61
0.004188790920552531 -0.01262038907043491 -0.16280715061114465 141 127 103
0.004467261850221428 -0.011918617535980572 -0.16421520721980415 91 75 52
0.005407301946744492 -0.008874448760181147 -0.16522908689439916 162 144 114
0.006046299653533819 -0.006895104295666622 -0.16641642440704058 186 166 126
0.006247420931853178 -0.006466156323106424 -0.16786477498784375 214 193 150
0.006909987961216561 -0.004402201291051476 -0.16903164834480972 217 196 150
0.0072847793333177015 -0.003357415421663325 -0.17037137408498854 159 138 99
0.007762932668989593 -0.0019459252307510305 -0.17164545033068115 119 99 62
0.008008591797387044 -0.0013584543606577903 -0.17306267242455786 187 171 128
0.008254238277374065 -0.0007710132483580434 -0.17447981883693603 167 150 104
0.008499872108950646 -0.0001836018938517689 -0.1758968895678156 201 180 130
0.008640999892090308 3.292614426988333e-05 -0.17738100129506168 162 144 98
0.008943309772624638 0.0008214690554909365 -0.1787617531875456 150 132 92
0.00887962057113539 0.0003104839334025847 -0.18038077047670056 107 90 56
0.009173628562692097 0.001069436107864724 -0.18176755706397865 133 115 74
0.010117036310278993 0.004135735719152274 -0.18272290093401333 140 124 84
0.010026491100746597 0.0035288848823950836 -0.18436222550925488 98 81 50
0.01008979173025901 0.003468295609133566 -0.1859013321333667 99 82 52
0.010231939030312349 0.0036877310739976757 -0.18738872616010818 97 81 51
0.010048190788285258 0.002747861718021674 -0.1891002944698006 90 73 45
0.009936284071328409 0.00206276881712842 -0.19076679063503318 103 85 61
0.010051768217126958 0.0021862051935979954 -0.19227889737512333 79 61 38
0.010120297405457702 0.0021422616327692046 -0.1938252279403532 81 64 38
0.010222183135878051 0.002216757557802901 -0.1953498285443945 74 57 32
0.010475295821422006 0.00282959232640885 -0.1967682956322811 70 53 30
0.010759636680129154 0.0035537064915422273 -0.19816421984058075 72 53 32
0.011205174352705755 0.004852335968787674 -0.1994432160090471 105 86 53
0.011353162495211112 0.00509075787832728 -0.20093651194416914 132 117 78
0.011700841135402807 0.006040991897936297 -0.20228438733239523 101 85 54
0.011705525299384588 0.005768169499955053 -0.20388440228242866 126 108 76
0.01172640747031507 0.00555267370351889 -0.20547490553958467 123 103 70
0.011846254899925121 0.005689898129673743 -0.20699361095286642 136 116 79
0.011937246213835032 0.00572388969176503 -0.2085353961410274 163 144 102
0.012278549300601595 0.006651296021839767 -0.20988847674790181 137 118 81
0.012884137815794904 0.008522762333889142 -0.21103805206442702 119 102 75
0.013202271571618497 0.00936806475015603 -0.21240531952674163 152 139 108
0.014108186324598981 0.012313864510197225 -0.21331515683640495 174 159 128
0.015443652333882622 0.016796345199545655 -0.2138816526782062 174 156 120
0.016697847713091084 0.020990436809142178 -0.21450009749735233 204 185 143
0.018208459202231297 0.026103577102159756 -0.2149039342873249 208 191 147
0.019725658610635098 0.031242823650934122 -0.2152884461560462 208 191 148
0.020970314950491724 0.03540938466333506 -0.2158779939190457 176 161 123
0.022087795577214096 0.039122764107896474 -0.21655934608790287 176 162 128
0.022297759441408313 0.039588719878895284 -0.21797086495350543 177 159 126
0.022883573904121386 0.0414006695106585 -0.21907408896842953 194 176 133
0.02295761117476257 0.04137997856412683 -0.22059636755900017 226 210 173
0.022743598588062304 0.04032679200913482 -0.22236009006070573 163 139 106
0.02304430424206834 0.04111762736147574 -0.22369764436053985 221 202 158
0.023382779860359196 0.04204401768386566 -0.22500259255871374 232 217 176
0.024089427860168145 0.044291018232544305 -0.22599383870609763 120 102 69
0.024166296601045335 0.04427972865400787 -0.22751788571634252 112 93 68
0.024448354925391148 0.045004421992156304 -0.22886720398943208 151 130 93
0.024655578283164788 0.04546060330587561 -0.23028075020610622 216 200 153
0.024936302300572206 0.04618063097559352 -0.2316305385573407 217 202 160
0.02495630813624587 0.04596440419131579 -0.23320842823536117 212 197 152
0.02521565208946991 0.04660755517613469 -0.23457747356501482 175 154 116
0.025533435444181088 0.047460761411871145 -0.23589430558174862 150 127 89
0.025851015380442828 0.04831341078711608 -0.23721035398054496 174 159 115
0.026350480700335813 0.04982020895946555 -0.23836180202176083 128 112 76
0.026251141661874706 0.04917392093869994 -0.24005233984124572 102 83 52
0.026347343897095928 0.049230426847334384 -0.24156851176418567 112 93 63
0.026483165454341463 0.04942922622801009 -0.243049920450013 92 68 46
0.026769968018897583 0.05017130454359108 -0.24439315998386163 127 103 72
0.026483850449596127 0.04885058832065798 -0.24626757571114152 173 153 117
0.02645608342120196 0.048459303748121046 -0.24790665989582275 163 139 106
0.026381033205246374 0.047897127219277275 -0.2495931775708616 138 116 80
0.026554078358948692 0.048228395698809 -0.25104868221262516 155 139 103
0.027327317374467093 0.05072314291046496 -0.25193395972088467 170 155 118
0.02770650864625393 0.051798124326918216 -0.25319011178410744 166 148 114
0.02867846526642852 0.055011475196756754 -0.2538738577381573 156 135 104
0.028995126245310206 0.05586207996961498 -0.25518375727661025 171 151 118
0.029774875571392384 0.05838415988533193 -0.2560414419159968 194 176 137
0.030345090851725345 0.060150955245596244 -0.25709815001586983 208 189 150
0.031069223962455515 0.062474279645125204 -0.25799914528393725 211 194 152
0.03153028330865404 0.06384837104664084 -0.2591553328469349 239 225 184
0.03221299563920524 0.06602383294318744 -0.2600876824105335 236 223 185
0.03282105208231147 0.06793042133440746 -0.261089666754804 225 211 173
0.03271285925929054 0.06724831250605107 -0.26281024953502036 202 186 153
0.03314569327014998 0.06852206411193196 -0.2639854875563647 201 186 154
0.033629650448952136 0.06998118240952067 -0.2651061380492738 205 190 150
0.03432337395861472 0.07219988919096104 -0.26600834541453716 238 225 187
0.03490370969068089 0.07400916458807222 -0.2670222116219833 230 217 182
0.03576311656716199 0.07682961576251165 -0.2677419938080276 215 203 166
0.03614100964240525 0.07790749219408853 -0.2689574297007286 220 205 171
0.036511040154021776 0.07895720288474863 -0.2701793613218041 196 176 137
0.036880709269325025 0.08000590676205405 -0.27139999759979566 226 207 164
0.037245894976354166 0.08103866125728046 -0.27262372121251827 227 209 170
0.03750004083070147 0.08166907390579546 -0.2739644817851366 234 216 175
0.03794535367304551 0.08299292850224844 -0.2750995006294883 223 209 165
0.03838296539960608 0.08428931031402594 -0.27624024709364464 239 228 185
0.038834846881135095 0.08563793418843055 -0.27736297893425993 243 232 193
0.039440496404984905 0.087545278792702 -0.27831501189637803 203 186 152
0.03997174036698987 0.08918324291218604 -0.27934424690638626 201 182 142
0.0404964742292714 0.09079821935608208 -0.28037701501591145 223 206 167
0.041071363024331876 0.09259608883447745 -0.28135048601242707 227 213 172
0.04185887680093693 0.0951675523439884 -0.2820823000734766 236 223 180
0.04212886043827426 0.09585859293138037 -0.28338841636002243 241 228 186
0.04248925700052901 0.09687855359445581 -0.28459193810115546 240 226 182
0.042679475999089875 0.09727969918212409 -0.2859869772521089 238 224 179
0.04304975264629704 0.09833601650311782 -0.2871769996495104 231 214 170
0.04326802995177158 0.09883933989636542 -0.28853963326651305 221 204 160
0.043530878372301525 0.09950494360292819 -0.2898509614287214 237 222 181
0.04404773082252114 0.10109581965421562 -0.2908673520527557 235 220 180
0.04430732497681651 0.10175000964648005 -0.2921800179214507 232 215 170
0.0447187309628742 0.10295757435215652 -0.29331439852164 236 219 173
0.04531660903375665 0.10484538265602182 -0.2942268676713329 242 229 182
0.0459636878228655 0.1069134476236758 -0.29507649784569606 237 222 176
0.04631478984990493 0.10790273463856204 -0.2962731782902616 232 215 169
0.046682128895343546 0.10895155359317515 -0.29744887509975454 238 223 178
0.04704174154132856 0.10997248801907912 -0.2986320991391405 237 223 179
0.04737315263012835 0.11089075105614157 -0.29984773864165887 245 232 186
0.04802487185678652 0.11297916626011531 -0.3006728941601055 247 235 191
0.04800792255304391 0.11262550496302769 -0.3023092917335929 243 230 185
0.04821330028715436 0.11308384132440122 -0.30367581153643625 236 219 170
0.04834809902630974 0.11328410918405109 -0.30512964037328894 226 209 157
0.04864459095544871 0.1140754813082521 -0.30638410540493244 226 207 155
0.04868106679292888 0.1139158511475898 -0.30796169767715237 220 200 151
0.049273927578637626 0.11579173791312795 -0.3088447963043672 236 220 171
0.049649928528634035 0.11687467376328022 -0.3099962365565776 233 217 168
0.05052624170182304 0.11978985268350635 -0.31051283768824 217 200 148
0.0511127612869862 0.12164510613751701 -0.3113896417174466 212 195 143
0.051481708994339265 0.12270405044448458 -0.312539847822594 211 193 143
0.052104049007812986 0.12469199437102352 -0.31336284303657724 206 191 137
0.05244553638356347 0.12565122450132893 -0.3145431799652127 181 166 115
0.052752635253176916 0.1264846164825512 -0.315766601407425 170 153 110
0.052970459802468485 0.1269907103940028 -0.3171052828949634 159 140 99
0.053084709601222094 0.1271167223245151 -0.31857965669919913 152 135 94
0.0532994642854904 0.12761140582137329 -0.31992316368049156 147 132 94
0.053563960850981925 0.12828871508908424 -0.32120100027465637 136 121 85
0.053758067440969726 0.12870757862074722 -0.32257182898368325 125 106 73
0.05389349084591578 0.12891076430306678 -0.3240213751515555 124 104 71
0.053822453160094375 0.12835493596063202 -0.32574902623399654 135 115 76
0.054081509492174294 0.12901200945651917 -0.32703549685405164 137 120 76
0.054268453461017295 0.12940396259588688 -0.3284191770430569 136 120 78
0.054591227274101164 0.13029552498862984 -0.3296184684526928 131 114 75
0.055061414565915096 0.13172980101248993 -0.3306148912690541 128 110 74
0.05536638271401424 0.1325564579087162 -0.3318351012897207 127 107 74
0.05534672922884743 0.13218794114481938 -0.333502356681978 123 106 71
0.055707602869368586 0.13322053136529216 -0.33464500379389533 108 93 62
0.0557906980496224 0.13322991822024022 -0.3361729246027467 106 90 63
0.05615329626402176 0.13426918820450678 -0.3373113673413289 110 94 67
0.056410901551484156 0.13492167364373578 -0.33859565864767566 110 93 64
0.056811488590118704 0.13610159287977172 -0.3396774432013403 104 86 56
0.05741642814204857 0.13803587843009496 -0.34046677208299986 102 85 54
0.05783337385046831 0.13927725969103866 -0.3415191967262491 101 84 55
0.05819163390884898 0.14030244848414994 -0.34265314203765956 99 81 55
