ply
format ascii 1.0
element vertex 840
property float x
property float y
property float z
property float nx
property float ny
property float nz
property uchar diffuse_red
property uchar diffuse_green
property uchar diffuse_blue
property uchar class
property uchar detection
end_header
0.0045 -0.0753 -0.2774 0.452 -0.690 0.566 99 84 55 0 0
0.0057 -0.0770 -0.2798 0.486 -0.832 0.266 98 83 54 0 0
0.0050 -0.0776 -0.2950 0.818 -0.561 0.125 137 122 84 0 0
-0.0071 -0.0646 -0.3248 0.879 -0.091 -0.468 59 50 33 0 0
-0.0241 -0.0441 -0.3440 -0.014 -0.995 -0.103 19 17 14 0 0
-0.0249 -0.0476 -0.3914 0.629 -0.637 -0.446 83 72 54 0 0
-0.0397 -0.0298 -0.4082 0.440 -0.463 -0.769 80 67 50 0 0
-0.0416 -0.0276 -0.4110 0.611 -0.466 -0.640 111 101 81 0 0
-0.0437 -0.0254 -0.4173 0.678 -0.501 -0.538 81 73 52 0 0
-0.0451 -0.0238 -0.4199 0.706 -0.593 -0.386 84 75 55 0 0
-0.0528 -0.0214 -0.5005 0.692 -0.711 0.125 40 32 25 0 0
-0.0572 -0.0210 -0.5572 0.575 -0.812 0.102 74 66 47 0 0
-0.0572 -0.0212 -0.5590 0.575 -0.812 0.102 68 59 45 0 0
-0.0576 -0.0229 -0.5821 0.735 -0.677 -0.032 52 39 31 0 0
-0.0522 -0.0321 -0.6043 0.585 -0.717 0.379 101 88 69 0 0
-0.0436 -0.0456 -0.6275 0.694 -0.638 0.333 60 48 29 0 0
-0.0391 -0.0526 -0.6389 0.824 -0.481 0.300 119 105 77 0 0
-0.0385 -0.0535 -0.6402 0.632 -0.690 0.352 115 101 75 0 0
-0.0370 -0.0565 -0.6504 0.548 -0.746 0.378 102 89 68 0 0
-0.0372 -0.0565 -0.6525 0.238 -0.829 0.506 75 63 38 0 0
-0.0307 -0.0679 -0.6834 0.499 -0.254 0.828 19 17 16 0 0
-0.0171 -0.0892 -0.7184 0.685 -0.591 0.425 158 143 99 0 0
-0.0168 -0.0899 -0.7221 0.640 -0.755 0.146 162 146 102 0 0
-0.0173 -0.0975 -0.8079 0.603 -0.795 0.066 163 145 97 0 0
-0.0192 -0.0962 -0.8206 0.531 -0.831 0.166 175 158 111 0 0
-0.0189 -0.0967 -0.8223 0.460 -0.839 0.291 177 161 112 0 0
-0.0192 -0.0966 -0.8247 0.497 -0.868 0.009 174 158 110 0 0
-0.0178 -0.0360 -0.1477 -0.074 -0.547 0.834 177 177 178 0 0
-0.0151 -0.0397 -0.1485 -0.026 -0.921 0.389 177 176 178 0 0
-0.0145 -0.0406 -0.1498 -0.169 -0.924 0.342 170 166 162 0 0
-0.0141 -0.0411 -0.1511 -0.169 -0.924 0.342 142 134 119 0 0
-0.0138 -0.0417 -0.1525 -0.169 -0.924 0.342 142 131 104 0 0
0.0021 -0.0667 -0.1959 0.566 -0.667 0.485 82 68 41 0 0
0.0051 -0.0722 -0.2118 0.264 -0.753 0.602 103 89 58 0 0
0.0071 -0.0755 -0.2197 0.231 -0.716 0.659 78 63 34 0 0
0.0045 -0.0780 -0.2798 0.770 -0.536 0.347 99 84 55 0 0
0.0041 -0.0800 -0.3067 0.675 -0.482 0.559 109 95 65 0 0
0.0040 -0.0801 -0.3082 0.762 -0.628 0.158 105 91 62 0 0
-0.0083 -0.0656 -0.3247 0.636 -0.267 -0.724 46 40 27 0 0
-0.0106 -0.0628 -0.3273 0.479 -0.423 -0.769 20 18 14 0 0
-0.0262 -0.0441 -0.3460 0.077 -0.963 -0.259 26 23 19 0 0
-0.0459 -0.0254 -0.4195 0.816 -0.473 -0.331 93 81 64 0 0
-0.0468 -0.0245 -0.4217 0.731 -0.484 -0.481 95 83 66 0 0
-0.0561 -0.0149 -0.4482 0.305 -0.952 -0.016 64 54 44 0 0
-0.0558 -0.0154 -0.4498 0.629 -0.770 -0.105 31 24 19 0 0
-0.0541 -0.0230 -0.5058 0.593 -0.789 0.158 64 54 44 0 0
-0.0563 -0.0228 -0.5330 0.816 -0.565 0.118 54 45 38 0 0
-0.0612 -0.0198 -0.5685 0.761 -0.528 0.377 43 36 26 0 0
-0.0588 -0.0244 -0.5837 0.793 -0.538 0.284 77 65 51 0 0
-0.0608 -0.0229 -0.5949 0.367 -0.910 0.194 94 82 60 0 0
-0.0377 -0.0621 -0.6888 0.907 -0.217 0.362 19 16 15 0 0
-0.0181 -0.0975 -0.7885 0.550 -0.813 0.193 168 150 103 0 0
-0.0180 -0.0978 -0.7904 0.550 -0.813 0.193 176 158 109 0 0
-0.0195 -0.0968 -0.8004 0.773 -0.629 0.083 180 163 113 0 0
-0.0207 -0.0976 -0.8248 0.654 -0.753 0.071 176 159 112 0 0
-0.0207 -0.0978 -0.8269 0.654 -0.753 0.071 168 151 105 0 0
-0.0183 -0.0377 -0.1475 0.099 -0.731 0.675 178 178 179 0 0
-0.0165 -0.0402 -0.1485 0.563 -0.823 -0.078 178 177 178 0 0
-0.0163 -0.0406 -0.1499 0.171 -0.978 0.117 176 174 172 0 0
0.0032 -0.0719 -0.2106 0.264 -0.753 0.602 103 90 58 0 0
0.0037 -0.0728 -0.2118 0.319 -0.800 0.507 111 98 63 0 0
0.0058 -0.0763 -0.2196 0.647 -0.547 0.531 78 63 34 0 0
0.0049 -0.0771 -0.2398 0.333 -0.663 0.671 85 71 43 0 0
0.0047 -0.0770 -0.2428 0.375 -0.675 0.635 81 68 36 0 0
0.0033 -0.0815 -0.3064 0.383 -0.675 0.631 113 100 69 0 0
-0.0282 -0.0440 -0.3446 0.009 -0.995 -0.096 12 12 10 0 0
-0.0278 -0.0447 -0.3460 0.130 -0.991 -0.026 19 18 15 0 0
-0.0281 -0.0444 -0.3478 0.114 -0.946 0.302 28 25 22 0 0
-0.0281 -0.0445 -0.3494 -0.103 -0.874 0.475 34 30 26 0 0
-0.0259 -0.0481 -0.3563 0.600 -0.765 0.236 23 19 15 0 0
-0.0257 -0.0485 -0.3578 0.600 -0.765 0.236 28 23 19 0 0
-0.0253 -0.0492 -0.3592 0.501 -0.786 0.361 29 25 20 0 0
-0.0250 -0.0498 -0.3606 0.509 -0.731 0.455 25 20 17 0 0
-0.0240 -0.0515 -0.3650 0.387 -0.843 0.375 32 25 18 0 0
-0.0238 -0.0519 -0.3665 0.310 -0.946 0.094 23 19 13 0 0
-0.0236 -0.0525 -0.3712 0.456 -0.857 0.241 57 47 33 0 0
-0.0234 -0.0531 -0.3727 0.562 -0.756 0.335 54 42 27 0 0
-0.0234 -0.0533 -0.3760 0.448 -0.871 0.202 61 49 35 0 0
-0.0271 -0.0498 -0.3894 0.380 -0.792 -0.478 50 41 28 0 0
-0.0455 -0.0281 -0.4133 0.714 -0.464 -0.524 89 77 58 0 0
-0.0557 -0.0252 -0.5204 0.797 -0.513 0.320 56 47 38 0 0
-0.0574 -0.0241 -0.5327 0.721 -0.688 0.077 55 46 38 0 0
-0.0548 -0.0345 -0.6039 0.478 -0.752 0.453 95 82 64 0 0
-0.0539 -0.0359 -0.6070 0.420 -0.669 0.613 91 78 61 0 0
-0.0533 -0.0369 -0.6084 0.468 -0.635 0.614 87 73 56 0 0
-0.0519 -0.0388 -0.6091 0.395 -0.718 0.573 105 92 71 0 0
-0.0514 -0.0396 -0.6106 0.350 -0.779 0.520 134 122 98 0 0
-0.0478 -0.0449 -0.6171 0.651 -0.635 0.417 83 72 53 0 0
-0.0470 -0.0461 -0.6182 0.681 -0.600 0.420 100 89 69 0 0
-0.0464 -0.0472 -0.6215 0.404 -0.745 0.531 163 152 126 0 0
-0.0459 -0.0480 -0.6230 0.404 -0.745 0.531 125 113 86 0 0
-0.0459 -0.0482 -0.6249 0.573 -0.791 0.215 103 91 66 0 0
-0.0457 -0.0486 -0.6267 0.531 -0.821 0.207 66 53 34 0 0
-0.0455 -0.0490 -0.6284 0.619 -0.726 0.299 65 52 33 0 0
-0.0372 -0.0633 -0.6632 0.835 -0.504 0.221 64 50 28 0 0
-0.0385 -0.0640 -0.6881 0.912 -0.324 0.252 20 18 17 0 0
-0.0177 -0.0954 -0.7318 0.824 -0.557 0.103 168 150 105 0 0
-0.0177 -0.0959 -0.7357 0.796 -0.604 0.046 155 132 89 0 0
-0.0178 -0.0959 -0.7378 0.774 -0.579 0.258 133 111 71 0 0
-0.0189 -0.0992 -0.7876 0.271 -0.885 0.378 174 158 109 0 0
-0.0186 -0.0998 -0.7893 0.271 -0.885 0.378 177 158 110 0 0
-0.0160 -0.0437 -0.1537 -0.190 -0.666 0.721 127 117 100 0 0
-0.0155 -0.0445 -0.1550 0.194 -0.080 0.978 119 107 90 0 0
-0.0058 -0.0575 -0.1584 0.205 -0.563 0.801 166 158 145 0 0
0.0009 -0.0711 -0.2081 0.273 -0.710 0.649 73 59 33 0 0
0.0017 -0.0724 -0.2106 0.189 -0.795 0.577 110 97 64 0 0
0.0023 -0.0733 -0.2119 0.264 -0.753 0.602 106 93 60 0 0
0.0046 -0.0766 -0.2154 0.270 -0.647 0.713 84 70 41 0 0
0.0038 -0.0758 -0.2170 0.579 -0.809 0.097 81 68 38 0 0
0.0051 -0.0783 -0.2251 0.686 -0.366 0.629 81 66 37 0 0
-0.0297 -0.0445 -0.3431 0.233 -0.945 -0.231 7 7 7 0 0
-0.0294 -0.0453 -0.3478 0.329 -0.909 0.258 14 13 11 0 0
-0.0284 -0.0467 -0.3489 0.377 -0.923 -0.075 19 16 14 0 0
-0.0282 -0.0471 -0.3504 0.438 -0.894 -0.096 29 25 24 0 0
-0.0276 -0.0480 -0.3517 0.597 -0.797 0.088 42 38 35 0 0
-0.0287 -0.0502 -0.3879 0.183 -0.902 -0.390 54 48 33 0 0
-0.0291 -0.0499 -0.3897 0.212 -0.885 -0.416 60 51 36 0 0
-0.0548 -0.0256 -0.4844 0.774 -0.500 0.388 81 68 51 0 0
-0.0529 -0.0403 -0.6086 0.484 -0.662 0.573 106 91 70 0 0
-0.0492 -0.0460 -0.6169 0.555 -0.701 0.447 97 86 67 0 0
-0.0482 -0.0474 -0.6179 0.659 -0.583 0.474 90 82 62 0 0
-0.0472 -0.0491 -0.6229 0.436 -0.754 0.491 120 108 82 0 0
-0.0472 -0.0493 -0.6247 0.555 -0.782 0.283 89 77 55 0 0
-0.0427 -0.0556 -0.6284 0.535 -0.704 0.467 103 88 69 0 0
-0.0425 -0.0560 -0.6302 0.735 -0.638 0.229 88 73 54 0 0
-0.0377 -0.0647 -0.6545 0.238 -0.599 0.764 99 87 61 0 0
-0.0383 -0.0645 -0.6609 0.741 -0.628 0.238 96 82 61 0 0
-0.0389 -0.0640 -0.6634 0.858 -0.400 0.322 58 44 23 0 0
-0.0379 -0.0654 -0.6644 0.682 -0.554 0.478 125 113 90 0 0
-0.0374 -0.0662 -0.6659 0.682 -0.554 0.478 137 126 100 0 0
-0.0374 -0.0663 -0.6679 0.755 -0.621 0.210 91 77 51 0 0
-0.0394 -0.0657 -0.6874 0.844 -0.402 0.356 20 18 16 0 0
-0.0389 -0.0664 -0.6890 0.828 -0.268 0.492 15 12 12 0 0
-0.0232 -0.1019 -0.8409 0.727 -0.651 -0.218 135 121 88 0 0
-0.0062 -0.0595 -0.1595 -0.002 -0.763 0.646 157 148 134 0 0
-0.0050 -0.0611 -0.1606 0.231 -0.642 0.731 190 177 156 0 0
0.0053 -0.0766 -0.1828 0.258 -0.924 0.282 63 51 29 0 0
0.0023 -0.0736 -0.1919 0.700 -0.429 0.572 62 47 28 0 0
0.0033 -0.0751 -0.1930 0.421 -0.474 0.773 58 43 23 0 0
-0.0012 -0.0706 -0.2069 0.375 -0.523 0.765 72 58 35 0 0
-0.0003 -0.0719 -0.2080 0.436 -0.648 0.625 75 60 36 0 0
0.0001 -0.0726 -0.2093 0.342 -0.600 0.723 87 72 45 0 0
0.0007 -0.0735 -0.2105 0.418 -0.500 0.758 99 84 53 0 0
0.0031 -0.0771 -0.2154 0.306 -0.673 0.674 77 65 36 0 0
0.0030 -0.0771 -0.2168 0.520 -0.684 0.511 81 67 39 0 0
0.0043 -0.0795 -0.2249 0.684 -0.474 0.555 78 63 34 0 0
0.0048 -0.0803 -0.2262 0.684 -0.474 0.555 77 62 33 0 0
0.0056 -0.0817 -0.2301 0.611 -0.630 0.479 74 59 30 0 0
0.0028 -0.0792 -0.2411 0.751 -0.571 0.333 83 69 37 0 0
0.0037 -0.0822 -0.2595 0.927 -0.314 0.207 83 68 38 0 0
0.0036 -0.0822 -0.2610 0.769 -0.629 -0.114 84 69 39 0 0
0.0022 -0.0839 -0.2968 0.796 -0.496 0.347 139 124 84 0 0
-0.0312 -0.0451 -0.3431 0.673 -0.711 -0.202 5 5 5 0 0
-0.0314 -0.0450 -0.3448 0.720 -0.612 0.328 6 6 6 0 0
-0.0310 -0.0457 -0.3462 0.709 -0.587 0.390 6 6 6 0 0
-0.0294 -0.0478 -0.3471 0.303 -0.953 0.023 6 6 5 0 0
-0.0272 -0.0520 -0.3603 0.683 -0.512 0.520 41 34 28 0 0
-0.0268 -0.0527 -0.3617 0.357 -0.644 0.676 38 31 25 0 0
-0.0603 -0.0179 -0.4498 0.931 -0.364 -0.011 47 40 29 0 0
-0.0589 -0.0198 -0.4506 0.361 -0.666 0.653 36 29 26 0 0
-0.0559 -0.0275 -0.4895 0.724 -0.685 0.082 77 65 54 0 0
-0.0617 -0.0292 -0.5823 0.811 -0.521 0.268 75 63 47 0 0
-0.0430 -0.0591 -0.6388 0.489 -0.773 0.403 84 72 49 0 0
-0.0427 -0.0596 -0.6405 0.355 -0.836 0.418 69 57 33 0 0
-0.0425 -0.0603 -0.6441 0.524 -0.672 0.523 102 90 71 0 0
-0.0317 -0.0785 -0.6861 0.708 0.462 0.535 15 13 11 0 0
-0.0237 -0.1041 -0.8396 0.787 -0.609 -0.097 152 138 100 0 0
-0.0255 -0.1021 -0.8440 0.856 -0.490 -0.166 111 100 73 0 0
-0.0207 -0.0421 -0.1513 0.313 -0.946 0.088 177 178 179 0 0
-0.0205 -0.0425 -0.1526 0.316 -0.949 -0.005 176 177 175 0 0
-0.0180 -0.0460 -0.1549 -0.088 -0.259 0.962 165 161 152 0 0
-0.0074 -0.0602 -0.1595 0.157 -0.635 0.756 154 142 123 0 0
0.0038 -0.0771 -0.1828 0.508 -0.780 0.364 66 54 32 0 0
0.0015 -0.0750 -0.1917 0.409 -0.853 0.323 84 70 50 0 0
0.0015 -0.0773 -0.2140 0.359 -0.713 0.602 77 65 35 0 0
0.0017 -0.0776 -0.2154 0.448 -0.731 0.514 78 67 37 0 0
0.0033 -0.0807 -0.2248 0.657 -0.468 0.591 78 63 34 0 0
0.0037 -0.0813 -0.2261 0.866 -0.285 0.411 79 64 35 0 0
0.0022 -0.0806 -0.2394 0.552 -0.834 -0.010 85 70 40 0 0
0.0018 -0.0803 -0.2409 0.635 -0.689 0.349 82 67 36 0 0
0.0009 -0.0856 -0.3057 0.854 -0.446 0.267 96 80 52 0 0
-0.0332 -0.0451 -0.3434 0.446 -0.888 0.116 5 5 5 0 0
-0.0332 -0.0454 -0.3450 0.368 -0.887 0.280 5 5 5 0 0
-0.0299 -0.0504 -0.3530 0.428 -0.873 0.234 29 25 23 0 0
-0.0298 -0.0507 -0.3545 0.667 -0.715 0.212 41 37 33 0 0
-0.0296 -0.0510 -0.3561 0.714 -0.615 0.334 46 42 38 0 0
-0.0297 -0.0511 -0.3577 0.561 -0.657 0.504 44 40 36 0 0
-0.0585 -0.0248 -0.4671 0.524 -0.696 0.491 66 53 42 0 0
-0.0504 -0.0502 -0.6172 0.199 -0.873 0.445 75 62 44 0 0
-0.0443 -0.0602 -0.6386 0.481 -0.735 0.479 66 54 33 0 0
-0.0440 -0.0608 -0.6402 0.540 -0.783 0.310 87 75 54 0 0
-0.0438 -0.0613 -0.6420 0.531 -0.814 0.236 106 94 72 0 0
-0.0430 -0.0629 -0.6490 0.482 -0.773 0.413 75 62 45 0 0
-0.0412 -0.0659 -0.6551 0.608 -0.697 0.381 99 85 58 0 0
-0.0394 -0.0692 -0.6649 0.679 -0.564 0.469 124 112 87 0 0
-0.0393 -0.0695 -0.6668 0.644 -0.757 0.113 101 89 65 0 0
-0.0312 -0.0813 -0.6803 0.862 0.150 0.484 11 9 11 0 0
-0.0329 -0.0795 -0.6839 0.685 0.502 0.528 13 11 12 0 0
-0.0212 -0.0963 -0.6993 0.802 -0.567 0.189 145 127 86 0 0
-0.0222 -0.1056 -0.8067 0.802 -0.593 0.077 175 157 111 0 0
-0.0252 -0.1053 -0.8417 0.817 -0.574 0.061 130 117 88 0 0
-0.0220 -0.0430 -0.1526 0.316 -0.949 -0.005 177 178 178 0 0
-0.0090 -0.0605 -0.1595 0.274 -0.714 0.644 146 133 108 0 0
-0.0073 -0.0629 -0.1619 0.123 -0.621 0.774 147 132 102 0 0
0.0024 -0.0776 -0.1828 0.566 -0.798 0.208 66 54 30 0 0
0.0025 -0.0779 -0.1842 0.593 -0.785 0.178 63 51 29 0 0
0.0002 -0.0757 -0.1917 0.505 -0.852 0.136 82 71 48 0 0
-0.0008 -0.0772 -0.2200 0.435 -0.557 0.708 76 61 33 0 0
0.0004 -0.0791 -0.2224 0.299 -0.782 0.547 84 69 39 0 0
0.0009 -0.0798 -0.2237 0.299 -0.782 0.547 76 61 32 0 0
0.0012 -0.0803 -0.2250 0.360 -0.774 0.520 79 64 35 0 0
0.0016 -0.0809 -0.2263 0.470 -0.682 0.560 83 68 39 0 0
0.0032 -0.0832 -0.2272 0.589 -0.758 0.281 77 62 33 0 0
0.0036 -0.0837 -0.2285 0.559 -0.676 0.481 76 61 32 0 0
0.0042 -0.0847 -0.2297 0.646 -0.398 0.651 78 63 34 0 0
0.0008 -0.0813 -0.2408 0.706 -0.662 0.253 77 60 32 0 0
0.0003 -0.0809 -0.2424 0.563 -0.755 0.337 78 62 34 0 0
0.0020 -0.0841 -0.2533 0.683 -0.591 0.430 83 69 41 0 0
0.0018 -0.0840 -0.2548 0.288 -0.853 0.434 82 68 40 0 0
0.0018 -0.0844 -0.2592 0.489 -0.870 0.068 81 66 37 0 0
0.0017 -0.0846 -0.2606 0.489 -0.870 0.068 84 69 39 0 0
0.0018 -0.0848 -0.2621 0.502 -0.788 0.356 87 72 42 0 0
0.0024 -0.0861 -0.2676 0.667 -0.730 0.152 92 77 48 0 0
0.0023 -0.0862 -0.2691 0.389 -0.731 0.561 90 75 46 0 0
0.0012 -0.0858 -0.2798 0.794 -0.479 0.374 104 87 59 0 0
0.0006 -0.0875 -0.3052 0.683 -0.716 0.143 95 77 49 0 0
0.0006 -0.0878 -0.3067 0.683 -0.716 0.143 95 78 50 0 0
0.0007 -0.0881 -0.3082 0.426 -0.868 0.253 100 83 53 0 0
-0.0035 -0.0838 -0.3207 0.786 -0.475 -0.395 27 21 12 0 0
-0.0355 -0.0449 -0.3438 0.010 -0.908 0.418 5 5 5 0 0
-0.0335 -0.0478 -0.3477 0.442 -0.723 0.531 5 5 5 0 0
-0.0317 -0.0511 -0.3580 0.194 -0.826 0.529 25 19 18 0 0
-0.0313 -0.0519 -0.3594 0.055 -0.916 0.396 26 19 16 0 0
-0.0612 -0.0311 -0.5384 0.611 -0.784 0.110 83 72 54 0 0
-0.0640 -0.0317 -0.5798 0.612 -0.764 0.205 56 44 32 0 0
-0.0527 -0.0500 -0.6160 0.389 -0.683 0.618 96 85 66 0 0
-0.0518 -0.0512 -0.6172 0.422 -0.775 0.471 91 78 57 0 0
-0.0501 -0.0536 -0.6195 0.718 -0.589 0.371 118 105 86 0 0
-0.0461 -0.0598 -0.6293 0.797 -0.557 0.235 108 92 72 0 0
-0.0457 -0.0611 -0.6366 0.627 -0.739 0.246 69 56 36 0 0
-0.0458 -0.0612 -0.6386 0.584 -0.727 0.361 48 35 17 0 0
-0.0453 -0.0619 -0.6401 0.545 -0.764 0.345 105 92 73 0 0
-0.0450 -0.0625 -0.6417 0.545 -0.764 0.345 120 108 88 0 0
-0.0315 -0.0837 -0.6791 0.912 0.222 0.346 10 8 9 0 0
-0.0220 -0.0982 -0.7005 0.834 -0.510 0.211 165 145 108 0 0
-0.0214 -0.0990 -0.7019 0.723 -0.679 0.125 153 136 98 0 0
-0.0115 -0.0597 -0.1597 -0.140 -0.833 0.535 134 120 93 0 0
-0.0101 -0.0618 -0.1622 -0.121 -0.695 0.708 129 115 86 0 0
0.0012 -0.0784 -0.1828 0.566 -0.798 0.208 67 55 30 0 0
-0.0003 -0.0807 -0.2251 0.627 -0.564 0.538 76 61 32 0 0
0.0014 -0.0838 -0.2330 0.667 -0.569 0.482 82 68 38 0 0
0.0010 -0.0856 -0.2575 0.629 -0.777 -0.040 80 66 38 0 0
0.0005 -0.0852 -0.2591 0.504 -0.846 0.172 80 65 37 0 0
0.0004 -0.0853 -0.2606 0.489 -0.870 0.068 81 66 38 0 0
0.0006 -0.0856 -0.2620 0.579 -0.759 0.297 84 69 40 0 0
0.0010 -0.0865 -0.2647 0.774 -0.600 -0.202 91 76 47 0 0
0.0010 -0.0867 -0.2676 0.484 -0.827 0.286 88 73 44 0 0
0.0010 -0.0869 -0.2691 0.399 -0.763 0.509 87 72 43 0 0
0.0015 -0.0877 -0.2703 0.258 -0.902 0.346 86 71 42 0 0
0.0018 -0.0881 -0.2717 0.258 -0.902 0.346 96 80 51 0 0
0.0019 -0.0889 -0.2775 0.102 -0.994 -0.037 93 76 44 0 0
0.0004 -0.0872 -0.2795 0.703 -0.451 0.551 100 84 52 0 0
-0.0322 -0.0533 -0.3607 0.182 -0.937 0.299 22 14 14 0 0
-0.0415 -0.0448 -0.3951 0.064 -0.834 -0.548 46 36 25 0 0
-0.0544 -0.0308 -0.4210 0.607 -0.720 -0.337 99 88 68 0 0
-0.0616 -0.0328 -0.5321 0.774 -0.632 -0.035 78 66 50 0 0
-0.0618 -0.0328 -0.5340 0.774 -0.632 -0.035 82 71 54 0 0
-0.0619 -0.0329 -0.5359 0.774 -0.632 -0.035 79 68 50 0 0
-0.0663 -0.0302 -0.5653 0.524 -0.686 0.504 39 31 22 0 0
-0.0658 -0.0310 -0.5668 0.524 -0.686 0.504 37 29 19 0 0
-0.0648 -0.0329 -0.5736 0.618 -0.761 0.200 87 74 57 0 0
-0.0655 -0.0327 -0.5797 0.577 -0.809 0.112 70 58 47 0 0
-0.0513 -0.0550 -0.6192 0.743 -0.599 0.298 112 99 80 0 0
-0.0506 -0.0560 -0.6205 0.676 -0.582 0.452 89 76 59 0 0
-0.0472 -0.0613 -0.6289 0.797 -0.557 0.235 132 116 95 0 0
-0.0430 -0.0688 -0.6500 0.496 -0.641 0.585 113 98 76 0 0
-0.0424 -0.0697 -0.6514 0.496 -0.641 0.585 96 80 64 0 0
-0.0137 -0.0594 -0.1613 -0.339 -0.754 0.563 121 106 83 0 0
0.0005 -0.0849 -0.2329 0.467 -0.462 0.754 80 65 35 0 0
0.0003 -0.0848 -0.2343 0.739 -0.496 0.455 77 62 32 0 0
-0.0001 -0.0868 -0.2588 0.953 -0.197 0.229 81 65 39 0 0
-0.0005 -0.0865 -0.2604 0.871 -0.341 0.354 80 64 38 0 0
-0.0006 -0.0865 -0.2619 0.504 -0.846 0.172 81 66 37 0 0
-0.0003 -0.0874 -0.2676 0.472 -0.875 0.103 89 74 45 0 0
-0.0003 -0.0876 -0.2690 0.462 -0.688 0.560 88 72 44 0 0
0.0003 -0.0885 -0.2703 0.341 -0.873 0.348 87 70 41 0 0
0.0002 -0.0886 -0.2718 0.258 -0.902 0.346 96 79 48 0 0
-0.0004 -0.0885 -0.2793 0.723 -0.522 0.452 96 79 49 0 0
-0.0002 -0.0892 -0.2837 0.865 -0.397 0.308 97 81 50 0 0
-0.0003 -0.0899 -0.2925 0.717 -0.661 0.220 124 108 73 0 0
-0.0004 -0.0900 -0.2941 0.588 -0.798 0.131 130 112 77 0 0
-0.0380 -0.0470 -0.3453 0.324 -0.725 0.608 9 9 9 0 0
-0.0376 -0.0476 -0.3467 0.692 -0.587 0.421 11 9 10 0 0
-0.0372 -0.0482 -0.3481 0.692 -0.587 0.421 12 10 11 0 0
-0.0360 -0.0502 -0.3523 0.266 -0.932 0.245 15 11 11 0 0
-0.0347 -0.0525 -0.3580 0.369 -0.806 0.462 19 13 14 0 0
-0.0341 -0.0534 -0.3593 0.265 -0.939 0.219 22 14 14 0 0
-0.0340 -0.0537 -0.3609 0.130 -0.952 0.276 22 14 13 0 0
-0.0539 -0.0337 -0.4165 0.710 -0.570 -0.414 97 85 65 0 0
-0.0615 -0.0276 -0.4521 0.258 -0.741 0.620 58 52 45 0 0
-0.0632 -0.0330 -0.5266 0.815 -0.579 -0.020 85 72 54 0 0
-0.0629 -0.0342 -0.5337 0.774 -0.632 -0.035 95 83 67 0 0
-0.0677 -0.0312 -0.5652 0.524 -0.686 0.504 42 35 27 0 0
-0.0673 -0.0319 -0.5668 0.532 -0.623 0.574 55 47 37 0 0
-0.0652 -0.0352 -0.5726 0.635 -0.584 0.505 59 45 32 0 0
-0.0634 -0.0387 -0.5844 0.640 -0.541 0.545 138 125 106 0 0
-0.0592 -0.0461 -0.6037 0.440 -0.824 0.356 84 75 58 0 0
-0.0525 -0.0562 -0.6189 0.737 -0.555 0.386 109 98 78 0 0
-0.0219 -0.1054 -0.7149 0.745 -0.450 0.493 155 135 96 0 0
-0.0332 -0.1059 -0.8630 0.970 -0.227 0.081 30 30 28 0 0
-0.0029 -0.0798 -0.2025 0.475 -0.666 0.575 59 48 29 0 0
-0.0012 -0.0880 -0.2602 0.874 -0.464 -0.146 81 65 39 0 0
-0.0011 -0.0898 -0.2776 0.434 -0.901 0.012 97 80 52 0 0
-0.0011 -0.0899 -0.2791 0.678 -0.723 0.133 95 78 48 0 0
-0.0012 -0.0901 -0.2820 0.865 -0.397 0.308 92 75 45 0 0
-0.0010 -0.0906 -0.2834 0.865 -0.397 0.308 95 78 47 0 0
-0.0379 -0.0499 -0.3477 0.550 -0.818 0.167 32 28 28 0 0
-0.0379 -0.0502 -0.3509 0.390 -0.912 0.131 35 31 28 0 0
-0.0376 -0.0507 -0.3524 0.266 -0.932 0.245 19 14 11 0 0
-0.0361 -0.0532 -0.3581 0.369 -0.806 0.462 19 13 13 0 0
-0.0362 -0.0543 -0.3694 0.070 -0.996 -0.056 41 36 30 0 0
-0.0366 -0.0542 -0.3728 -0.107 -0.990 -0.090 34 27 21 0 0
-0.0372 -0.0536 -0.3748 -0.002 -0.972 -0.234 33 26 19 0 0
-0.0442 -0.0463 -0.3917 0.251 -0.849 -0.465 49 39 26 0 0
-0.0545 -0.0355 -0.4142 0.349 -0.908 -0.232 93 81 59 0 0
-0.0552 -0.0348 -0.4163 0.417 -0.875 -0.248 98 86 64 0 0
-0.0632 -0.0278 -0.4487 0.501 -0.850 0.162 38 31 26 0 0
-0.0631 -0.0281 -0.4504 0.256 -0.909 0.329 32 27 23 0 0
-0.0605 -0.0336 -0.4716 0.429 -0.690 0.583 124 112 88 0 0
-0.0600 -0.0345 -0.4730 0.429 -0.690 0.583 131 119 93 0 0
-0.0595 -0.0352 -0.4745 0.445 -0.756 0.481 75 62 38 0 0
-0.0603 -0.0352 -0.4839 0.699 -0.676 0.232 102 87 64 0 0
-0.0601 -0.0356 -0.4855 0.699 -0.676 0.232 76 61 37 0 0
-0.0665 -0.0364 -0.5725 0.522 -0.632 0.573 50 37 21 0 0
-0.0660 -0.0371 -0.5740 0.627 -0.658 0.417 54 43 26 0 0
-0.0640 -0.0409 -0.5856 0.318 -0.707 0.632 126 113 92 0 0
-0.0607 -0.0470 -0.6037 0.427 -0.642 0.637 65 56 40 0 0
-0.0589 -0.0493 -0.6041 0.695 -0.673 0.253 70 61 45 0 0
-0.0586 -0.0501 -0.6076 0.675 -0.705 0.215 116 103 82 0 0
-0.0583 -0.0506 -0.6093 0.640 -0.740 0.207 142 127 109 0 0
-0.0577 -0.0517 -0.6126 0.560 -0.697 0.447 145 130 108 0 0
-0.0532 -0.0583 -0.6201 0.686 -0.546 0.481 84 72 54 0 0
-0.0441 -0.0738 -0.6579 0.567 -0.809 0.154 41 29 12 0 0
-0.0222 -0.1087 -0.7234 0.419 -0.756 0.503 178 164 120 0 0
-0.0277 -0.1123 -0.8267 0.704 -0.698 0.127 181 164 118 0 0
-0.0278 -0.1123 -0.8290 0.692 -0.704 0.162 180 163 117 0 0
-0.0277 -0.1127 -0.8310 0.692 -0.704 0.162 175 158 111 0 0
-0.0041 -0.0804 -0.2011 0.626 -0.525 0.576 57 42 26 0 0
-0.0036 -0.0812 -0.2023 0.626 -0.525 0.576 60 49 31 0 0
-0.0029 -0.0900 -0.2778 0.400 -0.896 0.194 97 80 52 0 0
-0.0026 -0.0905 -0.2791 0.406 -0.838 0.365 97 80 50 0 0
-0.0021 -0.0912 -0.2804 0.679 -0.726 0.111 97 80 50 0 0
-0.0020 -0.0915 -0.2818 0.446 -0.617 0.649 94 77 47 0 0
-0.0016 -0.0921 -0.2831 0.911 -0.362 0.197 92 75 44 0 0
-0.0047 -0.0924 -0.3232 0.867 -0.498 -0.023 29 21 11 0 0
-0.0389 -0.0517 -0.3523 0.807 -0.590 0.042 47 42 37 0 0
-0.0387 -0.0522 -0.3555 0.569 -0.789 0.229 25 20 17 0 0
-0.0384 -0.0527 -0.3569 0.537 -0.703 0.467 16 11 8 0 0
-0.0381 -0.0533 -0.3583 0.551 -0.708 0.441 17 12 9 0 0
-0.0379 -0.0538 -0.3598 0.621 -0.727 0.295 22 17 13 0 0
-0.0388 -0.0539 -0.3733 -0.107 -0.990 -0.090 43 36 30 0 0
-0.0563 -0.0359 -0.4144 0.466 -0.869 -0.167 86 74 50 0 0
-0.0562 -0.0361 -0.4161 0.309 -0.911 -0.274 93 81 57 0 0
-0.0642 -0.0307 -0.4625 0.755 -0.638 0.149 55 42 31 0 0
-0.0638 -0.0314 -0.4639 0.482 -0.839 0.253 73 60 45 0 0
-0.0651 -0.0363 -0.5276 0.613 -0.789 0.035 92 80 59 0 0
-0.0665 -0.0360 -0.5415 0.601 -0.798 -0.052 83 72 54 0 0
-0.0666 -0.0360 -0.5435 0.646 -0.762 -0.033 80 69 51 0 0
-0.0703 -0.0337 -0.5668 0.720 -0.582 0.378 40 33 27 0 0
-0.0680 -0.0373 -0.5724 0.562 -0.594 0.576 111 98 82 0 0
-0.0674 -0.0382 -0.5739 0.648 -0.627 0.433 97 86 70 0 0
-0.0599 -0.0513 -0.6074 0.675 -0.705 0.215 110 98 76 0 0
-0.0594 -0.0522 -0.6108 0.795 -0.568 0.214 102 85 68 0 0
-0.0590 -0.0530 -0.6124 0.520 -0.738 0.430 134 119 95 0 0
-0.0583 -0.0539 -0.6137 0.652 -0.544 0.528 122 108 82 0 0
-0.0454 -0.0747 -0.6538 0.510 -0.837 0.197 84 71 51 0 0
-0.0239 -0.1106 -0.7354 0.529 -0.848 0.013 166 149 104 0 0
-0.0241 -0.1109 -0.7417 0.768 -0.641 -0.013 178 158 115 0 0
-0.0336 -0.1110 -0.8596 0.757 -0.051 0.651 12 11 10 0 0
-0.0051 -0.0815 -0.2010 0.626 -0.525 0.576 59 45 27 0 0
-0.0050 -0.0829 -0.2135 0.615 -0.763 0.198 74 68 49 0 0
-0.0023 -0.0871 -0.2211 0.202 -0.638 0.743 129 120 101 0 0
-0.0020 -0.0877 -0.2224 0.369 -0.538 0.758 104 92 73 0 0
0.0016 -0.0940 -0.2396 0.488 -0.605 0.629 64 50 25 0 0
-0.0029 -0.0923 -0.2772 0.745 -0.528 0.409 97 80 50 0 0
-0.0028 -0.0926 -0.2801 0.569 -0.815 -0.110 97 80 50 0 0
-0.0030 -0.0926 -0.2817 0.503 -0.720 0.478 96 79 49 0 0
-0.0063 -0.0928 -0.3233 0.980 -0.199 0.019 67 57 39 0 0
-0.0391 -0.0551 -0.3630 0.517 -0.840 0.166 37 29 23 0 0
-0.0415 -0.0534 -0.3755 0.186 -0.945 -0.270 60 53 44 0 0
-0.0462 -0.0486 -0.3879 0.257 -0.873 -0.415 54 45 34 0 0
-0.0472 -0.0476 -0.3901 0.217 -0.858 -0.465 52 43 33 0 0
-0.0574 -0.0373 -0.4159 0.713 -0.679 -0.176 93 82 59 0 0
-0.0651 -0.0329 -0.4673 0.407 -0.733 0.546 63 52 37 0 0
-0.0626 -0.0370 -0.4763 0.388 -0.764 0.515 108 93 69 0 0
-0.0676 -0.0370 -0.5375 0.703 -0.711 0.012 85 74 56 0 0
-0.0678 -0.0375 -0.5450 0.757 -0.629 0.177 79 69 51 0 0
-0.0722 -0.0340 -0.5652 0.659 -0.598 0.456 34 26 21 0 0
-0.0687 -0.0394 -0.5737 0.627 -0.658 0.417 61 48 35 0 0
-0.0609 -0.0529 -0.6090 0.673 -0.718 0.176 106 92 70 0 0
-0.0247 -0.1130 -0.7406 0.827 -0.532 0.182 180 163 115 0 0
-0.0354 -0.1113 -0.8556 0.853 -0.326 0.408 9 10 9 0 0
-0.0373 -0.1104 -0.8708 0.737 -0.313 0.599 120 118 115 0 0
-0.0061 -0.0825 -0.2009 0.651 -0.563 0.509 89 77 53 0 0
-0.0052 -0.0840 -0.2034 0.392 -0.847 0.360 98 86 61 0 0
-0.0044 -0.0852 -0.2059 -0.052 -0.966 -0.254 96 86 68 0 0
-0.0003 -0.0940 -0.2397 0.629 -0.688 0.363 64 49 26 0 0
-0.0028 -0.0925 -0.2564 0.760 -0.623 -0.185 75 59 33 0 0
-0.0028 -0.0928 -0.2578 0.823 -0.549 -0.145 78 62 37 0 0
-0.0037 -0.0918 -0.2596 0.731 -0.597 -0.329 79 63 38 0 0
-0.0043 -0.0933 -0.2817 0.776 -0.495 0.391 98 81 51 0 0
-0.0070 -0.0944 -0.3245 0.956 -0.292 -0.032 63 54 39 0 0
-0.0413 -0.0535 -0.3505 0.494 -0.795 0.351 62 54 47 0 0
-0.0406 -0.0545 -0.3518 0.547 -0.684 0.484 70 62 53 0 0
-0.0399 -0.0561 -0.3578 0.625 -0.736 0.258 19 16 12 0 0
-0.0433 -0.0537 -0.3757 0.186 -0.945 -0.270 55 48 38 0 0
-0.0487 -0.0483 -0.3901 0.259 -0.879 -0.400 45 37 25 0 0
-0.0495 -0.0476 -0.3922 0.276 -0.871 -0.407 50 43 29 0 0
-0.0638 -0.0339 -0.4360 0.723 -0.634 -0.276 94 83 63 0 0
-0.0658 -0.0349 -0.4686 0.645 -0.647 0.406 79 68 54 0 0
-0.0641 -0.0378 -0.4763 0.388 -0.764 0.515 100 86 59 0 0
-0.0626 -0.0417 -0.4948 0.701 -0.691 0.177 75 63 42 0 0
-0.0683 -0.0402 -0.5498 0.795 -0.600 0.092 73 63 51 0 0
-0.0693 -0.0394 -0.5543 0.804 -0.590 0.075 67 56 44 0 0
-0.0729 -0.0361 -0.5664 0.665 -0.528 0.528 25 17 14 0 0
-0.0705 -0.0398 -0.5720 0.522 -0.618 0.588 69 56 41 0 0
-0.0700 -0.0405 -0.5735 0.679 -0.661 0.321 67 55 38 0 0
-0.0622 -0.0541 -0.6088 0.673 -0.718 0.176 106 91 70 0 0
-0.0283 -0.1156 -0.7831 0.736 -0.519 0.436 151 132 87 0 0
-0.0287 -0.1169 -0.7998 0.764 -0.627 0.152 178 160 112 0 0
-0.0289 -0.1169 -0.8020 0.684 -0.696 0.217 172 154 106 0 0
-0.0361 -0.1133 -0.8545 0.806 -0.453 0.381 16 16 13 0 0
-0.0353 -0.1148 -0.8600 0.866 -0.443 0.233 19 18 16 0 0
-0.0074 -0.0822 -0.1911 0.366 -0.926 -0.095 71 58 40 0 0
-0.0076 -0.0827 -0.1981 0.820 -0.540 0.187 92 80 54 0 0
-0.0036 -0.0906 -0.2249 0.661 -0.654 0.367 88 76 51 0 0
-0.0028 -0.0920 -0.2288 0.491 -0.799 0.348 61 46 24 0 0
-0.0036 -0.0913 -0.2319 0.512 -0.838 0.189 62 48 25 0 0
-0.0035 -0.0917 -0.2333 0.360 -0.841 0.404 62 48 26 0 0
-0.0046 -0.0930 -0.2594 0.748 -0.663 0.028 79 63 38 0 0
-0.0054 -0.0926 -0.2655 0.394 -0.739 0.547 78 62 36 0 0
-0.0051 -0.0935 -0.2697 0.461 -0.686 0.562 82 67 36 0 0
-0.0052 -0.0945 -0.2815 0.765 -0.476 0.434 97 80 50 0 0
-0.0049 -0.0951 -0.2828 0.776 -0.495 0.391 102 85 53 0 0
-0.0040 -0.0963 -0.2839 0.762 -0.617 0.195 115 99 66 0 0
-0.0048 -0.0960 -0.2901 0.880 -0.465 -0.096 114 98 64 0 0
-0.0032 -0.1002 -0.3116 0.836 -0.517 0.183 107 94 59 0 0
-0.0073 -0.0963 -0.3240 0.924 -0.316 -0.217 98 86 60 0 0
-0.0424 -0.0550 -0.3535 0.121 -0.737 0.665 65 61 53 0 0
-0.0417 -0.0561 -0.3548 0.250 -0.706 0.663 69 65 59 0 0
-0.0417 -0.0562 -0.3564 0.482 -0.808 0.338 61 56 53 0 0
-0.0415 -0.0566 -0.3579 0.511 -0.829 0.225 31 26 22 0 0
-0.0467 -0.0523 -0.3801 0.194 -0.861 -0.470 27 23 14 0 0
-0.0475 -0.0516 -0.3821 0.188 -0.890 -0.415 28 22 14 0 0
-0.0491 -0.0500 -0.3862 0.144 -0.921 -0.362 40 32 25 0 0
-0.0497 -0.0494 -0.3883 0.190 -0.939 -0.287 53 45 33 0 0
-0.0504 -0.0488 -0.3903 0.276 -0.871 -0.407 64 57 40 0 0
-0.0623 -0.0373 -0.4239 0.877 -0.453 0.161 93 81 56 0 0
-0.0669 -0.0361 -0.4683 0.626 -0.666 0.405 84 75 60 0 0
-0.0673 -0.0358 -0.4704 0.254 -0.812 0.525 106 95 77 0 0
-0.0658 -0.0384 -0.4765 0.518 -0.694 0.500 80 66 39 0 0
-0.0656 -0.0390 -0.4799 0.288 -0.883 0.372 86 72 46 0 0
-0.0644 -0.0411 -0.4862 0.761 -0.627 0.164 97 83 56 0 0
-0.0718 -0.0409 -0.5719 0.599 -0.584 0.548 94 83 66 0 0
-0.0712 -0.0417 -0.5733 0.679 -0.661 0.321 96 83 63 0 0
-0.0694 -0.0459 -0.5907 0.431 -0.777 0.459 78 62 46 0 0
-0.0635 -0.0553 -0.6086 0.643 -0.752 0.143 112 99 79 0 0
-0.0263 -0.1102 -0.6809 0.751 -0.601 0.274 168 151 106 0 0
-0.0370 -0.1149 -0.8538 0.871 -0.455 0.186 28 27 21 0 0
-0.0371 -0.1150 -0.8560 0.838 -0.427 0.340 10 10 8 0 0
-0.0368 -0.1157 -0.8577 0.886 -0.458 0.076 10 9 10 0 0
-0.0372 -0.1159 -0.8646 0.898 -0.434 0.075 62 58 55 0 0
-0.0089 -0.0837 -0.2009 0.235 -0.939 0.250 106 94 69 0 0
-0.0106 -0.0835 -0.2196 -0.336 -0.731 0.594 82 73 63 0 0
-0.0089 -0.0857 -0.2205 -0.208 -0.543 0.814 93 84 74 0 0
-0.0043 -0.0922 -0.2261 0.534 -0.725 0.436 108 94 68 0 0
-0.0037 -0.0941 -0.2372 0.172 -0.816 0.552 57 42 25 0 0
-0.0030 -0.0964 -0.2497 0.567 -0.615 0.548 69 52 29 0 0
-0.0045 -0.0968 -0.2719 0.801 -0.592 0.086 89 73 43 0 0
-0.0064 -0.0979 -0.3050 0.455 -0.818 0.352 104 89 56 0 0
-0.0061 -0.0984 -0.3064 0.475 -0.719 0.507 104 91 57 0 0
-0.0053 -0.0998 -0.3089 0.367 -0.867 0.337 100 86 53 0 0
-0.0078 -0.0983 -0.3251 0.826 -0.534 -0.179 92 80 58 0 0
-0.0438 -0.0559 -0.3551 0.005 -0.747 0.665 64 63 56 0 0
-0.0429 -0.0574 -0.3579 0.483 -0.865 0.134 31 24 21 0 0
-0.0435 -0.0575 -0.3663 0.480 -0.873 0.082 32 24 20 0 0
-0.0436 -0.0576 -0.3679 0.485 -0.874 0.039 40 33 25 0 0
-0.0443 -0.0569 -0.3699 0.402 -0.903 -0.150 48 42 31 0 0
-0.0447 -0.0566 -0.3717 0.563 -0.724 -0.398 52 45 34 0 0
-0.0454 -0.0560 -0.3737 0.563 -0.724 -0.398 51 44 35 0 0
-0.0448 -0.0569 -0.3750 0.357 -0.751 -0.556 41 34 27 0 0
-0.0486 -0.0526 -0.3803 0.194 -0.861 -0.470 26 21 17 0 0
-0.0496 -0.0515 -0.3825 0.131 -0.898 -0.419 30 23 17 0 0
-0.0503 -0.0509 -0.3845 0.103 -0.950 -0.296 46 39 30 0 0
-0.0517 -0.0495 -0.3886 0.105 -0.953 -0.283 61 54 38 0 0
-0.0624 -0.0388 -0.4146 0.283 -0.959 -0.023 85 72 53 0 0
-0.0624 -0.0389 -0.4163 0.238 -0.951 0.195 97 84 64 0 0
-0.0630 -0.0384 -0.4183 0.573 -0.806 -0.149 103 91 68 0 0
-0.0634 -0.0383 -0.4220 0.618 -0.786 -0.013 104 93 66 0 0
-0.0635 -0.0384 -0.4237 0.833 -0.480 0.276 98 85 58 0 0
-0.0681 -0.0375 -0.4700 0.694 -0.719 0.048 64 53 39 0 0
-0.0678 -0.0382 -0.4733 0.459 -0.751 0.474 126 113 88 0 0
-0.0658 -0.0419 -0.4844 0.728 -0.536 0.427 103 89 62 0 0
-0.0647 -0.0442 -0.4925 0.675 -0.733 0.082 88 75 51 0 0
-0.0663 -0.0444 -0.5133 0.898 -0.417 0.143 81 70 50 0 0
-0.0698 -0.0424 -0.5358 0.620 -0.785 0.018 95 84 66 0 0
-0.0730 -0.0422 -0.5716 0.616 -0.671 0.413 73 61 44 0 0
-0.0725 -0.0429 -0.5731 0.679 -0.661 0.321 76 62 45 0 0
-0.0721 -0.0450 -0.5879 0.626 -0.661 0.413 81 68 51 0 0
-0.0709 -0.0468 -0.5907 0.431 -0.777 0.459 71 57 41 0 0
-0.0690 -0.0493 -0.5910 0.693 -0.626 0.358 99 84 68 0 0
-0.0675 -0.0519 -0.5973 0.459 -0.844 0.279 87 72 53 0 0
-0.0673 -0.0523 -0.5991 0.459 -0.844 0.279 75 63 44 0 0
-0.0671 -0.0528 -0.6008 0.459 -0.844 0.279 63 51 38 0 0
-0.0665 -0.0536 -0.6022 0.340 -0.781 0.524 47 35 24 0 0
-0.0658 -0.0549 -0.6054 0.365 -0.919 0.149 113 102 84 0 0
-0.0579 -0.0664 -0.6195 0.561 -0.484 0.671 133 121 98 0 0
-0.0254 -0.1108 -0.6503 0.836 -0.548 -0.046 151 135 93 0 0
-0.0288 -0.1176 -0.7541 0.766 -0.642 0.030 172 154 104 0 0
-0.0294 -0.1175 -0.7608 0.777 -0.629 0.004 161 143 98 0 0
-0.0316 -0.1163 -0.7753 0.379 -0.924 0.044 150 134 90 0 0
-0.0317 -0.1164 -0.7774 0.494 -0.859 0.135 131 112 78 0 0
-0.0317 -0.1169 -0.7814 0.654 -0.723 0.223 142 124 85 0 0
-0.0314 -0.1174 -0.7831 0.634 -0.692 0.345 112 90 54 0 0
-0.0311 -0.1179 -0.7849 0.661 -0.710 0.241 115 92 54 0 0
-0.0318 -0.1213 -0.8246 0.821 -0.570 0.035 176 159 110 0 0
-0.0321 -0.1214 -0.8291 0.690 -0.724 -0.013 177 160 113 0 0
-0.0377 -0.1173 -0.8570 0.885 -0.454 -0.107 11 10 9 0 0
-0.0360 -0.0477 -0.1625 -0.471 -0.769 0.433 178 178 178 0 0
-0.0243 -0.0636 -0.1739 -0.060 -0.326 0.944 151 141 128 0 0
-0.0155 -0.0793 -0.2165 -0.126 -0.984 -0.126 74 67 49 0 0
-0.0051 -0.0935 -0.2259 0.502 -0.721 0.477 127 114 87 0 0
-0.0036 -0.0955 -0.2282 0.410 -0.787 0.462 67 57 31 0 0
-0.0045 -0.0966 -0.2483 0.438 -0.836 0.332 71 55 32 0 0
-0.0042 -0.0971 -0.2497 0.410 -0.680 0.608 67 51 28 0 0
-0.0066 -0.0994 -0.2986 0.807 -0.554 0.205 106 91 60 0 0
-0.0067 -0.1004 -0.3090 0.367 -0.867 0.337 95 78 47 0 0
-0.0064 -0.1008 -0.3104 0.367 -0.867 0.337 94 78 48 0 0
-0.0063 -0.1012 -0.3118 0.535 -0.845 0.011 95 81 48 0 0
-0.0092 -0.0990 -0.3251 0.739 -0.662 0.129 111 97 66 0 0
-0.0500 -0.0534 -0.3803 0.227 -0.784 -0.577 25 20 16 0 0
-0.0512 -0.0522 -0.3825 0.104 -0.897 -0.430 24 17 14 0 0
-0.0524 -0.0508 -0.3849 -0.011 -0.968 -0.252 44 36 28 0 0
-0.0530 -0.0503 -0.3868 -0.011 -0.968 -0.252 59 52 38 0 0
-0.0533 -0.0501 -0.3886 0.160 -0.957 -0.241 59 53 38 0 0
-0.0545 -0.0488 -0.3909 0.081 -0.939 -0.335 51 45 33 0 0
-0.0630 -0.0408 -0.4158 0.545 -0.804 -0.236 78 65 45 0 0
-0.0643 -0.0401 -0.4251 0.322 -0.894 0.313 108 94 68 0 0
-0.0652 -0.0465 -0.4936 0.665 -0.651 0.366 92 77 54 0 0
-0.0651 -0.0469 -0.4971 0.780 -0.622 0.071 86 71 48 0 0
-0.0734 -0.0462 -0.5877 0.552 -0.781 0.293 77 64 47 0 0
-0.0702 -0.0506 -0.5907 0.556 -0.732 0.394 77 65 49 0 0
-0.0688 -0.0528 -0.5953 0.594 -0.573 0.564 107 94 77 0 0
-0.0687 -0.0531 -0.5971 0.483 -0.801 0.353 80 67 50 0 0
-0.0684 -0.0537 -0.5987 0.483 -0.801 0.353 68 56 39 0 0
-0.0685 -0.0538 -0.6007 0.466 -0.711 0.527 58 49 35 0 0
-0.0680 -0.0545 -0.6022 0.351 -0.698 0.625 48 38 26 0 0
-0.0667 -0.0565 -0.6049 0.585 -0.576 0.571 99 87 71 0 0
-0.0664 -0.0571 -0.6066 0.708 -0.648 0.282 101 89 73 0 0
-0.0595 -0.0668 -0.6159 0.594 -0.469 0.653 131 116 92 0 0
-0.0586 -0.0681 -0.6169 0.625 -0.419 0.658 111 100 78 0 0
-0.0334 -0.1167 -0.7736 0.421 -0.882 0.210 151 134 95 0 0
-0.0329 -0.1227 -0.8241 0.672 -0.713 0.197 182 164 116 0 0
-0.0328 -0.1231 -0.8260 0.613 -0.744 0.265 176 158 110 0 0
-0.0395 -0.1190 -0.8657 0.886 -0.464 -0.004 68 68 60 0 0
-0.0286 -0.0605 -0.1731 0.170 -0.804 0.570 169 167 160 0 0
-0.0261 -0.0636 -0.1740 -0.137 -0.451 0.882 171 166 159 0 0
-0.0240 -0.0664 -0.1748 0.178 -0.140 0.974 176 170 155 0 0
-0.0210 -0.0703 -0.1755 -0.100 -0.209 0.973 165 154 130 0 0
-0.0147 -0.0809 -0.2003 -0.323 -0.946 -0.026 110 98 71 0 0
-0.0176 -0.0790 -0.2167 -0.074 -0.970 -0.230 76 69 51 0 0
-0.0055 -0.0953 -0.2270 0.648 -0.711 0.273 91 81 56 0 0
-0.0050 -0.0962 -0.2282 0.410 -0.787 0.462 77 66 40 0 0
-0.0047 -0.0966 -0.2295 0.248 -0.780 0.575 64 51 33 0 0
-0.0050 -0.0974 -0.2395 0.517 -0.696 0.497 58 42 24 0 0
-0.0046 -0.0980 -0.2408 0.506 -0.691 0.516 63 48 28 0 0
-0.0058 -0.0973 -0.2483 0.438 -0.836 0.332 73 57 34 0 0
-0.0055 -0.0979 -0.2496 0.410 -0.680 0.608 70 54 31 0 0
-0.0064 -0.1013 -0.2920 0.794 -0.599 0.105 109 93 61 0 0
-0.0084 -0.1005 -0.3076 0.484 -0.798 0.360 86 71 42 0 0
-0.0081 -0.1010 -0.3090 0.347 -0.836 0.425 84 66 38 0 0
-0.0075 -0.1019 -0.3102 0.278 -0.722 0.634 83 65 38 0 0
-0.0078 -0.1022 -0.3163 0.755 -0.645 0.115 113 98 65 0 0
-0.0102 -0.1001 -0.3250 0.739 -0.662 0.129 124 108 74 0 0
-0.0473 -0.0583 -0.3700 0.370 -0.857 -0.359 56 49 40 0 0
-0.0496 -0.0561 -0.3760 0.249 -0.689 -0.681 39 32 26 0 0
-0.0532 -0.0523 -0.3828 0.104 -0.897 -0.430 23 18 14 0 0
-0.0552 -0.0500 -0.3856 0.025 -0.996 -0.089 45 38 32 0 0
-0.0553 -0.0501 -0.3872 0.189 -0.977 -0.097 55 48 38 0 0
-0.0664 -0.0402 -0.4254 0.697 -0.715 0.047 102 88 62 0 0
-0.0707 -0.0366 -0.4417 0.863 -0.505 -0.027 81 73 56 0 0
-0.0753 -0.0436 -0.5598 0.618 -0.769 0.165 39 33 27 0 0
-0.0748 -0.0473 -0.5876 0.565 -0.731 0.382 81 68 51 0 0
-0.0713 -0.0519 -0.5904 0.660 -0.620 0.425 55 44 29 0 0
-0.0709 -0.0526 -0.5920 0.637 -0.638 0.433 80 68 55 0 0
-0.0702 -0.0539 -0.5952 0.580 -0.641 0.502 112 99 83 0 0
-0.0703 -0.0540 -0.5972 0.451 -0.809 0.378 76 63 46 0 0
-0.0699 -0.0547 -0.5987 0.555 -0.799 0.230 77 65 49 0 0
-0.0330 -0.1222 -0.7937 0.555 -0.742 0.375 148 128 84 0 0
-0.0340 -0.1245 -0.8256 0.530 -0.802 0.277 171 153 105 0 0
-0.0252 -0.0673 -0.1748 0.178 -0.140 0.974 176 172 163 0 0
-0.0195 -0.0745 -0.1762 -0.133 -0.367 0.921 122 106 81 0 0
-0.0163 -0.0786 -0.1768 -0.136 -0.588 0.798 122 106 80 0 0
-0.0138 -0.0826 -0.1844 0.191 -0.962 0.197 112 98 73 0 0
-0.0138 -0.0837 -0.1941 -0.316 -0.947 -0.055 113 101 75 0 0
-0.0157 -0.0815 -0.1960 -0.381 -0.906 0.183 118 106 80 0 0
-0.0155 -0.0818 -0.1974 -0.381 -0.906 0.183 117 105 79 0 0
-0.0186 -0.0792 -0.2081 -0.233 -0.970 0.073 89 78 59 0 0
-0.0136 -0.0869 -0.2221 -0.115 -0.382 0.917 115 108 91 0 0
-0.0117 -0.0894 -0.2229 -0.115 -0.382 0.917 125 114 97 0 0
-0.0066 -0.0963 -0.2269 0.648 -0.711 0.273 113 103 77 0 0
-0.0064 -0.0966 -0.2282 0.648 -0.711 0.273 104 93 66 0 0
-0.0074 -0.0977 -0.2484 0.388 -0.763 0.517 74 58 35 0 0
-0.0071 -0.0983 -0.2512 0.434 -0.747 0.504 71 54 31 0 0
-0.0075 -0.1019 -0.2890 0.770 -0.633 -0.081 105 88 57 0 0
-0.0075 -0.1021 -0.2904 0.749 -0.662 -0.020 106 89 58 0 0
-0.0108 -0.1017 -0.3246 0.850 -0.399 -0.344 123 108 71 0 0
-0.0482 -0.0581 -0.3552 0.271 -0.961 0.056 60 55 51 0 0
-0.0484 -0.0588 -0.3633 0.206 -0.961 0.186 31 23 18 0 0
-0.0483 -0.0590 -0.3649 0.206 -0.961 0.186 36 28 22 0 0
-0.0482 -0.0594 -0.3664 0.282 -0.942 0.179 42 35 29 0 0
-0.0486 -0.0591 -0.3683 0.403 -0.912 -0.072 46 39 32 0 0
-0.0507 -0.0571 -0.3742 0.340 -0.844 -0.415 50 43 36 0 0
-0.0557 -0.0517 -0.3834 0.316 -0.864 -0.391 16 11 10 0 0
-0.0572 -0.0501 -0.3859 0.260 -0.961 0.091 25 20 16 0 0
-0.0573 -0.0502 -0.3876 0.332 -0.943 0.009 38 32 25 0 0
-0.0583 -0.0492 -0.3898 0.074 -0.968 -0.240 43 36 29 0 0
-0.0628 -0.0453 -0.4056 0.236 -0.960 -0.149 69 60 46 0 0
-0.0722 -0.0374 -0.4417 0.520 -0.838 -0.167 69 62 46 0 0
-0.0727 -0.0402 -0.4736 0.198 -0.967 0.163 100 87 69 0 0
-0.0722 -0.0411 -0.4750 0.147 -0.911 0.384 86 72 52 0 0
-0.0699 -0.0439 -0.4753 0.071 -0.724 0.686 77 60 43 0 0
-0.0727 -0.0465 -0.5310 0.566 -0.813 -0.139 93 82 63 0 0
-0.0785 -0.0418 -0.5537 0.372 -0.928 0.013 37 29 26 0 0
-0.0785 -0.0419 -0.5555 0.341 -0.931 0.132 36 28 25 0 0
-0.0784 -0.0423 -0.5573 0.393 -0.918 0.049 23 18 14 0 0
-0.0765 -0.0457 -0.5670 0.637 -0.527 0.562 73 66 56 0 0
-0.0762 -0.0463 -0.5687 0.611 -0.737 0.289 85 78 65 0 0
-0.0762 -0.0483 -0.5875 0.565 -0.731 0.382 71 58 41 0 0
-0.0755 -0.0494 -0.5888 0.488 -0.736 0.468 78 66 50 0 0
-0.0720 -0.0545 -0.5954 0.586 -0.739 0.332 80 66 52 0 0
-0.0717 -0.0550 -0.5971 0.586 -0.739 0.332 73 60 44 0 0
-0.0713 -0.0557 -0.5986 0.555 -0.799 0.230 76 64 49 0 0
-0.0706 -0.0567 -0.6000 0.399 -0.709 0.581 46 36 26 0 0
-0.0701 -0.0575 -0.6014 0.399 -0.709 0.581 57 47 38 0 0
-0.0690 -0.0590 -0.6024 0.490 -0.659 0.571 90 77 67 0 0
-0.0280 -0.1165 -0.6580 0.903 -0.430 -0.000 180 165 120 0 0
-0.0362 -0.1192 -0.7774 0.615 -0.782 0.100 109 96 70 0 0
-0.0364 -0.1192 -0.7797 0.691 -0.722 0.029 112 100 73 0 0
-0.0344 -0.1232 -0.7936 0.490 -0.691 0.531 153 136 94 0 0
-0.0335 -0.1256 -0.8048 0.750 -0.615 0.244 177 158 110 0 0
-0.0333 -0.1260 -0.8066 0.574 -0.797 0.188 173 155 107 0 0
-0.0408 -0.0490 -0.1654 0.367 -0.676 -0.639 178 178 178 0 0
-0.0305 -0.0627 -0.1729 0.751 -0.441 0.491 178 178 177 0 0
-0.0194 -0.0771 -0.1772 -0.329 -0.650 0.685 113 97 70 0 0
-0.0153 -0.0831 -0.1858 -0.437 -0.854 0.284 112 99 73 0 0
-0.0187 -0.0801 -0.1965 -0.407 -0.844 0.350 117 105 80 0 0
-0.0209 -0.0782 -0.2041 -0.058 -0.996 -0.070 99 87 63 0 0
-0.0209 -0.0785 -0.2069 -0.233 -0.970 0.073 100 88 65 0 0
-0.0209 -0.0786 -0.2083 -0.233 -0.970 0.073 97 86 64 0 0
-0.0193 -0.0822 -0.2220 -0.132 -0.240 0.962 105 98 81 0 0
-0.0157 -0.0868 -0.2223 -0.112 -0.400 0.910 121 112 95 0 0
-0.0138 -0.0892 -0.2231 -0.031 -0.333 0.942 135 123 106 0 0
-0.0118 -0.0918 -0.2239 -0.021 -0.338 0.941 137 125 104 0 0
-0.0099 -0.0942 -0.2247 -0.151 -0.499 0.853 132 120 97 0 0
-0.0090 -0.0955 -0.2258 -0.150 -0.698 0.700 134 122 99 0 0
-0.0074 -0.0977 -0.2281 -0.092 -0.734 0.673 144 133 100 0 0
-0.0072 -0.0982 -0.2294 0.112 -0.658 0.745 115 104 80 0 0
-0.0109 -0.0942 -0.2364 0.498 -0.621 0.605 51 38 21 0 0
-0.0101 -0.0954 -0.2375 0.362 -0.593 0.719 54 40 24 0 0
-0.0082 -0.1013 -0.2698 0.613 -0.721 0.324 83 68 38 0 0
-0.0084 -0.1014 -0.2727 0.694 -0.694 0.193 87 70 41 0 0
-0.0084 -0.1032 -0.2888 0.749 -0.662 -0.020 102 87 53 0 0
-0.0504 -0.0581 -0.3572 0.503 -0.856 0.121 27 23 20 0 0
-0.0500 -0.0589 -0.3602 0.185 -0.982 -0.034 28 21 17 0 0
-0.0502 -0.0588 -0.3619 0.157 -0.987 0.025 32 25 20 0 0
-0.0500 -0.0594 -0.3650 0.206 -0.961 0.186 28 21 17 0 0
-0.0499 -0.0597 -0.3666 0.206 -0.961 0.186 30 23 19 0 0
-0.0515 -0.0582 -0.3707 0.342 -0.927 -0.158 35 28 21 0 0
-0.0532 -0.0565 -0.3748 0.676 -0.612 -0.410 43 37 30 0 0
-0.0607 -0.0485 -0.3869 0.243 -0.943 -0.227 20 15 12 0 0
-0.0599 -0.0496 -0.3882 0.079 -0.982 -0.170 35 29 26 0 0
-0.0643 -0.0460 -0.4056 0.492 -0.868 -0.066 63 54 43 0 0
-0.0656 -0.0447 -0.4080 0.255 -0.951 -0.176 56 45 37 0 0
-0.0660 -0.0444 -0.4099 0.253 -0.953 -0.169 51 41 33 0 0
-0.0705 -0.0412 -0.4330 0.394 -0.914 0.102 105 93 71 0 0
-0.0705 -0.0414 -0.4347 0.394 -0.914 0.102 97 85 65 0 0
-0.0736 -0.0382 -0.4399 0.521 -0.853 0.001 77 70 51 0 0
-0.0735 -0.0385 -0.4416 0.612 -0.787 0.078 61 54 39 0 0
-0.0699 -0.0476 -0.4831 0.703 -0.676 0.221 88 73 49 0 0
-0.0697 -0.0479 -0.4848 0.777 -0.583 0.238 95 80 55 0 0
-0.0748 -0.0469 -0.5332 0.551 -0.807 -0.212 73 63 46 0 0
-0.0802 -0.0424 -0.5538 0.751 -0.658 0.050 45 39 35 0 0
-0.0803 -0.0425 -0.5557 0.750 -0.661 0.014 41 35 31 0 0
-0.0807 -0.0423 -0.5579 0.583 -0.796 -0.162 33 28 24 0 0
-0.0801 -0.0457 -0.5818 0.483 -0.668 0.566 25 21 17 0 0
-0.0795 -0.0465 -0.5832 0.483 -0.668 0.566 62 53 42 0 0
-0.0783 -0.0483 -0.5861 0.655 -0.530 0.538 105 92 75 0 0
-0.0738 -0.0544 -0.5900 0.744 -0.576 0.337 65 55 42 0 0
-0.0734 -0.0551 -0.5915 0.747 -0.610 0.264 114 103 91 0 0
-0.0730 -0.0561 -0.5969 0.630 -0.704 0.329 75 62 47 0 0
-0.0728 -0.0566 -0.5986 0.555 -0.799 0.230 59 50 37 0 0
-0.0722 -0.0576 -0.6000 0.399 -0.709 0.581 42 34 23 0 0
-0.0717 -0.0583 -0.6015 0.439 -0.513 0.737 54 46 36 0 0
-0.0706 -0.0598 -0.6025 0.451 -0.542 0.709 113 102 92 0 0
-0.0257 -0.1158 -0.6011 0.655 -0.754 -0.058 115 97 67 0 0
-0.0299 -0.1215 -0.7001 0.825 -0.503 0.259 183 169 124 0 0
-0.0299 -0.1216 -0.7021 0.774 -0.520 0.360 179 164 119 0 0
-0.0334 -0.1226 -0.7507 0.440 -0.873 0.211 172 155 109 0 0
-0.0382 -0.1192 -0.7740 0.556 -0.547 0.625 48 38 19 0 0
-0.0360 -0.1243 -0.7957 0.498 -0.727 0.473 166 150 107 0 0
-0.0358 -0.1248 -0.7975 0.654 -0.610 0.446 177 156 111 0 0
-0.0347 -0.1267 -0.8023 0.599 -0.606 0.523 167 150 102 0 0
-0.0347 -0.1269 -0.8044 0.750 -0.615 0.244 172 154 107 0 0
-0.0345 -0.1274 -0.8062 0.720 -0.668 0.188 172 154 106 0 0
-0.0228 -0.0749 -0.1749 -0.279 -0.948 0.153 148 142 130 0 0
-0.0208 -0.0799 -0.1966 -0.322 -0.945 0.059 118 106 82 0 0
-0.0278 -0.0738 -0.2214 -0.195 -0.506 0.840 84 75 60 0 0
-0.0245 -0.0780 -0.2218 -0.016 -0.182 0.983 95 84 68 0 0
-0.0085 -0.0988 -0.2294 -0.154 -0.628 0.763 177 166 133 0 0
-0.0092 -0.1024 -0.2696 0.779 -0.580 0.238 76 61 30 0 0
-0.0136 -0.1036 -0.3307 0.839 -0.216 -0.500 98 86 59 0 0
-0.0518 -0.0592 -0.3604 0.185 -0.982 -0.034 26 23 18 0 0
-0.0522 -0.0591 -0.3638 0.372 -0.905 0.208 51 47 41 0 0
-0.0519 -0.0597 -0.3653 0.375 -0.860 0.345 40 36 29 0 0
-0.0520 -0.0597 -0.3669 0.372 -0.905 0.208 39 32 27 0 0
-0.0551 -0.0568 -0.3750 0.863 -0.332 -0.381 36 31 26 0 0
-0.0663 -0.0462 -0.4059 0.307 -0.947 -0.093 47 38 31 0 0
-0.0719 -0.0421 -0.4329 0.525 -0.849 0.055 91 78 58 0 0
-0.0720 -0.0422 -0.4347 0.555 -0.831 0.041 84 71 53 0 0
-0.0748 -0.0395 -0.4415 0.612 -0.787 0.078 66 59 42 0 0
-0.0754 -0.0390 -0.4436 0.759 -0.648 0.063 45 37 27 0 0
-0.0745 -0.0409 -0.4500 0.634 -0.698 0.333 47 42 34 0 0
-0.0744 -0.0412 -0.4517 0.497 -0.694 0.521 48 42 33 0 0
-0.0730 -0.0436 -0.4578 0.474 -0.840 0.266 46 37 27 0 0
-0.0731 -0.0436 -0.4596 0.515 -0.842 0.163 46 36 28 0 0
-0.0707 -0.0515 -0.5040 0.817 -0.413 0.404 94 80 57 0 0
-0.0803 -0.0444 -0.5472 0.464 -0.885 -0.035 44 40 36 0 0
-0.0810 -0.0438 -0.5495 0.396 -0.911 -0.119 35 31 27 0 0
-0.0814 -0.0435 -0.5517 0.751 -0.658 0.050 45 41 37 0 0
-0.0814 -0.0437 -0.5536 0.751 -0.658 0.050 48 44 40 0 0
-0.0817 -0.0435 -0.5557 0.669 -0.731 -0.136 39 35 31 0 0
-0.0821 -0.0433 -0.5578 0.583 -0.796 -0.162 35 31 27 0 0
-0.0818 -0.0438 -0.5595 0.319 -0.927 0.197 39 35 31 0 0
-0.0813 -0.0469 -0.5816 0.383 -0.871 0.308 32 28 24 0 0
-0.0812 -0.0473 -0.5833 0.644 -0.646 0.410 72 63 53 0 0
-0.0743 -0.0573 -0.5967 0.630 -0.704 0.329 68 58 46 0 0
-0.0742 -0.0576 -0.5985 0.560 -0.781 0.275 41 34 23 0 0
-0.0740 -0.0580 -0.6003 0.611 -0.689 0.389 33 27 16 0 0
-0.0720 -0.0608 -0.6024 0.451 -0.542 0.709 92 83 71 0 0
-0.0718 -0.0613 -0.6041 0.165 -0.757 0.632 93 81 66 0 0
-0.0276 -0.1196 -0.6326 0.801 -0.587 0.121 165 148 104 0 0
-0.0276 -0.1198 -0.6344 0.801 -0.587 0.121 172 155 111 0 0
-0.0298 -0.1197 -0.6588 0.902 -0.431 -0.012 175 156 114 0 0
-0.0277 -0.1269 -0.7003 0.658 -0.461 0.595 170 153 108 0 0
-0.0397 -0.1208 -0.7799 0.437 -0.892 0.119 84 70 44 0 0
-0.0365 -0.1271 -0.8006 0.540 -0.732 0.414 162 146 96 0 0
-0.0365 -0.1273 -0.8027 0.560 -0.740 0.374 166 149 98 0 0
-0.0358 -0.1287 -0.8080 0.647 -0.753 0.120 160 140 96 0 0
-0.0262 -0.0783 -0.2219 -0.016 -0.182 0.983 96 85 68 0 0
-0.0138 -0.0942 -0.2265 -0.257 -0.639 0.725 128 112 91 0 0
-0.0123 -0.0962 -0.2274 -0.276 -0.802 0.530 133 117 96 0 0
-0.0112 -0.0977 -0.2284 -0.119 -0.744 0.658 162 146 116 0 0
-0.0094 -0.1001 -0.2307 -0.052 -0.586 0.809 166 154 124 0 0
-0.0086 -0.1012 -0.2318 0.183 -0.528 0.829 115 103 79 0 0
-0.0044 -0.1075 -0.2417 0.743 -0.445 0.500 60 48 24 0 0
-0.0086 -0.1036 -0.2531 0.750 -0.599 0.282 75 61 35 0 0
-0.0085 -0.1039 -0.2545 0.669 -0.642 0.376 78 64 39 0 0
-0.0129 -0.1070 -0.3312 0.995 -0.099 0.020 107 95 70 0 0
-0.0540 -0.0593 -0.3624 0.363 -0.896 0.257 21 19 14 0 0
-0.0538 -0.0597 -0.3639 0.378 -0.867 0.323 32 31 24 0 0
-0.0536 -0.0602 -0.3654 0.378 -0.867 0.323 33 31 23 0 0
-0.0538 -0.0601 -0.3671 0.291 -0.954 0.068 39 35 27 0 0
-0.0678 -0.0467 -0.4042 0.267 -0.960 0.082 47 40 32 0 0
-0.0678 -0.0469 -0.4059 0.467 -0.880 -0.081 48 39 30 0 0
-0.0713 -0.0440 -0.4180 0.479 -0.868 -0.130 94 82 63 0 0
-0.0735 -0.0430 -0.4347 0.606 -0.767 0.209 58 46 29 0 0
-0.0734 -0.0433 -0.4363 0.489 -0.838 0.243 66 56 39 0 0
-0.0761 -0.0404 -0.4396 0.710 -0.704 -0.011 78 69 51 0 0
-0.0761 -0.0405 -0.4414 0.612 -0.787 0.078 65 58 43 0 0
-0.0758 -0.0419 -0.4499 0.565 -0.766 0.306 29 24 20 0 0
-0.0759 -0.0420 -0.4517 0.362 -0.823 0.438 37 32 26 0 0
-0.0744 -0.0445 -0.4578 0.320 -0.882 0.345 36 27 20 0 0
-0.0741 -0.0450 -0.4593 0.320 -0.882 0.345 35 26 18 0 0
-0.0715 -0.0508 -0.4822 0.716 -0.685 0.136 88 71 47 0 0
-0.0706 -0.0523 -0.4852 0.645 -0.613 0.455 77 63 37 0 0
-0.0823 -0.0451 -0.5513 0.772 -0.621 -0.138 30 27 25 0 0
-0.0826 -0.0450 -0.5533 0.623 -0.754 -0.209 27 24 21 0 0
-0.0828 -0.0454 -0.5590 0.722 -0.663 0.195 29 26 23 0 0
-0.0803 -0.0491 -0.5646 0.461 -0.749 0.475 24 19 16 0 0
-0.0799 -0.0497 -0.5662 0.478 -0.760 0.441 25 20 17 0 0
-0.0795 -0.0504 -0.5677 0.476 -0.804 0.355 21 16 12 0 0
-0.0826 -0.0478 -0.5795 0.563 -0.826 -0.011 8 8 7 0 0
-0.0828 -0.0478 -0.5816 0.547 -0.605 0.579 38 34 30 0 0
-0.0822 -0.0488 -0.5829 0.463 -0.500 0.732 68 61 51 0 0
-0.0795 -0.0525 -0.5865 0.828 -0.509 0.235 65 53 36 0 0
-0.0766 -0.0565 -0.5898 0.281 -0.829 0.484 67 57 41 0 0
-0.0759 -0.0576 -0.5911 0.644 -0.747 0.167 85 76 61 0 0
-0.0761 -0.0579 -0.5969 0.611 -0.689 0.389 43 35 26 0 0
-0.0757 -0.0585 -0.5985 0.611 -0.689 0.389 31 24 16 0 0
-0.0754 -0.0592 -0.6001 0.611 -0.689 0.389 33 26 17 0 0
-0.0742 -0.0609 -0.6030 0.208 -0.876 0.435 84 75 61 0 0
-0.0285 -0.1205 -0.6265 0.732 -0.593 0.336 167 150 109 0 0
-0.0418 -0.1211 -0.7806 0.068 -0.975 0.213 74 58 34 0 0
-0.0403 -0.1237 -0.7870 0.680 -0.588 0.438 105 90 58 0 0
-0.0379 -0.1281 -0.8006 0.540 -0.732 0.414 160 145 101 0 0
-0.0379 -0.1284 -0.8026 0.560 -0.740 0.374 174 156 108 0 0
-0.0373 -0.1293 -0.8039 0.508 -0.771 0.384 178 158 109 0 0
-0.0367 -0.1301 -0.8053 0.425 -0.805 0.414 165 144 99 0 0
-0.0364 -0.1308 -0.8069 0.425 -0.805 0.414 163 140 98 0 0
-0.0366 -0.1307 -0.8092 0.482 -0.746 0.460 166 144 101 0 0
-0.0362 -0.1314 -0.8108 0.637 -0.591 0.494 166 145 100 0 0
-0.0359 -0.1320 -0.8124 0.635 -0.526 0.566 170 152 105 0 0
-0.0130 -0.0978 -0.2286 -0.114 -0.703 0.702 140 125 100 0 0
-0.0124 -0.0986 -0.2298 -0.111 -0.609 0.785 152 136 108 0 0
-0.0112 -0.1001 -0.2308 -0.052 -0.586 0.809 163 149 119 0 0
-0.0101 -0.1016 -0.2319 0.017 -0.567 0.823 171 161 130 0 0
-0.0102 -0.1024 -0.2389 0.656 -0.623 0.426 59 46 28 0 0
-0.0093 -0.1056 -0.2571 0.562 -0.562 0.607 65 49 27 0 0
-0.0093 -0.1057 -0.2585 0.325 -0.808 0.492 67 50 28 0 0
-0.0089 -0.1063 -0.2598 0.350 -0.802 0.483 70 54 29 0 0
-0.0086 -0.1069 -0.2611 0.494 -0.812 0.310 72 56 31 0 0
-0.0084 -0.1073 -0.2625 0.494 -0.812 0.310 71 55 30 0 0
-0.0124 -0.1095 -0.3273 0.997 -0.083 -0.007 121 102 67 0 0
-0.0557 -0.0599 -0.3641 0.442 -0.820 0.364 30 24 16 0 0
-0.0553 -0.0608 -0.3671 0.457 -0.803 0.382 28 25 15 0 0
-0.0680 -0.0484 -0.3985 0.346 -0.901 -0.263 31 26 23 0 0
-0.0689 -0.0477 -0.4006 0.668 -0.743 -0.049 34 30 26 0 0
-0.0692 -0.0475 -0.4025 0.678 -0.731 -0.072 38 32 27 0 0
-0.0692 -0.0476 -0.4042 0.349 -0.933 0.092 50 43 34 0 0
-0.0695 -0.0475 -0.4060 0.562 -0.791 -0.241 65 57 44 0 0
-0.0743 -0.0439 -0.4274 0.654 -0.750 -0.103 68 59 42 0 0
-0.0770 -0.0431 -0.4497 0.536 -0.800 0.270 22 17 14 0 0
-0.0763 -0.0442 -0.4528 0.334 -0.844 0.420 44 39 33 0 0
-0.0758 -0.0457 -0.4594 0.320 -0.882 0.345 45 38 29 0 0
-0.0722 -0.0530 -0.4853 0.705 -0.623 0.340 82 68 42 0 0
-0.0744 -0.0508 -0.4902 0.448 -0.667 0.595 81 66 43 0 0
-0.0738 -0.0517 -0.4916 0.448 -0.667 0.595 108 94 72 0 0
-0.0733 -0.0525 -0.4931 0.490 -0.698 0.522 88 74 52 0 0
-0.0830 -0.0465 -0.5469 0.781 -0.613 -0.120 21 20 18 0 0
