ply
format ascii 1.0
element vertex 833
property float x
property float y
property float z
property float nx
property float ny
property float nz
property uchar diffuse_red
property uchar diffuse_green
property uchar diffuse_blue
property uchar class
property uchar detection
end_header
-0.0578 -0.2021 -0.4186 0.869 -0.451 -0.201 43 33 21 0 0
-0.0625 -0.2057 -0.4944 0.093 -0.996 0.011 135 123 91 0 0
-0.0626 -0.2059 -0.4960 0.134 -0.988 -0.081 139 126 100 0 0
-0.0627 -0.2056 -0.4978 0.042 -0.980 -0.196 139 127 105 0 0
-0.0628 -0.2053 -0.4997 0.042 -0.980 -0.196 136 125 101 0 0
-0.0651 -0.1958 -0.5287 0.077 -0.997 -0.032 160 143 96 0 0
-0.0654 -0.1943 -0.5331 -0.281 -0.936 0.212 167 149 108 0 0
-0.0661 -0.1916 -0.5433 -0.158 -0.982 -0.106 153 137 93 0 0
-0.0829 -0.1241 -0.7648 0.148 -0.855 -0.497 74 62 36 0 0
-0.0863 -0.1549 -0.8387 0.052 -0.890 0.452 125 109 75 0 0
-0.0880 -0.1581 -0.8668 -0.203 -0.814 0.544 67 63 52 0 0
-0.0556 -0.0269 -0.2476 0.380 -0.691 0.616 99 85 60 0 0
-0.0556 -0.0291 -0.2502 0.252 -0.816 0.520 81 68 51 0 0
-0.0557 -0.0290 -0.2518 0.130 -0.971 0.200 65 54 36 0 0
-0.0558 -0.0293 -0.2533 0.130 -0.971 0.200 57 45 29 0 0
-0.0558 -0.0306 -0.2546 0.170 -0.950 0.262 50 41 25 0 0
-0.0535 -0.1904 -0.3216 0.044 -0.983 0.176 125 110 77 0 0
-0.0563 -0.2065 -0.3750 0.582 -0.789 0.195 24 16 6 0 0
-0.0572 -0.1973 -0.3834 0.944 -0.296 -0.149 27 20 11 0 0
-0.0580 -0.2069 -0.4023 0.659 -0.717 -0.226 124 111 84 0 0
-0.0581 -0.2068 -0.4039 0.704 -0.697 -0.134 130 118 90 0 0
-0.0634 -0.2084 -0.4879 0.603 -0.794 0.082 132 118 93 0 0
-0.0665 -0.1955 -0.5271 -0.129 -0.991 -0.024 166 149 105 0 0
-0.0766 -0.1583 -0.6624 -0.639 -0.766 0.063 52 45 35 0 0
-0.0774 -0.1567 -0.6733 -0.142 -0.989 -0.042 40 32 23 0 0
-0.0814 -0.1443 -0.7284 0.066 -0.974 -0.218 138 123 84 0 0
-0.0817 -0.1430 -0.7314 -0.076 -0.938 -0.339 135 120 82 0 0
-0.0826 -0.1369 -0.7423 -0.168 -0.867 -0.470 100 87 55 0 0
-0.0830 -0.1338 -0.7467 -0.049 -0.896 -0.441 90 80 49 0 0
-0.0834 -0.1316 -0.7505 0.219 -0.883 -0.416 93 82 53 0 0
-0.0863 -0.1334 -0.7980 0.018 -0.872 0.489 64 48 27 0 0
-0.0864 -0.1342 -0.7995 0.018 -0.872 0.489 59 42 22 0 0
-0.0864 -0.1352 -0.8008 0.056 -0.899 0.435 62 45 25 0 0
-0.0866 -0.1366 -0.8040 0.122 -0.918 0.377 68 51 31 0 0
-0.0867 -0.1373 -0.8056 0.122 -0.918 0.377 66 49 29 0 0
-0.0900 -0.1578 -0.8715 0.185 -0.943 0.278 129 126 119 0 0
-0.0571 -0.0299 -0.2500 -0.053 -0.701 0.711 99 85 68 0 0
-0.0572 -0.0301 -0.2515 -0.002 -0.870 0.493 75 63 46 0 0
-0.0573 -0.0302 -0.2531 0.108 -0.926 0.363 61 49 32 0 0
-0.0542 -0.1677 -0.2955 0.007 -0.841 0.542 207 191 144 0 0
-0.0576 -0.2073 -0.3746 0.362 -0.865 0.348 78 69 54 0 0
-0.0576 -0.2085 -0.3756 0.029 -0.875 0.483 48 40 29 0 0
-0.0648 -0.2096 -0.4872 0.032 -0.984 -0.173 81 67 41 0 0
-0.0667 -0.2018 -0.5116 0.088 -0.972 -0.220 165 147 103 0 0
-0.0669 -0.2010 -0.5137 0.072 -0.988 -0.140 155 138 94 0 0
-0.0780 -0.1567 -0.6575 -0.464 -0.867 -0.182 17 15 11 0 0
-0.0781 -0.1572 -0.6592 -0.139 -0.990 0.021 14 12 9 0 0
-0.0784 -0.1570 -0.6632 -0.596 -0.798 0.092 13 12 10 0 0
-0.0832 -0.1433 -0.7291 0.100 -0.972 -0.212 137 122 83 0 0
-0.0834 -0.1428 -0.7315 -0.064 -0.935 -0.348 141 125 88 0 0
-0.0844 -0.1361 -0.7428 0.040 -0.854 -0.519 97 83 53 0 0
-0.0850 -0.1328 -0.7495 -0.116 -0.882 -0.457 94 83 54 0 0
-0.0883 -0.1353 -0.8028 0.068 -0.960 0.272 65 47 27 0 0
-0.0883 -0.1369 -0.8037 0.191 -0.868 0.458 64 46 26 0 0
-0.0891 -0.1432 -0.8202 -0.074 -0.962 0.263 87 76 47 0 0
-0.0588 -0.0301 -0.2515 -0.002 -0.870 0.493 97 85 69 0 0
-0.0589 -0.0303 -0.2530 0.108 -0.926 0.363 72 60 45 0 0
-0.0589 -0.0309 -0.2544 0.116 -0.922 0.369 58 47 33 0 0
-0.0593 -0.0331 -0.2617 -0.271 -0.628 0.730 9 8 5 0 0
-0.0556 -0.1675 -0.2955 -0.036 -0.749 0.661 198 180 135 0 0
-0.0563 -0.1871 -0.3197 -0.145 -0.841 0.522 105 89 59 0 0
-0.0563 -0.1903 -0.3216 0.087 -0.897 0.432 110 94 62 0 0
-0.0590 -0.2084 -0.3756 0.252 -0.916 0.313 107 99 82 0 0
-0.0600 -0.2099 -0.3916 0.824 -0.565 0.056 134 120 91 0 0
-0.0636 -0.2112 -0.4473 0.770 -0.637 -0.019 130 114 84 0 0
-0.0662 -0.2097 -0.4870 -0.121 -0.986 -0.112 143 126 91 0 0
-0.0664 -0.2092 -0.4890 -0.224 -0.950 -0.216 158 140 99 0 0
-0.0682 -0.2019 -0.5114 0.088 -0.972 -0.220 153 134 96 0 0
-0.0684 -0.2010 -0.5136 0.164 -0.969 -0.184 145 127 89 0 0
-0.0765 -0.1653 -0.6155 -0.301 -0.931 -0.205 70 60 41 0 0
-0.0767 -0.1647 -0.6178 0.010 -0.962 -0.271 57 47 30 0 0
-0.0769 -0.1641 -0.6201 0.010 -0.962 -0.271 61 51 35 0 0
-0.0838 -0.1333 -0.7058 -0.910 -0.413 -0.043 53 45 37 0 0
-0.0844 -0.1459 -0.7229 0.082 -0.993 0.090 153 135 92 0 0
-0.0847 -0.1441 -0.7263 0.360 -0.904 -0.231 152 135 92 0 0
-0.0864 -0.1341 -0.7463 -0.233 -0.878 -0.417 75 65 37 0 0
-0.0893 -0.1273 -0.7856 -0.249 -0.829 0.502 52 39 23 0 0
-0.0895 -0.1276 -0.7896 0.028 -0.936 0.351 65 50 29 0 0
-0.0915 -0.1526 -0.8361 0.096 -0.924 0.371 106 86 54 0 0
-0.0915 -0.1532 -0.8378 0.242 -0.916 0.320 107 89 57 0 0
-0.0924 -0.1545 -0.8520 -0.114 -0.964 0.242 89 77 48 0 0
-0.0925 -0.1547 -0.8541 -0.022 -0.974 0.226 126 111 74 0 0
-0.0926 -0.1550 -0.8560 0.039 -0.970 0.241 124 110 76 0 0
-0.0927 -0.1555 -0.8578 0.039 -0.970 0.241 103 89 61 0 0
-0.0603 -0.0072 -0.2345 0.371 -0.446 0.814 177 177 178 0 0
-0.0601 -0.0249 -0.2447 -0.033 -0.825 0.564 219 202 166 0 0
-0.0610 -0.0292 -0.2610 0.229 -0.845 0.483 11 10 6 0 0
-0.0609 -0.0327 -0.2618 -0.182 -0.662 0.727 14 11 7 0 0
-0.0609 -0.0342 -0.2630 -0.192 -0.749 0.634 24 20 15 0 0
-0.0612 -0.0386 -0.2698 0.116 -0.900 0.420 50 44 38 0 0
-0.0612 -0.0391 -0.2712 -0.008 -0.939 0.344 26 22 19 0 0
-0.0572 -0.1730 -0.3025 -0.343 -0.845 0.410 149 130 91 0 0
-0.0592 -0.2016 -0.3513 -0.102 -0.893 0.439 67 52 30 0 0
-0.0604 -0.2087 -0.3754 0.252 -0.916 0.313 73 61 47 0 0
-0.0648 -0.2138 -0.4459 0.660 -0.741 -0.121 127 112 83 0 0
-0.0677 -0.2095 -0.4871 -0.121 -0.986 -0.112 146 129 86 0 0
-0.0699 -0.2004 -0.5139 -0.222 -0.959 -0.175 146 127 89 0 0
-0.0776 -0.1615 -0.6048 -0.649 -0.688 -0.325 50 42 33 0 0
-0.0779 -0.1599 -0.6077 -0.871 -0.491 -0.003 56 48 40 0 0
-0.0791 -0.1615 -0.6274 -0.240 -0.963 -0.124 35 30 23 0 0
-0.0863 -0.1438 -0.7244 0.188 -0.972 -0.138 150 133 92 0 0
-0.0864 -0.1447 -0.7278 -0.282 -0.939 -0.195 146 128 89 0 0
-0.0896 -0.1248 -0.7618 -0.057 -0.843 -0.534 37 28 14 0 0
-0.0900 -0.1220 -0.7661 -0.074 -0.837 -0.543 50 40 25 0 0
-0.0909 -0.1168 -0.7766 -0.052 -0.998 0.037 35 26 15 0 0
-0.0932 -0.1527 -0.8359 -0.147 -0.883 0.445 100 80 47 0 0
-0.0625 -0.0338 -0.2630 -0.009 -0.800 0.600 38 32 25 0 0
-0.0586 -0.1703 -0.3003 0.206 -0.913 0.353 171 150 105 0 0
-0.0606 -0.2034 -0.3535 0.069 -0.960 0.272 48 35 19 0 0
-0.0617 -0.2080 -0.3726 0.413 -0.785 0.461 30 16 9 0 0
-0.0617 -0.2085 -0.3739 0.363 -0.826 0.432 32 19 12 0 0
-0.0618 -0.2089 -0.3752 0.263 -0.913 0.311 31 18 9 0 0
-0.0619 -0.2094 -0.3765 0.263 -0.913 0.311 30 20 10 0 0
-0.0692 -0.2094 -0.4871 -0.121 -0.986 -0.112 151 135 90 0 0
-0.0698 -0.2065 -0.4936 -0.032 -0.998 -0.063 129 111 69 0 0
-0.0701 -0.2048 -0.4979 -0.309 -0.931 -0.192 151 136 94 0 0
-0.0879 -0.1442 -0.7241 0.188 -0.972 -0.138 149 131 90 0 0
-0.0880 -0.1450 -0.7255 -0.270 -0.952 -0.143 148 130 91 0 0
-0.0913 -0.1245 -0.7620 -0.066 -0.856 -0.514 37 29 15 0 0
-0.0917 -0.1220 -0.7660 -0.161 -0.838 -0.522 56 45 27 0 0
-0.0926 -0.1167 -0.7766 -0.358 -0.839 0.409 50 41 26 0 0
-0.0928 -0.1167 -0.7787 0.154 -0.844 0.513 43 33 20 0 0
-0.0957 -0.1531 -0.8487 -0.094 -0.941 0.326 127 111 78 0 0
-0.0959 -0.1542 -0.8521 -0.094 -0.941 0.326 120 105 71 0 0
-0.0962 -0.1557 -0.8575 0.086 -0.955 0.285 113 102 71 0 0
-0.0650 -0.0414 -0.2832 -0.185 -0.907 0.378 52 47 42 0 0
-0.0602 -0.1698 -0.3019 -0.007 -0.856 0.516 164 146 101 0 0
-0.0645 -0.2159 -0.3995 0.164 -0.985 0.051 72 59 49 0 0
-0.0647 -0.2158 -0.4026 0.238 -0.966 0.103 77 64 54 0 0
-0.0781 -0.1766 -0.5751 0.187 -0.971 -0.151 76 69 53 0 0
-0.0823 -0.1617 -0.6271 0.317 -0.946 -0.066 10 9 7 0 0
-0.0895 -0.1447 -0.7236 0.097 -0.984 -0.152 148 129 92 0 0
-0.0927 -0.1267 -0.7581 -0.144 -0.865 -0.481 45 35 17 0 0
-0.0931 -0.1238 -0.7625 -0.213 -0.842 -0.496 40 32 14 0 0
-0.0946 -0.1234 -0.7841 -0.143 -0.812 0.566 43 33 21 0 0
-0.0948 -0.1257 -0.7887 0.044 -0.983 0.181 71 58 42 0 0
-0.0949 -0.1264 -0.7904 0.144 -0.903 0.405 63 47 32 0 0
-0.0975 -0.1532 -0.8485 0.150 -0.935 0.322 129 113 81 0 0
-0.0651 -0.0295 -0.2529 0.056 -0.944 0.325 69 58 42 0 0
-0.0664 -0.0391 -0.2789 -0.226 -0.912 0.342 8 7 4 0 0
-0.0666 -0.0420 -0.2829 0.066 -0.907 0.417 64 59 54 0 0
-0.0647 -0.2084 -0.3768 -0.038 -0.912 0.409 43 30 17 0 0
-0.0653 -0.2134 -0.3883 0.048 -0.949 0.311 41 28 15 0 0
-0.0653 -0.2139 -0.3896 -0.032 -0.940 0.338 43 30 18 0 0
-0.0660 -0.2161 -0.4009 0.245 -0.964 0.106 59 43 29 0 0
-0.0663 -0.2174 -0.4064 0.457 -0.887 0.070 61 46 29 0 0
-0.0664 -0.2172 -0.4081 0.363 -0.921 0.139 66 51 33 0 0
-0.0665 -0.2168 -0.4098 0.224 -0.952 0.209 57 43 23 0 0
-0.0666 -0.2166 -0.4114 0.051 -0.970 0.239 55 40 19 0 0
-0.0698 -0.2161 -0.4574 0.323 -0.939 0.114 129 112 70 0 0
-0.0699 -0.2163 -0.4588 0.323 -0.939 0.114 146 128 85 0 0
-0.0701 -0.2143 -0.4615 0.029 -0.989 0.146 143 124 80 0 0
-0.0719 -0.2093 -0.4837 -0.016 -0.997 -0.078 147 130 92 0 0
-0.0785 -0.1802 -0.5603 -0.170 -0.952 -0.253 102 94 78 0 0
-0.0835 -0.1618 -0.6213 0.211 -0.957 -0.200 14 11 9 0 0
-0.0836 -0.1618 -0.6232 0.194 -0.979 -0.055 11 9 7 0 0
-0.0837 -0.1617 -0.6251 0.230 -0.973 -0.035 13 11 9 0 0
-0.0840 -0.1615 -0.6290 0.232 -0.972 -0.030 12 9 8 0 0
-0.0841 -0.1692 -0.6353 0.810 -0.500 0.306 9 8 6 0 0
-0.0921 -0.1105 -0.7116 0.587 -0.671 0.454 44 40 34 0 0
-0.0912 -0.1289 -0.7127 -0.070 -0.347 0.935 57 48 39 0 0
-0.0912 -0.1311 -0.7132 0.103 -0.660 0.744 56 49 38 0 0
-0.0911 -0.1328 -0.7140 -0.103 -0.153 0.983 60 53 40 0 0
-0.0916 -0.1434 -0.7286 0.052 -0.967 -0.250 106 91 58 0 0
-0.0991 -0.1529 -0.8465 -0.010 -0.996 0.093 124 109 77 0 0
-0.0993 -0.1540 -0.8500 0.150 -0.935 0.322 100 87 59 0 0
-0.0994 -0.1546 -0.8517 0.150 -0.935 0.322 92 83 53 0 0
-0.0677 -0.0394 -0.2756 -0.072 -0.961 0.265 34 31 26 0 0
-0.0649 -0.2029 -0.3550 -0.181 -0.919 0.350 57 42 26 0 0
-0.0650 -0.2034 -0.3563 -0.181 -0.919 0.350 58 43 24 0 0
-0.0661 -0.2083 -0.3768 -0.038 -0.912 0.409 42 31 17 0 0
-0.0662 -0.2089 -0.3781 -0.038 -0.912 0.409 44 32 18 0 0
-0.0671 -0.2167 -0.3975 0.209 -0.964 0.167 56 41 27 0 0
-0.0672 -0.2170 -0.3989 0.159 -0.967 0.200 44 29 15 0 0
-0.0678 -0.2173 -0.4079 0.170 -0.980 0.101 66 50 33 0 0
-0.0681 -0.2146 -0.4107 -0.030 -0.996 -0.079 66 51 30 0 0
-0.0711 -0.2156 -0.4559 0.035 -0.983 0.182 123 105 65 0 0
-0.0712 -0.2159 -0.4574 0.035 -0.983 0.182 128 108 67 0 0
-0.0733 -0.2097 -0.4834 -0.069 -0.982 -0.174 149 130 92 0 0
-0.0796 -0.1832 -0.5566 0.484 -0.869 -0.105 74 70 60 0 0
-0.0854 -0.1596 -0.6246 0.036 -0.926 0.375 16 15 13 0 0
-0.0938 -0.1101 -0.7118 -0.207 -0.427 0.880 43 38 32 0 0
-0.0937 -0.1159 -0.7138 0.199 -0.388 0.900 55 48 40 0 0
-0.0936 -0.1183 -0.7142 0.300 -0.188 0.935 55 46 38 0 0
-0.0935 -0.1202 -0.7148 0.117 -0.055 0.992 54 45 37 0 0
-0.0930 -0.1280 -0.7133 -0.287 -0.382 0.879 57 49 38 0 0
-0.0948 -0.1342 -0.7438 -0.164 -0.926 -0.341 79 62 33 0 0
-0.0981 -0.1255 -0.7866 0.125 -0.824 0.552 30 23 9 0 0
-0.0982 -0.1264 -0.7880 0.179 -0.848 0.499 35 25 12 0 0
-0.0982 -0.1304 -0.7912 0.012 -0.831 0.557 45 34 22 0 0
-0.0982 -0.1314 -0.7926 -0.025 -0.894 0.447 49 37 25 0 0
-0.0999 -0.1503 -0.8311 -0.176 -0.805 0.566 100 85 55 0 0
-0.1009 -0.1536 -0.8480 0.150 -0.935 0.322 112 97 68 0 0
-0.0687 -0.0295 -0.2590 0.056 -0.957 0.284 31 24 16 0 0
-0.0686 -0.0337 -0.2612 0.135 -0.721 0.679 85 74 54 0 0
-0.0698 -0.0437 -0.2855 0.270 -0.936 0.226 99 91 81 0 0
-0.0700 -0.0490 -0.2936 -0.190 -0.796 0.574 17 16 13 0 0
-0.0644 -0.1609 -0.2957 0.554 -0.647 0.524 53 43 31 0 0
-0.0663 -0.2020 -0.3538 -0.164 -0.861 0.482 50 35 17 0 0
-0.0664 -0.2029 -0.3564 -0.037 -0.920 0.391 63 48 29 0 0
-0.0707 -0.2176 -0.4295 -0.260 -0.890 0.374 104 89 56 0 0
-0.0720 -0.2160 -0.4477 0.247 -0.946 0.212 113 95 59 0 0
-0.0721 -0.2156 -0.4495 0.117 -0.981 0.153 119 99 62 0 0
-0.0724 -0.2151 -0.4529 -0.160 -0.982 0.102 117 102 71 0 0
-0.0725 -0.2153 -0.4544 -0.160 -0.982 0.102 116 101 66 0 0
-0.0726 -0.2154 -0.4560 -0.130 -0.990 0.052 122 105 66 0 0
-0.0747 -0.2094 -0.4819 0.124 -0.969 -0.216 137 114 76 0 0
-0.0748 -0.2093 -0.4835 0.062 -0.993 -0.102 153 132 92 0 0
-0.0752 -0.2084 -0.4890 0.361 -0.930 -0.062 147 128 89 0 0
-0.0796 -0.1889 -0.5391 -0.014 -0.979 -0.202 83 78 65 0 0
-0.0811 -0.1827 -0.5550 0.475 -0.772 0.423 58 53 47 0 0
-0.0955 -0.1052 -0.7069 0.105 -0.972 -0.209 24 19 15 0 0
-0.0957 -0.1048 -0.7093 0.287 -0.918 -0.275 29 24 20 0 0
-0.0957 -0.1054 -0.7109 0.530 -0.837 0.135 34 29 24 0 0
-0.0957 -0.1068 -0.7120 0.553 -0.470 0.689 40 35 29 0 0
-0.0953 -0.1182 -0.7142 0.175 -0.264 0.948 59 50 41 0 0
-0.0945 -0.1344 -0.7147 0.478 -0.158 0.864 67 57 47 0 0
-0.0965 -0.1345 -0.7435 -0.200 -0.888 -0.414 71 57 27 0 0
-0.0982 -0.1243 -0.7618 -0.083 -0.836 -0.542 81 69 42 0 0
-0.1025 -0.1537 -0.8457 0.233 -0.886 0.401 119 104 72 0 0
-0.1040 -0.1549 -0.8691 -0.060 -0.822 0.566 93 88 81 0 0
-0.0701 -0.0306 -0.2571 -0.057 -0.917 0.394 37 31 19 0 0
-0.0713 -0.0431 -0.2840 0.120 -0.938 0.324 76 67 57 0 0
-0.0660 -0.1615 -0.2984 -0.260 -0.777 0.573 48 39 27 0 0
-0.0672 -0.1983 -0.3447 0.023 -0.877 0.480 71 57 35 0 0
-0.0678 -0.2020 -0.3552 -0.024 -0.944 0.329 52 36 19 0 0
-0.0703 -0.2144 -0.4015 -0.193 -0.879 0.436 53 41 25 0 0
-0.0704 -0.2150 -0.4027 -0.193 -0.879 0.436 57 45 28 0 0
-0.0706 -0.2150 -0.4058 -0.371 -0.874 0.314 60 44 28 0 0
-0.0712 -0.2152 -0.4150 -0.096 -0.882 0.462 74 58 37 0 0
-0.0713 -0.2163 -0.4176 -0.092 -0.839 0.536 89 74 48 0 0
-0.0714 -0.2171 -0.4188 -0.092 -0.839 0.536 91 77 51 0 0
-0.0716 -0.2183 -0.4228 -0.214 -0.900 0.379 95 81 51 0 0
-0.0760 -0.2098 -0.4800 -0.219 -0.967 -0.132 151 133 90 0 0
-0.0761 -0.2095 -0.4817 -0.219 -0.967 -0.132 135 117 75 0 0
-0.0763 -0.2087 -0.4838 -0.141 -0.982 0.123 161 139 101 0 0
-0.0764 -0.2085 -0.4856 0.001 -0.985 -0.174 147 124 86 0 0
-0.0767 -0.2078 -0.4893 0.001 -0.985 -0.174 150 131 90 0 0
-0.0808 -0.1903 -0.5347 0.450 -0.829 0.332 99 88 75 0 0
-0.0976 -0.0965 -0.7068 0.268 -0.256 0.929 17 12 12 0 0
-0.0973 -0.1031 -0.7063 0.104 -0.978 0.183 21 17 15 0 0
-0.0974 -0.1035 -0.7080 0.175 -0.941 0.289 30 25 21 0 0
-0.0974 -0.1056 -0.7107 0.523 -0.742 0.419 34 29 25 0 0
-0.0975 -0.1066 -0.7121 0.244 -0.650 0.720 40 34 27 0 0
-0.0971 -0.1172 -0.7148 0.150 -0.152 0.977 61 52 43 0 0
-0.0978 -0.1365 -0.7398 -0.162 -0.883 -0.440 82 68 41 0 0
-0.0982 -0.1340 -0.7438 -0.046 -0.918 -0.394 70 55 26 0 0
-0.0988 -0.1309 -0.7503 -0.144 -0.888 -0.436 106 87 57 0 0
-0.0996 -0.1264 -0.7580 -0.124 -0.844 -0.522 88 75 46 0 0
-0.1029 -0.1461 -0.8214 0.054 -0.930 0.363 82 62 34 0 0
-0.1030 -0.1465 -0.8232 -0.175 -0.974 0.141 90 71 42 0 0
-0.1043 -0.1558 -0.8481 -0.082 -0.925 0.371 116 101 69 0 0
-0.1043 -0.1567 -0.8495 -0.143 -0.967 0.210 111 98 64 0 0
-0.1045 -0.1575 -0.8532 -0.143 -0.967 0.210 123 108 74 0 0
-0.0691 -0.2015 -0.3538 -0.175 -0.853 0.491 52 39 21 0 0
-0.0692 -0.2020 -0.3551 -0.024 -0.944 0.329 58 44 27 0 0
-0.0700 -0.2053 -0.3703 -0.018 -0.825 0.565 47 35 20 0 0
-0.0744 -0.2156 -0.4414 0.055 -0.997 0.050 118 102 70 0 0
-0.0778 -0.2085 -0.4839 -0.218 -0.970 0.110 159 137 100 0 0
-0.0779 -0.2084 -0.4856 -0.270 -0.959 -0.087 159 140 101 0 0
-0.0780 -0.2090 -0.4869 -0.211 -0.950 0.232 160 143 100 0 0
-0.0991 -0.1022 -0.7069 0.257 -0.785 0.563 24 19 15 0 0
-0.0991 -0.1072 -0.7116 0.114 -0.662 0.741 39 34 28 0 0
-0.1006 -0.1305 -0.7506 -0.068 -0.904 -0.422 106 86 59 0 0
-0.1027 -0.1179 -0.7709 0.124 -0.860 -0.494 60 47 31 0 0
-0.1031 -0.1165 -0.7763 -0.069 -0.942 0.330 41 29 13 0 0
-0.1033 -0.1275 -0.7869 0.037 -0.878 0.477 82 68 47 0 0
-0.1038 -0.1335 -0.7993 -0.175 -0.941 0.288 71 59 37 0 0
-0.1040 -0.1335 -0.8014 -0.134 -0.919 0.371 78 66 42 0 0
-0.1040 -0.1355 -0.8041 -0.119 -0.847 0.518 85 70 48 0 0
-0.1041 -0.1364 -0.8056 -0.119 -0.847 0.518 77 62 41 0 0
-0.1041 -0.1375 -0.8068 -0.002 -0.828 0.561 72 56 33 0 0
-0.1058 -0.1513 -0.8410 0.135 -0.897 0.421 113 99 64 0 0
-0.0735 -0.0355 -0.2652 -0.245 -0.899 0.362 122 106 82 0 0
-0.0749 -0.0480 -0.2953 -0.293 -0.899 0.324 8 7 5 0 0
-0.0710 -0.2021 -0.3610 -0.058 -0.931 0.361 58 43 21 0 0
-0.0716 -0.2070 -0.3741 -0.048 -0.916 0.398 59 47 29 0 0
-0.0717 -0.2068 -0.3757 -0.007 -0.933 0.359 57 44 26 0 0
-0.0740 -0.2162 -0.4159 -0.236 -0.952 0.194 67 51 28 0 0
-0.0741 -0.2165 -0.4174 -0.236 -0.952 0.194 78 61 38 0 0
-0.0742 -0.2167 -0.4188 -0.236 -0.952 0.194 80 63 40 0 0
-0.0743 -0.2171 -0.4202 -0.330 -0.918 0.217 80 66 40 0 0
-0.0776 -0.2126 -0.4637 -0.244 -0.970 -0.017 138 120 79 0 0
-0.0777 -0.2126 -0.4653 -0.244 -0.970 -0.017 140 122 82 0 0
-0.0971 -0.1023 -0.6539 0.120 -0.953 -0.278 16 13 10 0 0
-0.0973 -0.1019 -0.6562 -0.016 -0.962 -0.271 20 17 14 0 0
-0.1008 -0.0962 -0.7027 0.385 -0.914 0.129 15 11 10 0 0
-0.1009 -0.1014 -0.7073 -0.195 -0.915 0.353 27 22 19 0 0
-0.1010 -0.1014 -0.7094 -0.221 -0.709 0.670 33 28 25 0 0
-0.1009 -0.1042 -0.7095 0.262 -0.615 0.744 33 27 25 0 0
-0.1009 -0.1054 -0.7107 0.339 -0.613 0.714 34 29 25 0 0
-0.1009 -0.1067 -0.7119 0.019 -0.526 0.850 41 36 31 0 0
-0.1027 -0.1285 -0.7541 -0.188 -0.872 -0.452 80 67 43 0 0
-0.1035 -0.1233 -0.7623 0.070 -0.823 -0.564 55 42 24 0 0
-0.1055 -0.1327 -0.7977 -0.099 -0.948 0.302 62 47 28 0 0
-0.1058 -0.1352 -0.8043 -0.065 -0.818 0.571 74 59 36 0 0
-0.1058 -0.1363 -0.8056 -0.062 -0.784 0.617 68 53 30 0 0
-0.1059 -0.1375 -0.8067 0.077 -0.774 0.628 66 50 27 0 0
-0.1067 -0.1437 -0.8233 0.002 -0.914 0.406 87 66 35 0 0
-0.1071 -0.1469 -0.8315 0.056 -0.841 0.538 126 110 76 0 0
-0.1073 -0.1516 -0.8385 0.124 -0.951 0.285 115 98 61 0 0
-0.1093 -0.1549 -0.8688 0.092 -0.929 0.360 105 103 96 0 0
-0.1085 -0.1637 -0.8652 -0.058 -0.080 0.995 159 159 157 0 0
-0.1082 -0.1678 -0.8638 -0.149 -0.026 0.988 171 171 171 0 0
-0.0758 -0.0418 -0.2810 0.076 -0.901 0.427 86 77 63 0 0
-0.0706 -0.1721 -0.3125 -0.211 -0.973 -0.090 77 68 54 0 0
-0.0706 -0.1770 -0.3167 -0.434 -0.592 0.679 107 95 73 0 0
-0.0716 -0.1946 -0.3444 -0.019 -0.905 0.426 61 43 22 0 0
-0.0755 -0.2157 -0.4161 -0.330 -0.918 0.217 77 63 37 0 0
-0.0774 -0.2162 -0.4441 0.225 -0.973 -0.042 118 99 66 0 0
-0.0777 -0.2161 -0.4474 0.215 -0.974 0.077 127 110 73 0 0
-0.0976 -0.1054 -0.6400 -0.022 -0.999 0.049 50 40 30 0 0
-0.0982 -0.1040 -0.6468 0.175 -0.959 -0.222 24 20 15 0 0
-0.0984 -0.1035 -0.6491 0.175 -0.959 -0.222 16 13 8 0 0
-0.0986 -0.1029 -0.6515 0.238 -0.946 -0.221 16 11 8 0 0
-0.0989 -0.1019 -0.6561 -0.016 -0.962 -0.271 30 25 21 0 0
-0.0992 -0.1010 -0.6587 0.068 -0.942 -0.329 26 22 19 0 0
-0.1026 -0.0954 -0.7031 -0.668 -0.281 0.689 15 11 10 0 0
-0.1029 -0.0959 -0.7070 -0.595 -0.414 0.689 18 12 12 0 0
-0.1021 -0.1172 -0.7125 0.570 -0.276 0.774 59 50 41 0 0
-0.1068 -0.1282 -0.7883 -0.049 -0.838 0.544 65 49 31 0 0
-0.1071 -0.1310 -0.7947 -0.081 -0.869 0.488 67 52 32 0 0
-0.1071 -0.1335 -0.7970 0.038 -0.883 0.467 58 42 25 0 0
-0.1082 -0.1433 -0.8192 -0.027 -0.998 0.057 65 45 24 0 0
-0.1088 -0.1456 -0.8304 0.073 -0.993 0.095 103 90 56 0 0
-0.1089 -0.1464 -0.8319 0.074 -0.687 0.722 121 107 73 0 0
-0.1089 -0.1476 -0.8330 0.074 -0.687 0.722 116 102 72 0 0
-0.1089 -0.1485 -0.8344 0.008 -0.789 0.614 89 77 48 0 0
-0.1109 -0.1541 -0.8672 -0.010 -0.957 0.289 75 71 61 0 0
-0.0768 -0.0357 -0.2682 -0.053 -0.960 0.275 122 111 98 0 0
-0.0721 -0.1765 -0.3168 -0.615 -0.488 0.619 86 78 60 0 0
-0.0724 -0.1764 -0.3213 -0.326 -0.264 0.908 71 64 50 0 0
-0.0757 -0.2095 -0.3942 -0.157 -0.924 0.349 69 55 34 0 0
-0.0789 -0.2148 -0.4432 -0.085 -0.886 0.457 126 109 76 0 0
-0.0819 -0.2073 -0.4794 -0.459 -0.886 -0.068 145 125 93 0 0
-0.0848 -0.1950 -0.5095 -0.137 -0.960 -0.244 99 91 78 0 0
-0.0849 -0.1951 -0.5111 0.042 -0.953 -0.301 94 87 72 0 0
-0.0990 -0.1045 -0.6346 -0.078 -0.936 0.344 50 41 32 0 0
-0.0990 -0.1050 -0.6362 -0.078 -0.936 0.344 52 43 33 0 0
-0.0993 -0.1053 -0.6399 -0.022 -0.999 0.049 48 40 28 0 0
-0.1002 -0.1031 -0.6513 0.030 -0.956 -0.292 32 25 20 0 0
-0.1042 -0.1063 -0.7099 -0.345 -0.254 0.904 37 32 29 0 0
-0.1028 -0.1356 -0.7134 -0.075 -0.925 0.373 79 66 50 0 0
-0.1029 -0.1355 -0.7155 -0.052 -0.787 0.615 87 75 60 0 0
-0.1030 -0.1365 -0.7168 -0.109 -0.695 0.711 80 68 53 0 0
-0.1050 -0.1338 -0.7436 0.105 -0.909 -0.404 95 79 55 0 0
-0.1089 -0.1335 -0.7969 0.038 -0.883 0.467 58 42 24 0 0
-0.1090 -0.1334 -0.7992 0.146 -0.917 0.371 56 40 23 0 0
-0.1093 -0.1350 -0.8043 -0.129 -0.822 0.554 91 76 53 0 0
-0.1105 -0.1460 -0.8300 0.312 -0.950 -0.003 102 89 56 0 0
-0.1107 -0.1486 -0.8343 -0.025 -0.749 0.662 90 78 47 0 0
-0.0797 -0.0467 -0.2954 -0.002 -0.924 0.383 27 22 17 0 0
-0.0798 -0.0474 -0.2984 -0.044 -0.881 0.471 77 68 57 0 0
-0.0749 -0.1984 -0.3548 -0.147 -0.910 0.386 84 71 45 0 0
-0.0861 -0.1951 -0.5077 -0.086 -0.960 -0.267 32 28 17 0 0
-0.1010 -0.1050 -0.6401 0.264 -0.963 0.056 50 43 31 0 0
-0.1017 -0.1039 -0.6487 0.158 -0.942 -0.297 49 45 35 0 0
-0.1019 -0.1031 -0.6512 0.158 -0.942 -0.297 47 40 32 0 0
-0.1061 -0.1032 -0.7099 -0.398 -0.134 0.908 33 28 25 0 0
-0.1060 -0.1056 -0.7103 -0.307 -0.180 0.935 38 33 30 0 0
-0.1044 -0.1345 -0.7121 0.136 -0.977 0.163 91 76 59 0 0
-0.1045 -0.1355 -0.7134 -0.075 -0.925 0.373 88 72 54 0 0
-0.1046 -0.1357 -0.7153 -0.197 -0.767 0.611 91 77 57 0 0
-0.1047 -0.1364 -0.7169 -0.234 -0.663 0.711 93 79 56 0 0
-0.1070 -0.1333 -0.7460 -0.027 -0.897 -0.441 100 85 57 0 0
-0.1085 -0.1242 -0.7593 -0.181 -0.825 -0.536 72 59 41 0 0
-0.1106 -0.1309 -0.7946 0.084 -0.893 0.442 64 49 28 0 0
-0.1110 -0.1329 -0.8016 0.015 -0.888 0.460 67 52 29 0 0
-0.1124 -0.1449 -0.8308 -0.260 -0.851 0.456 113 99 64 0 0
-0.1124 -0.1464 -0.8318 -0.186 -0.793 0.580 132 116 81 0 0
-0.1149 -0.1554 -0.8749 0.204 -0.435 0.877 175 173 174 0 0
-0.0793 -0.0184 -0.2454 -0.545 -0.804 0.237 86 74 53 0 0
-0.0794 -0.0190 -0.2468 -0.522 -0.785 0.333 56 49 33 0 0
-0.0795 -0.0202 -0.2497 -0.619 -0.725 0.302 53 44 31 0 0
-0.0791 -0.2087 -0.4021 -0.175 -0.931 0.319 64 48 30 0 0
-0.0792 -0.2091 -0.4034 -0.090 -0.832 0.548 64 49 30 0 0
-0.0809 -0.2130 -0.4297 -0.282 -0.797 0.535 88 72 39 0 0
-0.1034 -0.1039 -0.6486 -0.019 -0.960 -0.281 53 46 36 0 0
-0.1055 -0.0955 -0.6701 -0.088 -0.954 -0.286 12 11 9 0 0
-0.1057 -0.0948 -0.6726 -0.088 -0.954 -0.286 11 10 8 0 0
-0.1093 -0.0766 -0.7076 0.300 -0.801 0.518 12 9 8 0 0
-0.1086 -0.0875 -0.7063 0.087 -0.279 0.956 15 11 10 0 0
-0.1061 -0.1347 -0.7119 0.136 -0.977 0.163 102 87 63 0 0
-0.1063 -0.1354 -0.7155 -0.197 -0.767 0.611 99 82 56 0 0
-0.1064 -0.1364 -0.7168 -0.197 -0.767 0.611 86 68 44 0 0
-0.1073 -0.1387 -0.7315 0.079 -0.974 -0.212 125 108 80 0 0
-0.1090 -0.1313 -0.7496 0.057 -0.896 -0.441 105 90 62 0 0
-0.1124 -0.1331 -0.7970 -0.167 -0.848 0.503 61 47 27 0 0
-0.1143 -0.1463 -0.8339 -0.084 -0.918 0.387 153 135 100 0 0
-0.1146 -0.1512 -0.8429 -0.226 -0.945 0.235 120 104 73 0 0
-0.1166 -0.1558 -0.8744 0.030 -0.297 0.954 175 173 174 0 0
-0.0809 -0.0044 -0.2342 -0.101 -0.551 0.829 176 176 177 0 0
-0.0814 -0.0367 -0.2677 -0.258 -0.947 0.190 52 43 33 0 0
-0.0777 -0.1983 -0.3547 0.014 -0.962 0.272 102 86 65 0 0
-0.0784 -0.1990 -0.3649 -0.023 -0.998 0.062 81 66 43 0 0
-0.0810 -0.2110 -0.4103 -0.083 -0.966 0.243 59 44 25 0 0
-0.0812 -0.2113 -0.4132 0.037 -0.977 0.208 59 43 28 0 0
-0.0813 -0.2116 -0.4147 0.037 -0.977 0.208 51 35 20 0 0
-0.0823 -0.2125 -0.4299 -0.388 -0.839 0.383 102 86 52 0 0
-0.0836 -0.2114 -0.4463 -0.431 -0.868 0.248 110 90 55 0 0
-0.0837 -0.2120 -0.4476 -0.264 -0.884 0.386 137 118 82 0 0
-0.0847 -0.2070 -0.4581 -0.421 -0.834 0.358 132 115 81 0 0
-0.0858 -0.2061 -0.4716 -0.572 -0.757 -0.318 104 95 74 0 0
-0.1020 -0.0992 -0.6026 -0.019 -0.941 0.339 43 36 29 0 0
-0.1022 -0.1002 -0.6058 0.173 -0.953 0.247 37 30 24 0 0
-0.1025 -0.1053 -0.6143 0.343 -0.827 0.444 49 42 34 0 0
-0.1043 -0.1061 -0.6392 0.376 -0.926 0.026 30 23 17 0 0
-0.1103 -0.0877 -0.7061 0.129 -0.294 0.947 16 12 11 0 0
-0.1097 -0.1000 -0.7079 0.816 -0.328 0.475 31 26 23 0 0
-0.1091 -0.1126 -0.7114 -0.450 -0.308 0.838 47 39 35 0 0
-0.1088 -0.1172 -0.7101 0.159 -0.772 0.616 58 49 43 0 0
-0.1088 -0.1181 -0.7116 0.399 -0.743 0.538 61 52 42 0 0
-0.1078 -0.1346 -0.7119 -0.044 -0.996 0.074 104 88 63 0 0
-0.1079 -0.1352 -0.7135 -0.115 -0.933 0.342 98 81 51 0 0
-0.1089 -0.1392 -0.7310 -0.069 -0.970 -0.231 122 103 74 0 0
-0.1108 -0.1309 -0.7498 -0.116 -0.896 -0.429 111 95 67 0 0
-0.1158 -0.1444 -0.8289 -0.055 -0.962 0.269 107 94 57 0 0
-0.1159 -0.1455 -0.8324 -0.084 -0.918 0.387 171 153 116 0 0
-0.1160 -0.1461 -0.8340 -0.084 -0.918 0.387 146 130 95 0 0
-0.1162 -0.1476 -0.8371 -0.190 -0.848 0.494 109 95 67 0 0
-0.1180 -0.1585 -0.8719 0.158 -0.488 0.859 176 175 175 0 0
-0.1181 -0.1590 -0.8736 0.098 -0.221 0.970 181 181 181 0 0
-0.0826 -0.0210 -0.2494 -0.604 -0.516 0.607 103 93 77 0 0
-0.0830 -0.0360 -0.2678 -0.123 -0.923 0.365 57 47 36 0 0
-0.0834 -0.0369 -0.2739 0.052 -0.795 0.604 200 186 158 0 0
-0.0836 -0.0363 -0.2757 -0.260 -0.883 0.390 86 74 58 0 0
-0.0800 -0.1988 -0.3664 -0.093 -0.970 0.226 70 58 34 0 0
-0.0799 -0.2029 -0.3693 -0.184 -0.959 0.217 64 49 28 0 0
-0.0812 -0.2082 -0.3914 -0.150 -0.951 0.270 59 44 25 0 0
-0.0823 -0.2106 -0.4088 -0.185 -0.941 0.283 74 57 37 0 0
-0.0830 -0.2113 -0.4178 0.176 -0.978 0.114 85 71 50 0 0
-0.0832 -0.2116 -0.4208 0.089 -0.996 0.018 82 66 44 0 0
-0.0837 -0.2123 -0.4283 -0.175 -0.950 0.257 127 113 79 0 0
-0.0838 -0.2123 -0.4299 -0.292 -0.901 0.320 99 84 52 0 0
-0.0838 -0.2128 -0.4313 -0.292 -0.901 0.320 123 108 77 0 0
-0.0848 -0.2098 -0.4422 -0.022 -0.991 -0.132 121 105 72 0 0
-0.0849 -0.2106 -0.4434 -0.131 -0.990 0.048 119 103 67 0 0
-0.1036 -0.0995 -0.6023 0.057 -0.962 0.269 34 26 23 0 0
-0.1038 -0.1004 -0.6056 0.173 -0.953 0.247 40 31 26 0 0
-0.1041 -0.1060 -0.6138 -0.246 -0.803 0.542 49 40 31 0 0
-0.1046 -0.1053 -0.6201 0.300 -0.912 0.281 44 36 26 0 0
-0.1109 -0.1092 -0.7096 -0.420 -0.653 0.631 39 35 31 0 0
-0.1109 -0.1104 -0.7108 -0.420 -0.653 0.631 45 39 35 0 0
-0.1109 -0.1118 -0.7119 -0.096 -0.421 0.902 50 43 39 0 0
-0.1096 -0.1347 -0.7138 -0.202 -0.942 0.268 104 85 57 0 0
-0.1177 -0.1453 -0.8324 -0.084 -0.918 0.387 147 132 99 0 0
-0.1179 -0.1465 -0.8358 -0.105 -0.952 0.288 110 99 70 0 0
-0.1179 -0.1514 -0.8404 -0.060 -0.942 0.331 112 97 65 0 0
-0.1196 -0.1612 -0.8716 -0.186 -0.093 0.978 181 181 179 0 0
-0.0840 -0.0083 -0.2363 0.143 -0.977 0.160 175 176 176 0 0
-0.0841 -0.0088 -0.2378 0.315 -0.912 0.263 172 172 167 0 0
-0.0843 -0.0195 -0.2496 -0.595 -0.496 0.633 110 101 87 0 0
-0.0843 -0.0210 -0.2509 -0.105 -0.404 0.909 147 134 120 0 0
-0.0843 -0.0224 -0.2521 -0.028 -0.590 0.807 171 156 135 0 0
-0.0842 -0.0242 -0.2533 0.006 -0.683 0.731 159 142 115 0 0
-0.0846 -0.0358 -0.2678 -0.175 -0.956 0.235 41 30 18 0 0
-0.0851 -0.0359 -0.2757 -0.041 -0.858 0.512 86 72 55 0 0
-0.0862 -0.2094 -0.4407 -0.330 -0.932 0.152 103 88 59 0 0
-0.0863 -0.2093 -0.4424 -0.005 -0.988 0.151 121 105 76 0 0
-0.0885 -0.2064 -0.4697 0.482 -0.742 -0.465 21 18 10 0 0
-0.1052 -0.1002 -0.6018 0.268 -0.833 0.483 33 24 20 0 0
-0.1055 -0.1007 -0.6054 0.173 -0.953 0.247 46 37 32 0 0
-0.1056 -0.1011 -0.6071 0.173 -0.953 0.247 58 49 42 0 0
-0.1056 -0.1016 -0.6087 0.135 -0.731 0.668 57 47 39 0 0
-0.1059 -0.1073 -0.6168 -0.197 -0.960 0.197 42 33 25 0 0
-0.1062 -0.1057 -0.6197 0.300 -0.912 0.281 40 31 24 0 0
-0.1115 -0.1269 -0.7092 0.484 -0.812 0.325 79 69 53 0 0
-0.1112 -0.1339 -0.7122 -0.202 -0.942 0.268 101 86 57 0 0
-0.1192 -0.1444 -0.8287 -0.007 -0.970 0.244 110 95 62 0 0
-0.1193 -0.1448 -0.8306 0.017 -0.971 0.237 123 108 77 0 0
-0.1195 -0.1452 -0.8325 -0.084 -0.918 0.387 121 107 78 0 0
-0.1195 -0.1459 -0.8341 -0.084 -0.918 0.387 119 108 78 0 0
-0.1196 -0.1464 -0.8358 -0.105 -0.952 0.288 102 91 62 0 0
-0.1198 -0.1512 -0.8427 -0.157 -0.974 0.165 116 101 68 0 0
-0.1209 -0.1617 -0.8666 -0.097 -0.541 0.835 171 169 170 0 0
-0.0860 -0.0013 -0.2362 -0.475 -0.443 0.760 178 176 179 0 0
-0.0856 -0.0086 -0.2362 0.143 -0.977 0.160 176 176 178 0 0
-0.0856 -0.0091 -0.2377 0.185 -0.936 0.301 174 174 176 0 0
-0.0860 -0.0177 -0.2500 -0.484 -0.575 0.659 104 95 84 0 0
-0.0861 -0.0346 -0.2665 -0.027 -0.850 0.525 57 45 28 0 0
-0.0862 -0.0354 -0.2678 -0.166 -0.986 0.022 40 28 14 0 0
-0.0877 -0.0433 -0.2960 0.303 -0.720 0.625 90 85 75 0 0
-0.0822 -0.1991 -0.3587 0.199 -0.929 0.311 70 60 42 0 0
-0.0833 -0.2047 -0.3790 0.000 -0.990 -0.140 75 63 42 0 0
-0.0834 -0.2048 -0.3805 -0.023 -0.989 -0.145 73 61 39 0 0
-0.0835 -0.2049 -0.3820 -0.392 -0.918 -0.057 70 58 37 0 0
-0.0851 -0.2101 -0.4074 0.360 -0.845 0.396 73 62 39 0 0
-0.0876 -0.2071 -0.4386 -0.740 -0.638 0.214 88 76 56 0 0
-0.0877 -0.2088 -0.4410 -0.392 -0.918 0.059 97 87 66 0 0
-0.1068 -0.0972 -0.5977 -0.103 -0.925 0.365 46 39 33 0 0
-0.1069 -0.1005 -0.6016 0.314 -0.837 0.447 37 28 23 0 0
-0.1069 -0.1012 -0.6031 0.417 -0.805 0.423 44 34 29 0 0
-0.1071 -0.1009 -0.6052 0.247 -0.963 0.109 48 39 34 0 0
-0.1074 -0.1011 -0.6089 0.128 -0.814 0.567 54 44 35 0 0
-0.1075 -0.1074 -0.6167 -0.111 -0.913 0.393 37 30 23 0 0
-0.1091 -0.1078 -0.6379 0.372 -0.916 0.149 58 49 36 0 0
-0.1165 -0.0754 -0.7080 0.113 -0.893 0.436 11 10 8 0 0
-0.1154 -0.0896 -0.7066 -0.053 -0.872 0.487 21 17 16 0 0
-0.1200 -0.1305 -0.8032 -0.150 -0.952 0.266 88 73 49 0 0
-0.1212 -0.1440 -0.8312 -0.143 -0.914 0.379 101 86 58 0 0
-0.1213 -0.1446 -0.8329 -0.143 -0.914 0.379 103 90 63 0 0
-0.1214 -0.1462 -0.8359 -0.105 -0.952 0.288 92 80 53 0 0
-0.1213 -0.1482 -0.8363 0.123 -0.913 0.389 105 91 61 0 0
-0.1214 -0.1489 -0.8379 0.123 -0.913 0.389 120 105 73 0 0
-0.1220 -0.1507 -0.8474 -0.010 -0.968 0.252 112 99 64 0 0
-0.1221 -0.1512 -0.8492 -0.010 -0.968 0.252 133 120 85 0 0
-0.0875 -0.0185 -0.2497 -0.369 -0.558 0.743 107 99 88 0 0
-0.0893 -0.0423 -0.2946 -0.009 -0.946 0.324 21 18 10 0 0
-0.0894 -0.0425 -0.2962 0.145 -0.786 0.602 69 62 52 0 0
-0.0846 -0.1951 -0.3693 -0.832 -0.429 0.350 94 84 66 0 0
-0.0847 -0.2022 -0.3770 -0.085 -0.954 0.288 89 80 62 0 0
-0.0848 -0.2026 -0.3784 -0.319 -0.903 0.287 89 80 62 0 0
-0.0849 -0.2036 -0.3810 -0.474 -0.869 0.141 70 60 41 0 0
-0.0852 -0.2061 -0.3860 0.098 -0.707 0.701 67 53 36 0 0
-0.0852 -0.2072 -0.3871 0.170 -0.717 0.676 73 58 42 0 0
-0.1086 -0.0987 -0.6006 -0.021 -0.983 0.183 43 35 29 0 0
-0.1085 -0.1009 -0.6012 0.314 -0.837 0.447 42 33 28 0 0
-0.1086 -0.1009 -0.6032 0.127 -0.953 0.276 44 34 30 0 0
-0.1089 -0.0996 -0.6059 -0.175 -0.747 0.641 46 37 31 0 0
-0.1089 -0.1012 -0.6069 -0.327 -0.864 0.383 51 42 36 0 0
-0.1095 -0.1062 -0.6193 0.710 -0.579 0.400 21 14 13 0 0
-0.1097 -0.1082 -0.6239 0.741 -0.608 0.285 29 23 19 0 0
-0.1104 -0.1096 -0.6347 0.223 -0.973 -0.058 74 65 51 0 0
-0.1107 -0.1087 -0.6373 -0.010 -0.980 -0.197 59 49 37 0 0
-0.1128 -0.0992 -0.6572 -0.107 -0.907 -0.406 28 23 20 0 0
-0.1176 -0.0862 -0.7089 0.299 -0.924 -0.240 20 16 15 0 0
-0.1213 -0.1194 -0.7882 0.044 -0.756 0.654 65 49 30 0 0
-0.1218 -0.1310 -0.8049 -0.160 -0.869 0.468 98 85 59 0 0
-0.1218 -0.1321 -0.8061 -0.001 -0.935 0.356 97 82 58 0 0
-0.1222 -0.1430 -0.8210 0.003 -0.997 0.071 61 45 24 0 0
-0.1229 -0.1430 -0.8298 -0.279 -0.893 0.353 94 79 49 0 0
-0.1230 -0.1436 -0.8314 -0.095 -0.912 0.398 93 79 49 0 0
-0.1234 -0.1507 -0.8429 -0.149 -0.943 0.296 119 106 72 0 0
-0.1234 -0.1515 -0.8444 -0.097 -0.948 0.305 121 108 76 0 0
-0.1235 -0.1520 -0.8462 -0.097 -0.948 0.305 114 100 65 0 0
-0.1252 -0.1570 -0.8729 -0.213 -0.309 0.927 178 177 178 0 0
-0.0891 -0.0049 -0.2385 -0.266 -0.702 0.660 177 177 179 0 0
-0.0891 -0.0175 -0.2499 -0.369 -0.527 0.765 110 100 89 0 0
-0.0933 -0.0617 -0.3438 -0.031 -0.997 0.075 89 81 66 0 0
-0.1102 -0.0950 -0.5970 -0.371 -0.692 0.620 47 42 36 0 0
-0.1102 -0.0968 -0.5978 0.283 -0.492 0.823 50 44 38 0 0
-0.1102 -0.0981 -0.5990 0.252 -0.769 0.588 50 43 37 0 0
-0.1103 -0.0979 -0.6010 -0.360 -0.779 0.513 49 42 36 0 0
-0.1106 -0.1007 -0.6071 -0.327 -0.864 0.383 45 36 29 0 0
-0.1105 -0.1025 -0.6079 -0.394 -0.859 0.328 49 40 33 0 0
-0.1114 -0.1103 -0.6264 0.535 -0.836 0.121 57 48 37 0 0
-0.1115 -0.1108 -0.6280 0.490 -0.872 0.005 59 50 37 0 0
-0.1173 -0.1159 -0.7086 -0.166 -0.100 0.981 54 47 40 0 0
-0.1191 -0.1301 -0.7458 -0.181 -0.946 -0.269 80 68 42 0 0
-0.1194 -0.1295 -0.7484 -0.253 -0.942 -0.222 66 54 35 0 0
-0.1228 -0.1117 -0.7770 -0.054 -0.975 0.214 54 41 23 0 0
-0.1229 -0.1198 -0.7857 0.061 -0.930 0.362 61 46 26 0 0
-0.1229 -0.1206 -0.7872 0.006 -0.920 0.393 62 47 26 0 0
-0.1230 -0.1213 -0.7888 -0.009 -0.916 0.400 69 53 32 0 0
-0.1231 -0.1219 -0.7905 0.067 -0.965 0.252 80 64 41 0 0
-0.1234 -0.1298 -0.8015 -0.069 -0.844 0.532 63 49 25 0 0
-0.1248 -0.1495 -0.8373 -0.056 -0.954 0.296 104 89 61 0 0
-0.1249 -0.1500 -0.8391 -0.031 -0.985 0.169 107 91 63 0 0
-0.1250 -0.1502 -0.8411 -0.132 -0.938 0.319 115 100 69 0 0
-0.1251 -0.1507 -0.8428 0.093 -0.960 0.265 121 108 74 0 0
-0.0912 -0.0355 -0.2724 0.089 -0.861 0.500 92 79 61 0 0
-0.0950 -0.0636 -0.3481 0.115 -0.947 0.300 79 72 56 0 0
-0.1118 -0.0961 -0.5963 0.162 -0.554 0.816 56 51 45 0 0
-0.1118 -0.0970 -0.5977 0.065 -0.649 0.758 54 49 43 0 0
-0.1118 -0.0982 -0.5989 0.330 -0.839 0.433 55 48 40 0 0
-0.1122 -0.1004 -0.6053 0.044 -0.855 0.517 44 35 28 0 0
-0.1139 -0.1087 -0.6352 0.152 -0.966 -0.207 63 56 43 0 0
-0.1141 -0.1078 -0.6377 0.157 -0.986 0.047 49 41 31 0 0
-0.1186 -0.0873 -0.6771 -0.153 -0.987 0.038 10 9 7 0 0
-0.1208 -0.0859 -0.7048 0.099 -0.298 0.949 16 12 9 0 0
-0.1191 -0.1139 -0.7079 0.106 -0.391 0.914 60 53 44 0 0
-0.1182 -0.1276 -0.7083 -0.335 -0.861 0.383 93 84 65 0 0
-0.1209 -0.1298 -0.7460 -0.122 -0.962 -0.246 80 72 44 0 0
-0.1212 -0.1290 -0.7487 -0.253 -0.942 -0.222 66 55 34 0 0
-0.1245 -0.1218 -0.7862 -0.060 -0.873 0.484 59 45 28 0 0
-0.1263 -0.1398 -0.8257 -0.257 -0.791 0.555 102 87 57 0 0
-0.1263 -0.1408 -0.8271 -0.257 -0.791 0.555 91 76 47 0 0
-0.1264 -0.1416 -0.8287 -0.305 -0.862 0.405 86 72 43 0 0
-0.1267 -0.1495 -0.8394 -0.032 -0.932 0.361 105 90 58 0 0
-0.0954 -0.0537 -0.3234 -0.064 -0.955 0.291 125 115 103 0 0
-0.1133 -0.0973 -0.5955 0.450 -0.693 0.564 57 52 46 0 0
-0.1133 -0.0983 -0.5968 0.384 -0.728 0.568 56 50 44 0 0
-0.1134 -0.0988 -0.5985 0.428 -0.817 0.387 53 46 38 0 0
-0.1135 -0.0992 -0.6001 -0.099 -0.993 0.071 57 50 40 0 0
-0.1225 -0.0848 -0.7033 -0.157 -0.603 0.782 13 9 8 0 0
-0.1207 -0.1143 -0.7075 -0.216 -0.473 0.854 55 48 39 0 0
-0.1223 -0.1312 -0.7428 -0.141 -0.945 -0.294 122 107 76 0 0
-0.1229 -0.1286 -0.7489 -0.317 -0.930 -0.185 70 59 33 0 0
-0.1232 -0.1280 -0.7514 -0.317 -0.930 -0.185 74 59 37 0 0
-0.1263 -0.1217 -0.7862 -0.060 -0.873 0.484 47 33 20 0 0
-0.1263 -0.1225 -0.7877 -0.060 -0.873 0.484 52 38 25 0 0
-0.1265 -0.1224 -0.7899 0.117 -0.927 0.355 57 43 29 0 0
-0.1267 -0.1239 -0.7930 0.114 -0.857 0.503 69 56 36 0 0
-0.1267 -0.1246 -0.7947 0.107 -0.867 0.487 74 61 41 0 0
-0.1268 -0.1256 -0.7961 0.006 -0.821 0.571 73 59 40 0 0
-0.1268 -0.1263 -0.7976 0.107 -0.867 0.487 78 64 43 0 0
-0.1268 -0.1280 -0.7984 -0.008 -0.861 0.509 73 58 39 0 0
-0.0951 0.0005 -0.2490 -0.353 -0.122 0.927 176 175 177 0 0
-0.0945 -0.0080 -0.2487 -0.665 -0.342 0.664 165 160 157 0 0
-0.0973 -0.0581 -0.3317 -0.037 -0.881 0.471 47 35 23 0 0
-0.0989 -0.0880 -0.3805 0.485 -0.469 0.738 87 78 64 0 0
-0.1163 -0.0756 -0.5925 0.533 0.002 0.846 42 37 32 0 0
-0.1149 -0.0962 -0.5941 0.707 -0.353 0.613 61 53 50 0 0
-0.1150 -0.1005 -0.5992 0.424 -0.844 0.327 57 49 39 0 0
-0.1157 -0.1123 -0.6191 0.480 -0.856 0.194 59 48 36 0 0
-0.1235 -0.0770 -0.6857 0.270 -0.958 0.097 10 9 7 0 0
-0.1229 -0.1031 -0.7031 0.285 -0.707 0.647 30 25 22 0 0
-0.1225 -0.1138 -0.7078 -0.118 -0.592 0.797 60 52 43 0 0
-0.1217 -0.1302 -0.7125 0.070 -0.742 0.667 135 117 82 0 0
-0.1217 -0.1337 -0.7160 0.118 -0.891 0.438 182 161 119 0 0
-0.1282 -0.1220 -0.7880 0.002 -0.960 0.280 39 27 13 0 0
-0.1296 -0.1399 -0.8233 -0.132 -0.974 0.184 106 91 60 0 0
-0.1300 -0.1418 -0.8305 -0.149 -0.967 0.207 115 100 69 0 0
-0.0987 -0.0545 -0.3263 -0.084 -0.940 0.331 150 142 132 0 0
-0.0989 -0.0586 -0.3331 -0.072 -0.916 0.395 46 33 21 0 0
-0.1016 -0.0667 -0.3750 0.362 -0.133 0.922 77 69 58 0 0
-0.1011 -0.0745 -0.3755 0.058 -0.143 0.988 113 106 96 0 0
-0.1184 -0.0694 -0.5922 0.624 0.029 0.781 31 28 23 0 0
-0.1178 -0.0774 -0.5914 0.503 0.143 0.852 42 37 33 0 0
-0.1174 -0.0816 -0.5910 0.502 0.138 0.854 52 47 41 0 0
-0.1172 -0.1116 -0.6156 0.078 -0.995 -0.063 55 45 34 0 0
-0.1253 -0.0764 -0.6861 0.325 -0.941 -0.090 10 9 7 0 0
-0.1248 -0.1003 -0.7028 0.211 -0.334 0.919 26 21 18 0 0
-0.1247 -0.1022 -0.7036 0.211 -0.334 0.919 32 27 24 0 0
-0.1243 -0.1134 -0.7081 -0.185 -0.879 0.439 62 55 45 0 0
-0.1234 -0.1339 -0.7158 0.106 -0.917 0.385 189 167 125 0 0
-0.1238 -0.1381 -0.7250 0.074 -0.878 0.473 110 91 60 0 0
-0.1317 -0.1413 -0.8287 -0.291 -0.942 0.166 146 126 91 0 0
-0.1318 -0.1416 -0.8306 -0.149 -0.967 0.207 133 113 79 0 0
-0.1320 -0.1414 -0.8329 0.037 -0.975 0.221 130 112 81 0 0
-0.1317 -0.1493 -0.8371 0.095 -0.930 0.356 115 102 68 0 0
-0.0982 -0.0379 -0.2842 -0.050 -0.921 0.387 85 73 61 0 0
-0.0988 -0.0474 -0.3008 -0.095 -0.886 0.455 80 68 49 0 0
-0.1005 -0.0590 -0.3329 0.108 -0.928 0.357 43 31 19 0 0
-0.1005 -0.0600 -0.3342 0.148 -0.980 0.135 74 64 53 0 0
-0.1029 -0.0594 -0.3641 -0.278 -0.920 0.277 30 23 15 0 0
-0.1028 -0.0718 -0.3748 0.084 -0.205 0.975 100 92 82 0 0
-0.1019 -0.0851 -0.3765 0.578 -0.368 0.728 134 123 106 0 0
-0.1019 -0.0870 -0.3775 0.578 -0.368 0.728 158 147 130 0 0
-0.1018 -0.0885 -0.3786 0.605 -0.420 0.676 139 129 111 0 0
-0.1018 -0.0902 -0.3796 0.579 -0.602 0.550 101 90 73 0 0
-0.1017 -0.0934 -0.3817 0.383 -0.630 0.676 101 91 72 0 0
-0.1019 -0.0933 -0.3834 0.480 -0.683 0.550 97 88 69 0 0
-0.1020 -0.0957 -0.3874 -0.056 -0.994 0.099 93 83 63 0 0
-0.1200 -0.0708 -0.5913 0.082 0.097 0.992 30 27 22 0 0
-0.1272 -0.0763 -0.6882 -0.123 -0.982 -0.140 9 8 6 0 0
-0.1269 -0.0977 -0.7046 0.413 -0.163 0.896 28 23 20 0 0
-0.1261 -0.1113 -0.7074 0.254 -0.739 0.624 54 47 38 0 0
-0.1260 -0.1129 -0.7083 0.045 -0.920 0.389 61 54 43 0 0
-0.1251 -0.1308 -0.7139 -0.150 -0.817 0.556 144 122 80 0 0
-0.1324 -0.1279 -0.8026 -0.084 -0.960 0.267 73 58 37 0 0
-0.1336 -0.1413 -0.8307 -0.071 -0.982 0.175 153 134 96 0 0
-0.1337 -0.1418 -0.8326 0.080 -0.948 0.307 133 116 86 0 0
-0.1338 -0.1421 -0.8345 0.044 -0.988 0.148 110 96 66 0 0
-0.1335 -0.1478 -0.8361 -0.075 -0.889 0.452 106 93 60 0 0
-0.0997 -0.0372 -0.2827 -0.050 -0.921 0.387 70 60 49 0 0
-0.0998 -0.0378 -0.2842 -0.050 -0.921 0.387 103 90 71 0 0
-0.1001 -0.0422 -0.2926 -0.011 -0.966 0.257 77 65 47 0 0
-0.1006 -0.0498 -0.3065 -0.068 -0.910 0.410 67 55 42 0 0
-0.1018 -0.0544 -0.3261 0.068 -0.916 0.394 91 83 70 0 0
-0.1019 -0.0562 -0.3288 0.054 -0.783 0.619 72 62 50 0 0
-0.1019 -0.0574 -0.3301 0.129 -0.765 0.631 38 28 18 0 0
-0.1019 -0.0585 -0.3314 0.129 -0.765 0.631 49 37 27 0 0
-0.1020 -0.0592 -0.3328 0.180 -0.929 0.323 53 42 31 0 0
-0.1021 -0.0595 -0.3343 0.289 -0.902 0.320 107 97 85 0 0
-0.1022 -0.0601 -0.3358 0.152 -0.942 0.298 83 71 56 0 0
-0.1035 -0.0625 -0.3547 -0.051 -0.996 -0.069 27 20 14 0 0
-0.1045 -0.0593 -0.3641 -0.287 -0.931 0.224 34 26 18 0 0
-0.1050 -0.0603 -0.3721 0.222 -0.944 0.244 109 98 85 0 0
-0.1044 -0.0718 -0.3747 0.295 -0.098 0.951 91 83 72 0 0
-0.1038 -0.0794 -0.3752 0.158 -0.136 0.978 118 109 95 0 0
-0.1034 -0.0862 -0.3760 0.661 -0.457 0.595 139 127 107 0 0
-0.1033 -0.0886 -0.3768 0.498 -0.271 0.824 165 154 134 0 0
-0.1032 -0.0905 -0.3778 0.445 -0.355 0.822 131 120 101 0 0
-0.1031 -0.0925 -0.3787 0.445 -0.355 0.822 111 100 80 0 0
-0.1032 -0.0931 -0.3801 0.531 -0.425 0.733 105 91 73 0 0
-0.1033 -0.0947 -0.3828 0.283 -0.959 -0.003 98 86 68 0 0
-0.1036 -0.0964 -0.3887 0.394 -0.919 0.009 87 76 51 0 0
-0.1214 -0.0741 -0.5912 -0.098 0.215 0.972 34 30 26 0 0
-0.1209 -0.0792 -0.5903 0.076 0.170 0.982 44 39 35 0 0
-0.1205 -0.0840 -0.5894 0.140 0.137 0.981 50 45 39 0 0
-0.1201 -0.0886 -0.5887 0.096 0.050 0.994 50 45 37 0 0
-0.1202 -0.1122 -0.6131 0.178 -0.981 0.077 68 56 40 0 0
-0.1220 -0.1103 -0.6337 0.259 -0.954 0.153 51 44 27 0 0
-0.1286 -0.0774 -0.6853 -0.037 -0.996 -0.080 11 10 8 0 0
-0.1279 -0.1145 -0.7112 0.558 -0.816 0.153 80 73 55 0 0
-0.1268 -0.1296 -0.7126 -0.121 -0.828 0.547 152 130 94 0 0
-0.1351 -0.1367 -0.8236 -0.287 -0.925 0.251 97 83 52 0 0
-0.1035 -0.0562 -0.3288 0.054 -0.783 0.619 59 49 39 0 0
-0.1035 -0.0595 -0.3326 0.045 -0.877 0.478 75 65 55 0 0
-0.1036 -0.0602 -0.3340 0.012 -0.913 0.408 133 122 112 0 0
-0.1037 -0.0603 -0.3356 0.051 -0.938 0.344 72 57 47 0 0
-0.1057 -0.0594 -0.3590 -0.263 -0.933 0.247 27 20 14 0 0
-0.1061 -0.0585 -0.3643 -0.389 -0.904 0.176 37 27 17 0 0
-0.1066 -0.0604 -0.3720 0.340 -0.895 0.290 122 112 101 0 0
-0.1061 -0.0688 -0.3740 0.209 -0.131 0.969 116 108 97 0 0
-0.1059 -0.0724 -0.3744 0.260 -0.137 0.956 101 94 82 0 0
-0.1054 -0.0797 -0.3750 0.158 -0.136 0.978 105 96 83 0 0
-0.1048 -0.0870 -0.3757 0.570 -0.294 0.768 154 142 118 0 0
-0.1047 -0.0892 -0.3765 0.490 -0.327 0.808 135 123 102 0 0
-0.1046 -0.0914 -0.3774 0.445 -0.355 0.822 144 132 112 0 0
-0.1046 -0.0931 -0.3784 0.543 -0.488 0.683 140 129 106 0 0
-0.1046 -0.0940 -0.3797 0.528 -0.549 0.648 95 80 58 0 0
-0.1047 -0.0941 -0.3813 0.745 -0.654 0.131 107 93 70 0 0
-0.1047 -0.0956 -0.3824 0.527 -0.832 0.171 108 94 71 0 0
-0.1113 -0.0976 -0.4665 0.786 -0.579 0.215 45 35 23 0 0
-0.1226 -0.0798 -0.5899 0.167 0.146 0.975 42 37 33 0 0
-0.1222 -0.0836 -0.5896 0.251 0.158 0.955 46 41 35 0 0
-0.1212 -0.1126 -0.6052 0.185 -0.939 0.289 61 48 32 0 0
-0.1304 -0.0772 -0.6853 -0.080 -0.995 -0.065 11 10 8 0 0
-0.1294 -0.1132 -0.7079 0.406 -0.801 0.439 76 68 57 0 0
-0.1353 -0.1111 -0.7790 -0.011 -0.916 0.400 69 56 37 0 0
-0.1354 -0.1112 -0.7811 -0.079 -0.895 0.439 73 60 41 0 0
-0.1358 -0.1232 -0.7976 -0.088 -0.914 0.395 68 52 29 0 0
-0.1360 -0.1247 -0.8007 -0.244 -0.901 0.358 64 48 25 0 0
-0.1362 -0.1258 -0.8041 -0.053 -0.901 0.432 75 58 36 0 0
-0.1362 -0.1265 -0.8058 0.061 -0.865 0.499 64 47 28 0 0
-0.1363 -0.1270 -0.8075 0.040 -0.877 0.480 59 44 25 0 0
-0.1364 -0.1275 -0.8093 0.101 -0.802 0.589 57 41 23 0 0
-0.1365 -0.1284 -0.8107 -0.002 -0.772 0.635 51 39 20 0 0
-0.1372 -0.1419 -0.8323 0.044 -0.988 0.148 109 98 69 0 0
-0.1387 -0.1388 -0.8482 -0.211 -0.912 0.352 95 88 58 0 0
-0.1399 -0.1451 -0.8695 -0.187 -0.946 0.265 99 93 82 0 0
-0.1074 -0.0581 -0.3594 -0.064 -0.998 0.011 35 28 20 0 0
-0.1082 -0.0600 -0.3721 -0.199 -0.872 0.447 85 75 65 0 0
-0.1081 -0.0628 -0.3727 0.025 -0.258 0.966 82 74 63 0 0
-0.1076 -0.0696 -0.3737 0.087 -0.088 0.992 118 111 100 0 0
-0.1074 -0.0730 -0.3741 0.184 -0.162 0.970 140 133 122 0 0
-0.1071 -0.0769 -0.3743 0.130 -0.124 0.984 115 107 98 0 0
-0.1070 -0.0795 -0.3751 0.080 -0.150 0.985 108 99 89 0 0
-0.1066 -0.0836 -0.3752 0.113 -0.151 0.982 118 107 91 0 0
-0.1063 -0.0877 -0.3754 0.271 -0.244 0.931 157 144 121 0 0
-0.1062 -0.0902 -0.3761 0.257 -0.262 0.930 142 128 105 0 0
-0.1060 -0.0933 -0.3766 0.286 -0.283 0.915 184 172 150 0 0
-0.1060 -0.0944 -0.3778 0.317 -0.545 0.776 170 158 134 0 0
-0.1060 -0.0951 -0.3792 0.293 -0.718 0.631 115 100 75 0 0
-0.1061 -0.0961 -0.3805 0.493 -0.835 0.244 121 106 80 0 0
-0.1062 -0.0964 -0.3820 0.527 -0.832 0.171 123 109 80 0 0
-0.1062 -0.0973 -0.3833 0.408 -0.912 -0.046 120 108 80 0 0
-0.1063 -0.0977 -0.3848 0.539 -0.837 0.096 112 100 75 0 0
-0.1064 -0.0977 -0.3865 0.592 -0.806 -0.020 85 73 48 0 0
-0.1075 -0.1000 -0.4022 0.231 -0.947 0.225 74 59 37 0 0
-0.1080 -0.1006 -0.4086 0.245 -0.952 -0.181 99 85 64 0 0
-0.1089 -0.1006 -0.4204 0.028 -0.995 0.092 88 76 50 0 0
-0.1094 -0.1003 -0.4256 -0.157 -0.986 0.055 73 61 37 0 0
-0.1117 -0.1019 -0.4558 0.022 -0.999 0.038 84 72 48 0 0
-0.1118 -0.1020 -0.4575 0.102 -0.979 -0.175 93 81 57 0 0
-0.1120 -0.1018 -0.4593 0.227 -0.909 -0.351 83 71 46 0 0
-0.1156 -0.1060 -0.5085 0.385 -0.920 0.071 93 82 57 0 0
-0.1158 -0.1054 -0.5106 -0.086 -0.942 0.323 94 84 60 0 0
-0.1159 -0.1059 -0.5122 0.554 -0.614 0.562 100 89 67 0 0
-0.1160 -0.1091 -0.5160 0.724 -0.684 -0.090 91 79 57 0 0
-0.1162 -0.1083 -0.5181 0.805 -0.593 -0.017 87 75 53 0 0
-0.1162 -0.1093 -0.5194 0.873 -0.471 0.128 80 70 46 0 0
-0.1191 -0.0990 -0.5450 0.121 -0.517 0.847 39 35 25 0 0
-0.1191 -0.1003 -0.5462 0.221 -0.659 0.719 38 34 26 0 0
-0.1193 -0.1001 -0.5481 -0.077 -0.831 0.551 35 29 24 0 0
-0.1194 -0.1005 -0.5498 -0.687 -0.483 0.543 34 29 25 0 0
-0.1194 -0.1013 -0.5512 -0.287 -0.872 0.397 31 26 22 0 0
-0.1198 -0.0999 -0.5538 0.536 -0.841 -0.071 21 17 14 0 0
-0.1238 -0.0830 -0.5879 0.312 0.011 0.950 39 34 30 0 0
-0.1236 -0.0859 -0.5882 0.468 0.026 0.884 39 34 28 0 0
-0.1232 -0.0919 -0.5886 0.501 -0.070 0.862 40 36 29 0 0
-0.1228 -0.0971 -0.5894 0.343 -0.399 0.851 39 34 28 0 0
-0.1322 -0.0770 -0.6853 -0.080 -0.995 -0.065 11 10 8 0 0
-0.1363 -0.1100 -0.7691 -0.049 -0.918 -0.394 84 72 47 0 0
-0.1376 -0.1111 -0.7854 -0.115 -0.966 0.231 61 46 25 0 0
-0.1375 -0.1227 -0.7957 -0.019 -0.861 0.508 83 68 40 0 0
-0.1375 -0.1236 -0.7971 -0.094 -0.879 0.468 78 61 35 0 0
-0.1376 -0.1242 -0.7988 -0.072 -0.949 0.308 79 62 38 0 0
-0.1378 -0.1253 -0.8023 -0.072 -0.949 0.308 70 54 30 0 0
-0.1098 -0.0589 -0.3707 -0.345 -0.760 0.551 67 58 49 0 0
-0.1099 -0.0597 -0.3721 -0.408 -0.730 0.548 77 67 58 0 0
-0.1096 -0.0629 -0.3726 -0.064 -0.237 0.969 78 71 60 0 0
-0.1095 -0.0657 -0.3733 -0.029 -0.106 0.994 113 107 95 0 0
-0.1089 -0.0737 -0.3738 0.043 -0.109 0.993 141 135 122 0 0
-0.1084 -0.0806 -0.3746 0.181 -0.125 0.976 107 98 85 0 0
-0.1078 -0.0882 -0.3751 0.419 -0.206 0.884 144 130 105 0 0
-0.1076 -0.0918 -0.3754 0.395 -0.334 0.856 181 166 141 0 0
-0.1074 -0.0940 -0.3763 0.328 -0.278 0.903 171 157 134 0 0
-0.1075 -0.0951 -0.3775 0.442 -0.576 0.688 153 140 115 0 0
-0.1075 -0.0955 -0.3790 0.472 -0.761 0.446 90 74 50 0 0
-0.1075 -0.0968 -0.3801 0.383 -0.907 0.173 120 104 78 0 0
-0.1079 -0.0994 -0.3874 0.715 -0.698 0.025 78 67 39 0 0
-0.1105 -0.1007 -0.4203 0.028 -0.995 0.092 90 79 56 0 0
-0.1165 -0.1001 -0.4935 0.621 -0.783 0.035 107 95 69 0 0
-0.1172 -0.1038 -0.5060 0.141 -0.856 0.498 86 74 51 0 0
-0.1170 -0.1064 -0.5064 0.385 -0.920 0.071 101 89 65 0 0
-0.1172 -0.1066 -0.5081 0.385 -0.920 0.071 95 84 62 0 0
-0.1172 -0.1073 -0.5096 0.525 -0.837 0.155 105 94 72 0 0
-0.1211 -0.0984 -0.5490 -0.312 -0.943 0.115 38 31 24 0 0
-0.1210 -0.1005 -0.5497 0.054 -0.827 0.559 38 31 26 0 0
-0.1210 -0.1015 -0.5510 0.372 -0.904 0.209 38 31 27 0 0
-0.1212 -0.1016 -0.5528 0.739 -0.634 -0.229 34 28 25 0 0
-0.1214 -0.1008 -0.5551 0.648 -0.692 -0.319 20 15 12 0 0
-0.1257 -0.0818 -0.5886 0.598 0.128 0.791 37 32 28 0 0
-0.1253 -0.0859 -0.5881 0.587 0.103 0.803 37 32 26 0 0
-0.1247 -0.0935 -0.5876 0.652 -0.111 0.750 39 34 27 0 0
-0.1242 -0.1021 -0.5902 0.561 -0.778 0.283 31 24 18 0 0
-0.1242 -0.1031 -0.5915 0.540 -0.695 0.475 45 38 29 0 0
-0.1264 -0.1105 -0.6256 0.019 -1.000 0.004 73 61 40 0 0
-0.1381 -0.1099 -0.7690 -0.192 -0.897 -0.399 82 70 45 0 0
-0.1410 -0.1405 -0.8355 -0.020 -0.949 0.316 93 79 50 0 0
-0.1437 -0.1478 -0.8760 -0.491 -0.869 0.065 176 175 173 0 0
-0.1112 -0.0555 -0.3651 -0.433 -0.901 -0.017 28 21 13 0 0
-0.1114 -0.0599 -0.3720 0.087 -0.558 0.825 66 57 47 0 0
-0.1091 -0.0907 -0.3741 0.361 -0.286 0.888 150 135 109 0 0
-0.1089 -0.0935 -0.3747 0.316 -0.297 0.901 184 171 145 0 0
-0.1088 -0.0953 -0.3757 0.361 -0.286 0.888 163 150 124 0 0
-0.1089 -0.0958 -0.3772 0.442 -0.576 0.688 161 144 114 0 0
-0.1089 -0.0970 -0.3783 0.391 -0.780 0.489 113 98 71 0 0
-0.1090 -0.0974 -0.3798 0.383 -0.907 0.173 118 105 78 0 0
-0.1092 -0.1027 -0.3877 0.706 -0.688 0.172 78 66 42 0 0
-0.1093 -0.1029 -0.3893 0.577 -0.797 0.179 77 64 40 0 0
-0.1109 -0.1021 -0.4079 -0.109 -0.989 0.097 83 71 50 0 0
-0.1177 -0.0984 -0.4871 0.448 -0.705 0.550 78 66 42 0 0
-0.1226 -0.1023 -0.5505 0.590 -0.774 0.228 40 33 27 0 0
-0.1227 -0.1029 -0.5521 0.672 -0.728 0.132 40 33 28 0 0
-0.1229 -0.1025 -0.5541 0.463 -0.845 -0.269 37 31 26 0 0
-0.1272 -0.0827 -0.5880 0.569 0.168 0.805 36 32 28 0 0
-0.1287 -0.1089 -0.6324 0.012 -0.998 -0.069 82 71 54 0 0
-0.1341 -0.1198 -0.7092 0.172 -0.957 0.235 71 63 45 0 0
-0.1413 -0.1135 -0.7899 0.053 -0.818 0.572 82 68 41 0 0
-0.1441 -0.1425 -0.8537 0.312 -0.640 0.703 131 115 82 0 0
-0.1130 -0.0546 -0.3670 -0.387 -0.851 0.355 26 19 12 0 0
-0.1132 -0.0561 -0.3699 0.117 -0.766 0.632 33 26 18 0 0
-0.1130 -0.0602 -0.3718 -0.143 -0.543 0.828 70 62 51 0 0
-0.1122 -0.0710 -0.3729 0.144 -0.054 0.988 125 116 108 0 0
-0.1104 -0.0937 -0.3746 0.361 -0.286 0.888 189 177 150 0 0
-0.1103 -0.0958 -0.3754 0.454 -0.332 0.826 169 157 126 0 0
-0.1103 -0.0971 -0.3766 0.633 -0.422 0.650 159 143 108 0 0
-0.1104 -0.0978 -0.3780 0.524 -0.635 0.567 142 127 96 0 0
-0.1104 -0.0983 -0.3794 0.327 -0.903 0.281 104 92 66 0 0
