ply
format ascii 1.0
element vertex 834
property float x
property float y
property float z
property float nx
property float ny
property float nz
property uchar diffuse_red
property uchar diffuse_green
property uchar diffuse_blue
property uchar class
property uchar detection
end_header
-0.2072 -0.0311 -0.6852 -0.526 -0.001 0.850 84 78 60 0 0
-0.2216 -0.0336 -0.7010 -0.986 0.033 0.166 89 75 55 0 0
-0.2219 -0.0336 -0.7026 -0.876 0.109 0.469 101 87 62 0 0
-0.2227 -0.0337 -0.7040 -0.876 0.109 0.469 105 90 59 0 0
-0.2244 -0.0337 -0.7123 -0.550 -0.051 0.834 79 57 26 0 0
-0.2240 -0.0334 -0.7165 -0.813 0.218 0.540 59 42 16 0 0
-0.2148 -0.0300 -0.7419 -0.884 -0.303 -0.357 51 42 34 0 0
-0.2163 -0.0303 -0.7427 -0.930 0.326 -0.171 46 40 32 0 0
-0.2169 -0.0278 -0.7974 -0.692 -0.150 0.706 21 17 14 0 0
-0.2209 -0.0285 -0.8021 -0.921 -0.246 0.303 28 22 15 0 0
-0.2213 -0.0284 -0.8060 -0.960 -0.168 0.225 45 36 24 0 0
-0.2228 -0.0278 -0.8257 -0.833 -0.116 0.541 45 35 24 0 0
-0.2240 -0.0279 -0.8289 -0.939 -0.078 0.334 44 35 23 0 0
-0.2251 -0.0281 -0.8300 -0.874 -0.032 0.485 44 35 21 0 0
-0.2257 -0.0281 -0.8315 -0.829 -0.126 0.544 48 38 20 0 0
-0.2351 -0.0292 -0.8525 -0.801 -0.176 0.572 55 48 33 0 0
-0.2345 -0.0286 -0.8619 -0.732 0.349 0.585 122 117 113 0 0
-0.0032 -0.0091 -0.1598 -0.761 0.620 0.192 175 176 176 0 0
-0.0556 -0.0172 -0.2354 -0.756 -0.402 0.517 44 34 23 0 0
-0.0800 -0.0221 -0.2491 -0.727 -0.443 0.525 18 16 9 0 0
-0.0827 -0.0227 -0.2499 -0.363 -0.330 0.872 73 64 52 0 0
-0.1030 -0.0264 -0.2683 -0.620 -0.522 0.585 218 202 168 0 0
-0.1049 -0.0267 -0.2708 -0.754 -0.417 0.508 125 111 79 0 0
-0.1137 -0.0282 -0.2816 -0.762 -0.305 0.571 161 149 128 0 0
-0.1147 -0.0284 -0.2828 -0.839 -0.116 0.532 247 237 206 0 0
-0.1155 -0.0285 -0.2840 -0.831 -0.240 0.502 211 197 160 0 0
-0.1163 -0.0286 -0.2853 -0.810 -0.253 0.529 208 193 153 0 0
-0.1171 -0.0287 -0.2865 -0.660 -0.300 0.688 178 163 121 0 0
-0.1226 -0.0297 -0.2908 -0.663 -0.163 0.731 149 131 95 0 0
-0.1215 -0.0294 -0.2926 -0.758 -0.150 0.635 177 158 119 0 0
-0.1224 -0.0296 -0.2938 -0.800 -0.234 0.552 196 177 140 0 0
-0.1233 -0.0297 -0.2950 -0.777 -0.261 0.573 168 151 118 0 0
-0.1264 -0.0302 -0.3000 -0.807 -0.394 0.439 180 165 128 0 0
-0.1271 -0.0302 -0.3013 -0.807 -0.394 0.439 199 185 151 0 0
-0.1278 -0.0303 -0.3040 -0.796 -0.444 0.412 115 103 81 0 0
-0.1289 -0.0304 -0.3066 -0.862 -0.404 0.307 99 86 68 0 0
-0.1298 -0.0305 -0.3078 -0.736 -0.378 0.561 95 83 62 0 0
-0.1373 -0.0318 -0.3174 -0.805 -0.443 0.394 148 133 107 0 0
-0.1379 -0.0318 -0.3187 -0.805 -0.443 0.394 141 130 105 0 0
-0.1496 -0.0326 -0.3567 -0.925 -0.361 -0.116 59 49 36 0 0
-0.1467 -0.0318 -0.3608 -0.694 -0.462 -0.552 49 39 25 0 0
-0.1454 -0.0314 -0.3628 -0.694 -0.462 -0.552 54 45 30 0 0
-0.1430 -0.0306 -0.3668 -0.736 -0.465 -0.492 62 52 33 0 0
-0.1413 -0.0295 -0.3814 -0.778 -0.617 0.118 92 78 53 0 0
-0.1427 -0.0278 -0.4221 -0.967 -0.253 -0.035 77 65 41 0 0
-0.1427 -0.0273 -0.4319 -0.909 -0.274 0.314 87 74 57 0 0
-0.1459 -0.0280 -0.4337 -0.832 -0.511 0.218 92 79 62 0 0
-0.1343 -0.0236 -0.4689 -0.834 -0.550 0.034 22 18 15 0 0
-0.1502 -0.0261 -0.4916 -0.892 -0.120 0.436 73 65 55 0 0
-0.1511 -0.0262 -0.4928 -0.954 -0.171 0.245 70 60 51 0 0
-0.1515 -0.0263 -0.4943 -0.954 -0.171 0.245 68 60 52 0 0
-0.1523 -0.0263 -0.4973 -0.954 -0.171 0.245 40 32 27 0 0
-0.1522 -0.0262 -0.4991 -0.913 -0.339 0.229 80 71 64 0 0
-0.1635 -0.0286 -0.5017 -0.583 -0.353 0.731 112 100 83 0 0
-0.1669 -0.0291 -0.5067 -0.804 -0.443 0.395 70 60 48 0 0
-0.1689 -0.0293 -0.5125 -0.987 -0.089 0.131 53 44 34 0 0
-0.2180 -0.0400 -0.5220 -0.196 0.619 0.761 18 12 7 0 0
-0.2234 -0.0393 -0.5611 -0.794 0.471 -0.383 29 25 22 0 0
-0.1596 -0.0206 -0.6449 -0.657 -0.626 -0.420 7 6 4 0 0
-0.1553 -0.0193 -0.6517 -0.601 -0.697 -0.392 12 10 8 0 0
-0.1450 -0.0164 -0.6626 -0.869 0.003 0.495 15 11 10 0 0
-0.1458 -0.0166 -0.6640 -0.869 0.003 0.495 15 11 10 0 0
-0.1466 -0.0167 -0.6654 -0.869 0.003 0.495 15 11 10 0 0
-0.1443 -0.0160 -0.6690 -0.701 0.696 0.154 13 9 8 0 0
-0.1589 -0.0193 -0.6685 -0.111 -0.583 0.805 6 5 3 0 0
-0.1590 -0.0188 -0.6802 -0.316 -0.677 0.665 8 7 5 0 0
-0.1648 -0.0194 -0.6937 -0.796 -0.447 0.408 34 31 26 0 0
-0.2043 -0.0289 -0.6837 -0.579 0.020 0.815 119 105 85 0 0
-0.2222 -0.0320 -0.7026 -0.937 0.165 0.309 115 99 75 0 0
-0.2226 -0.0320 -0.7042 -0.876 0.109 0.469 103 88 57 0 0
-0.2118 -0.0252 -0.7939 -0.800 -0.099 0.591 16 14 9 0 0
-0.2130 -0.0254 -0.7949 -0.871 -0.110 0.479 17 15 10 0 0
-0.2172 -0.0262 -0.7973 -0.707 -0.284 0.648 21 18 13 0 0
-0.2175 -0.0262 -0.7992 -0.887 -0.357 0.292 25 19 14 0 0
-0.2180 -0.0262 -0.8008 -0.823 -0.463 0.330 29 22 16 0 0
-0.2185 -0.0263 -0.8025 -0.900 -0.033 0.435 31 23 18 0 0
-0.2212 -0.0268 -0.8042 -0.987 -0.151 0.050 34 25 15 0 0
-0.2243 -0.0263 -0.8289 -0.829 -0.466 0.309 51 39 23 0 0
-0.2251 -0.0264 -0.8302 -0.862 -0.243 0.444 54 41 24 0 0
-0.2258 -0.0265 -0.8317 -0.819 -0.220 0.530 66 53 29 0 0
-0.2341 -0.0268 -0.8625 -0.675 0.278 0.684 131 127 123 0 0
0.0016 -0.0064 -0.1604 -0.598 0.784 0.167 177 177 177 0 0
0.0011 -0.0064 -0.1618 -0.592 0.786 0.179 177 176 176 0 0
-0.0182 -0.0095 -0.1896 -0.768 0.267 0.582 134 118 87 0 0
-0.0187 -0.0095 -0.1909 -0.621 0.579 0.529 121 105 75 0 0
-0.0806 -0.0208 -0.2490 -0.747 -0.200 0.634 20 15 10 0 0
-0.0941 -0.0235 -0.2560 -0.763 -0.332 0.554 99 85 54 0 0
-0.0951 -0.0237 -0.2572 -0.769 -0.455 0.450 103 91 67 0 0
-0.0956 -0.0237 -0.2585 -0.760 -0.537 0.366 78 63 45 0 0
-0.1054 -0.0254 -0.2692 -0.558 -0.430 0.710 154 139 107 0 0
-0.1055 -0.0254 -0.2706 -0.754 -0.417 0.508 106 93 66 0 0
-0.1067 -0.0255 -0.2733 -0.842 -0.470 0.265 66 55 36 0 0
-0.1148 -0.0269 -0.2828 -0.707 -0.172 0.686 232 222 189 0 0
-0.1158 -0.0271 -0.2840 -0.831 -0.240 0.502 213 199 164 0 0
-0.1176 -0.0273 -0.2864 -0.660 -0.300 0.688 172 156 119 0 0
-0.1234 -0.0285 -0.2906 -0.692 -0.070 0.719 160 143 100 0 0
-0.1225 -0.0282 -0.2924 -0.673 -0.174 0.719 173 155 113 0 0
-0.1270 -0.0288 -0.2999 -0.769 -0.383 0.511 148 132 96 0 0
-0.1275 -0.0289 -0.3012 -0.832 -0.348 0.432 152 136 105 0 0
-0.1315 -0.0295 -0.3073 -0.881 -0.165 0.443 103 90 71 0 0
-0.1414 -0.0307 -0.3279 -0.923 -0.287 0.257 65 55 44 0 0
-0.1428 -0.0310 -0.3290 -0.795 -0.533 0.290 107 96 79 0 0
-0.1424 -0.0289 -0.3686 -0.779 -0.618 -0.109 75 63 42 0 0
-0.1427 -0.0276 -0.3966 -0.649 -0.427 0.630 78 64 38 0 0
-0.1436 -0.0277 -0.3978 -0.722 -0.375 0.581 86 73 48 0 0
-0.1446 -0.0279 -0.3990 -0.940 -0.342 -0.001 85 73 49 0 0
-0.1451 -0.0279 -0.4004 -0.981 -0.186 0.059 85 73 49 0 0
-0.1512 -0.0247 -0.4929 -0.870 -0.015 0.492 76 66 57 0 0
-0.1517 -0.0247 -0.4943 -0.892 -0.120 0.436 68 59 52 0 0
-0.1523 -0.0248 -0.4957 -0.929 -0.196 0.313 31 23 20 0 0
-0.1528 -0.0248 -0.4972 -0.915 -0.336 0.224 36 29 23 0 0
-0.1649 -0.0273 -0.5028 -0.910 -0.060 0.409 108 97 81 0 0
-0.1655 -0.0274 -0.5041 -0.910 -0.060 0.409 79 69 55 0 0
-0.1777 -0.0245 -0.6177 -0.794 -0.592 0.136 31 24 16 0 0
-0.1571 -0.0182 -0.6486 -0.889 -0.277 -0.364 8 7 5 0 0
-0.1470 -0.0150 -0.6673 -0.996 -0.062 -0.058 13 9 8 0 0
-0.1579 -0.0175 -0.6675 -0.506 -0.374 0.777 6 4 2 0 0
-0.1602 -0.0174 -0.6795 -0.269 -0.724 0.635 7 6 4 0 0
-0.1588 -0.0168 -0.6845 -0.437 -0.254 0.863 11 10 8 0 0
-0.2100 -0.0284 -0.6872 -0.557 0.110 0.823 90 76 60 0 0
-0.2220 -0.0304 -0.7029 -0.937 0.165 0.309 84 71 50 0 0
-0.2235 -0.0307 -0.7036 -0.973 0.127 0.195 76 61 36 0 0
-0.2235 -0.0305 -0.7075 -0.987 -0.161 -0.008 105 88 61 0 0
-0.2064 -0.0224 -0.7905 -0.585 -0.016 0.811 31 25 17 0 0
-0.2182 -0.0247 -0.7988 -0.832 -0.123 0.542 27 20 14 0 0
-0.2174 -0.0244 -0.8016 -0.664 -0.204 0.719 31 23 16 0 0
-0.2163 -0.0240 -0.8048 -0.584 -0.158 0.796 33 25 16 0 0
-0.2249 -0.0247 -0.8286 -0.908 -0.083 0.411 67 55 34 0 0
-0.2255 -0.0248 -0.8301 -0.929 0.111 0.353 73 61 37 0 0
-0.2263 -0.0249 -0.8315 -0.890 -0.101 0.445 77 64 35 0 0
-0.2333 -0.0250 -0.8614 -0.817 0.424 0.390 117 113 109 0 0
-0.2337 -0.0250 -0.8631 -0.490 0.184 0.852 138 134 132 0 0
0.0039 -0.0042 -0.1622 -0.657 0.743 0.127 178 176 177 0 0
0.0013 -0.0047 -0.1647 -0.884 0.340 0.320 175 172 171 0 0
-0.0810 -0.0194 -0.2474 -0.954 -0.238 0.182 37 30 19 0 0
-0.0951 -0.0223 -0.2558 -0.587 -0.474 0.656 143 128 97 0 0
-0.1046 -0.0238 -0.2680 -0.661 -0.445 0.604 143 123 96 0 0
-0.1056 -0.0240 -0.2692 -0.661 -0.445 0.604 137 120 92 0 0
-0.1058 -0.0240 -0.2706 -0.841 -0.414 0.348 122 106 81 0 0
-0.1069 -0.0242 -0.2717 -0.754 -0.417 0.508 113 98 74 0 0
-0.1074 -0.0242 -0.2731 -0.843 -0.372 0.388 89 78 58 0 0
-0.1140 -0.0254 -0.2801 -0.637 -0.408 0.653 128 115 96 0 0
-0.1233 -0.0269 -0.2921 -0.688 -0.514 0.512 138 119 83 0 0
-0.1280 -0.0275 -0.3011 -0.832 -0.348 0.432 116 101 75 0 0
-0.1286 -0.0276 -0.3024 -0.832 -0.348 0.432 94 83 61 0 0
-0.1316 -0.0281 -0.3059 -0.861 -0.296 0.414 68 59 42 0 0
-0.1322 -0.0282 -0.3072 -0.861 -0.296 0.414 81 69 51 0 0
-0.1328 -0.0282 -0.3085 -0.873 -0.254 0.417 67 54 40 0 0
-0.1401 -0.0295 -0.3180 -0.901 -0.375 0.218 88 76 57 0 0
-0.1403 -0.0294 -0.3194 -0.922 -0.361 0.141 88 76 59 0 0
-0.1402 -0.0292 -0.3224 -0.945 -0.322 -0.048 63 53 39 0 0
-0.1437 -0.0297 -0.3287 -0.792 -0.563 0.237 121 106 84 0 0
-0.1456 -0.0300 -0.3326 -0.882 -0.442 0.165 183 168 131 0 0
-0.1467 -0.0302 -0.3337 -0.873 -0.481 0.086 162 144 111 0 0
-0.1496 -0.0307 -0.3357 -0.909 -0.303 0.286 63 47 32 0 0
-0.1505 -0.0309 -0.3369 -0.950 -0.136 0.280 54 39 28 0 0
-0.1509 -0.0309 -0.3382 -0.950 -0.136 0.280 55 41 27 0 0
-0.1513 -0.0309 -0.3396 -0.950 -0.136 0.280 62 49 32 0 0
-0.1531 -0.0309 -0.3480 -0.917 -0.377 0.131 39 32 22 0 0
-0.1485 -0.0293 -0.3587 -0.815 0.005 -0.580 47 37 24 0 0
-0.1424 -0.0272 -0.3733 -0.801 -0.560 0.213 87 72 47 0 0
-0.1430 -0.0268 -0.3840 -0.767 -0.574 0.287 100 83 59 0 0
-0.1459 -0.0271 -0.3907 -0.729 -0.613 0.305 84 70 43 0 0
-0.1458 -0.0269 -0.3938 -0.974 0.090 0.210 82 68 42 0 0
-0.1461 -0.0269 -0.3953 -0.974 0.090 0.210 83 69 43 0 0
-0.1386 -0.0221 -0.4570 -0.913 -0.302 -0.274 30 25 21 0 0
-0.1356 -0.0209 -0.4668 -0.879 -0.289 -0.379 23 19 16 0 0
-0.1503 -0.0231 -0.4900 -0.829 -0.116 0.548 65 58 51 0 0
-0.1509 -0.0231 -0.4914 -0.876 -0.225 0.427 64 56 48 0 0
-0.1515 -0.0232 -0.4928 -0.860 -0.274 0.430 56 49 41 0 0
-0.1520 -0.0233 -0.4943 -0.878 -0.273 0.393 37 30 22 0 0
-0.1529 -0.0234 -0.4955 -0.903 -0.309 0.300 52 47 40 0 0
-0.1574 -0.0241 -0.5017 -0.545 -0.162 0.823 79 72 61 0 0
-0.1657 -0.0259 -0.5042 -0.851 0.011 0.526 84 72 59 0 0
-0.1688 -0.0264 -0.5093 -0.783 -0.509 0.357 60 51 42 0 0
-0.1698 -0.0264 -0.5139 -0.928 -0.276 0.248 40 34 25 0 0
-0.2250 -0.0382 -0.5315 -0.738 0.632 0.237 80 69 52 0 0
-0.2255 -0.0382 -0.5328 -0.738 0.632 0.237 89 78 60 0 0
-0.2257 -0.0371 -0.5548 -0.917 0.347 -0.196 25 21 18 0 0
-0.1787 -0.0232 -0.6172 -0.850 -0.485 0.204 46 37 25 0 0
-0.1577 -0.0167 -0.6484 -0.889 -0.277 -0.364 7 6 4 0 0
-0.1531 -0.0154 -0.6535 -0.787 -0.270 -0.555 10 8 6 0 0
-0.1480 -0.0139 -0.6608 -0.781 -0.559 -0.279 17 13 12 0 0
-0.1467 -0.0133 -0.6657 -0.781 -0.559 -0.279 16 12 11 0 0
-0.1467 -0.0132 -0.6677 -0.870 -0.486 -0.085 13 10 8 0 0
-0.1617 -0.0161 -0.6786 -0.509 -0.032 0.860 7 5 6 0 0
-0.2000 -0.0246 -0.6854 -0.014 0.479 0.878 67 59 54 0 0
-0.2164 -0.0280 -0.6921 -0.745 -0.205 0.634 98 85 65 0 0
-0.2205 -0.0286 -0.7004 -0.887 0.289 0.359 83 72 58 0 0
-0.2228 -0.0290 -0.7025 -0.915 0.241 0.325 66 53 36 0 0
-0.2023 -0.0212 -0.7632 -0.810 -0.164 -0.564 32 27 16 0 0
-0.1997 -0.0204 -0.7675 -0.822 -0.179 -0.541 34 27 17 0 0
-0.2198 -0.0220 -0.8271 -0.926 -0.152 0.345 77 66 44 0 0
-0.2236 -0.0229 -0.8258 -0.813 -0.055 0.580 83 72 50 0 0
-0.2244 -0.0230 -0.8271 -0.953 -0.187 0.240 90 78 56 0 0
-0.2250 -0.0231 -0.8286 -0.908 -0.083 0.411 85 72 50 0 0
-0.2258 -0.0232 -0.8301 -0.932 0.153 0.329 85 73 48 0 0
-0.2263 -0.0232 -0.8317 -0.932 0.153 0.329 79 68 39 0 0
0.0080 -0.0017 -0.1627 -0.475 0.081 0.876 178 176 179 0 0
-0.0609 -0.0139 -0.2358 -0.127 -0.006 0.992 59 54 41 0 0
-0.0814 -0.0180 -0.2474 -0.969 -0.182 0.167 38 31 18 0 0
-0.0812 -0.0179 -0.2489 -0.739 -0.047 0.672 31 26 19 0 0
-0.0903 -0.0200 -0.2497 -0.438 -0.284 0.853 135 122 106 0 0
-0.0928 -0.0205 -0.2505 -0.642 -0.452 0.619 140 125 99 0 0
-0.0938 -0.0207 -0.2517 -0.697 -0.478 0.535 164 146 114 0 0
-0.0946 -0.0208 -0.2530 -0.697 -0.478 0.535 175 155 121 0 0
-0.1066 -0.0227 -0.2704 -0.872 -0.251 0.421 121 105 79 0 0
-0.1074 -0.0228 -0.2716 -0.809 -0.302 0.504 84 69 47 0 0
-0.1079 -0.0228 -0.2730 -0.843 -0.372 0.388 54 43 26 0 0
-0.1085 -0.0229 -0.2743 -0.909 -0.330 0.253 48 35 24 0 0
-0.1131 -0.0237 -0.2789 -0.651 -0.164 0.741 75 64 53 0 0
-0.1149 -0.0241 -0.2799 -0.555 -0.639 0.533 129 115 94 0 0
-0.1291 -0.0262 -0.3022 -0.892 -0.282 0.352 59 50 32 0 0
-0.1296 -0.0263 -0.3036 -0.862 -0.297 0.410 58 50 34 0 0
-0.1328 -0.0268 -0.3085 -0.861 -0.313 0.400 80 67 53 0 0
-0.1396 -0.0279 -0.3167 -0.772 -0.451 0.448 82 69 52 0 0
-0.1504 -0.0294 -0.3369 -0.909 -0.303 0.286 73 61 44 0 0
-0.1517 -0.0296 -0.3395 -0.921 -0.281 0.270 63 51 37 0 0
-0.1530 -0.0296 -0.3450 -0.958 -0.194 0.210 36 29 20 0 0
-0.1539 -0.0295 -0.3507 -0.993 -0.011 0.121 49 39 30 0 0
-0.1429 -0.0261 -0.3670 -0.877 -0.371 0.306 67 52 31 0 0
-0.1483 -0.0252 -0.4087 -0.893 -0.418 0.167 92 77 54 0 0
-0.1429 -0.0199 -0.4871 -0.855 -0.410 0.319 26 21 18 0 0
-0.1506 -0.0216 -0.4900 -0.876 -0.225 0.427 56 49 42 0 0
-0.1513 -0.0217 -0.4913 -0.860 -0.274 0.430 58 51 43 0 0
-0.1519 -0.0217 -0.4927 -0.860 -0.274 0.430 53 46 38 0 0
-0.1524 -0.0218 -0.4941 -0.878 -0.273 0.393 82 75 67 0 0
-0.1530 -0.0218 -0.4956 -0.867 -0.350 0.354 79 73 67 0 0
-0.1535 -0.0219 -0.4970 -0.867 -0.350 0.354 37 32 26 0 0
-0.1577 -0.0226 -0.5016 -0.545 -0.162 0.823 76 68 59 0 0
-0.1649 -0.0242 -0.5030 -0.851 0.011 0.526 77 68 59 0 0
-0.1657 -0.0243 -0.5043 -0.851 0.011 0.526 66 55 45 0 0
-0.1669 -0.0246 -0.5053 -0.944 -0.116 0.308 58 46 35 0 0
-0.1695 -0.0247 -0.5142 -0.889 -0.201 0.411 43 37 30 0 0
-0.1703 -0.0248 -0.5154 -0.821 -0.175 0.543 40 35 30 0 0
-0.1787 -0.0216 -0.6174 -0.965 -0.245 0.098 76 66 50 0 0
-0.1571 -0.0149 -0.6490 -0.899 -0.205 -0.388 7 6 4 0 0
-0.1543 -0.0141 -0.6528 -0.624 -0.552 -0.553 9 7 5 0 0
-0.1484 -0.0122 -0.6627 -0.814 -0.433 -0.388 17 13 12 0 0
-0.1473 -0.0118 -0.6654 -0.814 -0.433 -0.388 16 12 11 0 0
-0.1585 -0.0137 -0.6791 -0.397 -0.490 0.776 6 4 5 0 0
-0.1631 -0.0148 -0.6778 -0.932 -0.226 0.283 6 4 5 0 0
-0.1560 -0.0128 -0.6849 -0.626 -0.537 0.566 7 6 6 0 0
-0.1584 -0.0134 -0.6851 -0.715 -0.453 0.533 10 9 7 0 0
-0.1589 -0.0134 -0.6867 -0.640 -0.075 0.765 13 12 10 0 0
-0.2013 -0.0232 -0.6865 -0.004 0.443 0.896 72 61 50 0 0
-0.2100 -0.0252 -0.6876 -0.470 0.064 0.880 98 80 53 0 0
-0.2161 -0.0262 -0.6944 -0.721 0.066 0.690 79 65 47 0 0
-0.2185 -0.0267 -0.6964 -0.780 0.191 0.596 77 65 42 0 0
-0.2192 -0.0268 -0.6977 -0.880 0.140 0.454 80 68 47 0 0
-0.2200 -0.0269 -0.6991 -0.822 0.216 0.527 77 65 47 0 0
-0.2212 -0.0263 -0.7157 -0.979 0.190 0.072 89 67 38 0 0
-0.1960 -0.0176 -0.7729 -0.857 -0.159 -0.491 35 28 18 0 0
-0.1935 -0.0168 -0.7771 -0.871 -0.291 -0.396 41 34 23 0 0
-0.1899 -0.0157 -0.7823 -0.820 0.459 0.343 53 45 34 0 0
-0.2242 -0.0214 -0.8254 -0.837 -0.172 0.519 70 59 39 0 0
-0.2256 -0.0215 -0.8305 -0.914 0.252 0.317 84 72 48 0 0
-0.0198 -0.0044 -0.2040 -0.620 0.744 0.251 97 87 66 0 0
-0.0751 -0.0156 -0.2371 -0.447 -0.685 0.576 145 127 86 0 0
-0.0816 -0.0165 -0.2488 -0.731 -0.273 0.626 32 23 19 0 0
-0.0936 -0.0192 -0.2504 -0.642 -0.452 0.619 190 169 135 0 0
-0.1105 -0.0219 -0.2738 -0.863 -0.367 0.348 34 24 13 0 0
-0.1132 -0.0223 -0.2789 -0.702 -0.267 0.660 89 79 66 0 0
-0.1144 -0.0225 -0.2800 -0.759 -0.276 0.589 133 119 96 0 0
-0.1293 -0.0248 -0.3022 -0.841 -0.179 0.510 68 61 46 0 0
-0.1301 -0.0249 -0.3035 -0.862 -0.297 0.410 45 37 25 0 0
-0.1328 -0.0253 -0.3085 -0.910 -0.257 0.326 68 58 43 0 0
-0.1333 -0.0254 -0.3099 -0.910 -0.257 0.326 90 80 66 0 0
-0.1358 -0.0258 -0.3120 -0.759 0.054 0.649 73 63 47 0 0
-0.1372 -0.0261 -0.3131 -0.744 -0.035 0.667 111 101 85 0 0
-0.1382 -0.0263 -0.3142 -0.744 -0.035 0.667 120 110 93 0 0
-0.1393 -0.0265 -0.3154 -0.744 -0.035 0.667 123 109 94 0 0
-0.1436 -0.0269 -0.3259 -0.695 -0.543 0.471 92 84 67 0 0
-0.1502 -0.0280 -0.3341 -0.867 -0.420 0.267 116 103 74 0 0
-0.1506 -0.0281 -0.3354 -0.867 -0.420 0.267 80 68 47 0 0
-0.1462 -0.0257 -0.3612 -0.792 -0.343 -0.506 68 56 38 0 0
-0.1454 -0.0254 -0.3630 -0.769 -0.274 -0.577 63 51 32 0 0
-0.1456 -0.0246 -0.3800 -0.745 -0.642 0.179 104 88 63 0 0
-0.1291 -0.0156 -0.4786 -0.956 -0.156 0.247 12 8 7 0 0
-0.1409 -0.0181 -0.4830 -0.836 -0.226 0.500 42 35 29 0 0
-0.1416 -0.0182 -0.4844 -0.836 -0.226 0.500 43 36 29 0 0
-0.1426 -0.0184 -0.4856 -0.881 -0.130 0.455 34 30 23 0 0
-0.1432 -0.0185 -0.4870 -0.903 -0.205 0.378 25 21 17 0 0
-0.1529 -0.0203 -0.4940 -0.821 -0.320 0.472 71 64 56 0 0
-0.1535 -0.0204 -0.4954 -0.867 -0.350 0.354 54 48 43 0 0
-0.1540 -0.0205 -0.4968 -0.867 -0.350 0.354 37 32 27 0 0
-0.1544 -0.0205 -0.4983 -0.875 -0.388 0.290 36 31 26 0 0
-0.1578 -0.0211 -0.5017 -0.560 -0.342 0.755 67 59 51 0 0
-0.1657 -0.0228 -0.5044 -0.851 0.011 0.526 57 49 39 0 0
-0.1671 -0.0231 -0.5053 -0.964 -0.185 0.190 69 60 49 0 0
-0.2188 -0.0340 -0.5270 -0.701 0.578 0.418 17 13 11 0 0
-0.2234 -0.0345 -0.5377 -0.605 0.729 0.320 15 14 12 0 0
-0.2225 -0.0342 -0.5400 -0.527 0.837 0.147 15 14 12 0 0
-0.2244 -0.0345 -0.5422 -0.674 0.721 0.161 18 14 12 0 0
-0.2239 -0.0343 -0.5442 -0.611 0.791 0.038 19 15 14 0 0
-0.1797 -0.0206 -0.6095 -0.952 -0.284 -0.119 11 7 7 0 0
-0.1786 -0.0201 -0.6139 -0.990 -0.128 -0.065 58 51 39 0 0
-0.1766 -0.0188 -0.6301 -0.997 -0.030 0.067 20 15 12 0 0
-0.1754 -0.0184 -0.6329 -0.925 0.225 0.307 11 8 7 0 0
-0.1641 -0.0151 -0.6443 -0.773 -0.168 -0.612 7 6 4 0 0
-0.1536 -0.0122 -0.6535 -0.762 -0.273 -0.587 9 7 6 0 0
-0.1635 -0.0133 -0.6777 -0.932 -0.226 0.283 7 5 6 0 0
-0.1640 -0.0133 -0.6793 -0.932 -0.226 0.283 7 5 5 0 0
-0.1590 -0.0118 -0.6848 -0.756 -0.406 0.513 10 9 7 0 0
-0.1692 -0.0140 -0.6893 -0.701 -0.234 0.673 26 25 22 0 0
-0.1713 -0.0143 -0.6917 -0.730 -0.477 0.489 40 35 32 0 0
-0.1937 -0.0151 -0.7772 -0.785 -0.529 -0.324 53 45 35 0 0
-0.1958 -0.0151 -0.7879 -0.528 0.751 0.397 31 24 17 0 0
-0.2202 -0.0187 -0.8273 -0.846 -0.343 0.408 64 53 35 0 0
-0.2206 -0.0187 -0.8290 -0.856 -0.233 0.462 65 54 36 0 0
-0.2215 -0.0188 -0.8303 -0.810 -0.284 0.513 75 62 43 0 0
-0.2223 -0.0189 -0.8317 -0.810 -0.284 0.513 82 70 48 0 0
-0.2231 -0.0191 -0.8331 -0.765 -0.316 0.562 86 74 49 0 0
-0.2262 -0.0196 -0.8366 -0.764 -0.202 0.613 111 95 64 0 0
-0.2271 -0.0197 -0.8379 -0.696 -0.187 0.693 120 106 73 0 0
-0.2293 -0.0195 -0.8531 -0.779 0.548 0.305 77 70 51 0 0
0.0064 0.0012 -0.1654 -0.661 0.523 0.538 179 177 180 0 0
0.0062 0.0013 -0.1668 -0.659 0.648 0.382 178 176 179 0 0
0.0009 0.0005 -0.1764 -0.622 0.341 0.705 174 161 130 0 0
-0.0771 -0.0146 -0.2353 -0.850 -0.164 0.501 163 149 111 0 0
-0.0777 -0.0147 -0.2366 -0.705 -0.360 0.611 172 153 109 0 0
-0.0827 -0.0154 -0.2456 -0.755 -0.610 0.243 48 36 21 0 0
-0.1090 -0.0203 -0.2698 -0.695 -0.277 0.664 113 98 71 0 0
-0.1100 -0.0205 -0.2710 -0.695 -0.277 0.664 97 84 61 0 0
-0.1106 -0.0205 -0.2723 -0.863 -0.367 0.348 69 61 43 0 0
-0.1111 -0.0206 -0.2736 -0.863 -0.367 0.348 60 52 36 0 0
-0.1137 -0.0209 -0.2788 -0.702 -0.267 0.660 88 78 65 0 0
-0.1164 -0.0215 -0.2795 -0.822 -0.521 0.231 150 137 112 0 0
-0.1220 -0.0225 -0.2867 -0.795 -0.230 0.562 117 101 79 0 0
-0.1243 -0.0227 -0.2920 -0.905 0.028 0.424 81 70 53 0 0
-0.1278 -0.0231 -0.2997 -0.881 0.105 0.462 62 54 47 0 0
-0.1303 -0.0235 -0.3034 -0.848 -0.192 0.493 47 39 28 0 0
-0.1323 -0.0239 -0.3058 -0.870 -0.065 0.488 119 110 100 0 0
-0.1328 -0.0239 -0.3071 -0.915 -0.083 0.396 114 106 94 0 0
-0.1334 -0.0240 -0.3084 -0.915 -0.083 0.396 56 47 33 0 0
-0.1339 -0.0240 -0.3097 -0.915 -0.083 0.396 57 47 35 0 0
-0.1359 -0.0244 -0.3120 -0.776 0.058 0.628 99 89 73 0 0
-0.1396 -0.0252 -0.3138 -0.736 -0.405 0.542 173 163 140 0 0
-0.1404 -0.0253 -0.3151 -0.736 -0.405 0.542 187 175 152 0 0
-0.1421 -0.0252 -0.3249 -0.894 -0.264 0.363 43 35 26 0 0
-0.1460 -0.0259 -0.3281 -0.734 -0.340 0.588 159 146 118 0 0
-0.1508 -0.0267 -0.3339 -0.867 -0.420 0.267 72 60 38 0 0
-0.1476 -0.0246 -0.3607 -0.926 -0.219 -0.307 66 54 35 0 0
-0.1420 -0.0168 -0.4843 -0.788 -0.128 0.602 37 31 26 0 0
-0.1429 -0.0169 -0.4855 -0.849 -0.138 0.510 34 29 22 0 0
-0.1431 -0.0169 -0.4871 -0.850 0.005 0.527 30 26 21 0 0
-0.1514 -0.0186 -0.4915 -0.705 -0.158 0.692 80 73 65 0 0
-0.1540 -0.0190 -0.4952 -0.867 -0.350 0.354 34 29 24 0 0
-0.1546 -0.0190 -0.4967 -0.867 -0.350 0.354 28 23 19 0 0
-0.1553 -0.0191 -0.4980 -0.827 -0.413 0.380 25 19 16 0 0
-0.1547 -0.0108 -0.6529 -0.776 -0.138 -0.615 10 8 6 0 0
-0.1590 -0.0104 -0.6811 -0.578 -0.803 0.145 7 5 5 0 0
-0.1613 -0.0109 -0.6814 -0.790 -0.418 0.448 7 6 5 0 0
-0.1713 -0.0127 -0.6918 -0.729 -0.168 0.663 35 31 28 0 0
-0.2051 -0.0208 -0.6878 -0.294 0.300 0.907 78 66 52 0 0
-0.2158 -0.0202 -0.7463 -0.858 0.439 0.267 90 79 61 0 0
-0.1919 -0.0129 -0.7790 -0.654 -0.551 0.518 52 45 35 0 0
-0.1924 -0.0126 -0.7869 -0.399 0.365 0.841 32 23 16 0 0
-0.2226 -0.0174 -0.8296 -0.839 -0.455 0.300 76 64 43 0 0
-0.2231 -0.0175 -0.8312 -0.839 -0.455 0.300 79 67 43 0 0
-0.2237 -0.0175 -0.8328 -0.839 -0.455 0.300 85 73 48 0 0
-0.2244 -0.0176 -0.8342 -0.683 -0.312 0.660 93 81 54 0 0
-0.2258 -0.0179 -0.8351 -0.724 -0.379 0.576 103 89 59 0 0
-0.2261 -0.0179 -0.8369 -0.985 -0.080 0.154 112 97 65 0 0
-0.2266 -0.0179 -0.8386 -0.975 0.070 0.212 120 106 72 0 0
0.0024 0.0021 -0.1707 -0.786 -0.322 0.528 178 176 179 0 0
-0.0055 0.0009 -0.1827 -0.800 0.495 0.338 134 118 87 0 0
-0.0748 -0.0127 -0.2343 -0.928 -0.151 0.341 110 100 81 0 0
-0.0774 -0.0132 -0.2352 -0.798 -0.295 0.526 173 159 130 0 0
-0.0932 -0.0162 -0.2505 -0.779 -0.190 0.598 215 194 158 0 0
-0.0980 -0.0170 -0.2551 -0.767 -0.268 0.583 178 158 128 0 0
-0.0985 -0.0171 -0.2565 -0.898 -0.240 0.369 155 139 109 0 0
-0.1038 -0.0179 -0.2639 -0.694 -0.422 0.584 107 94 83 0 0
-0.1194 -0.0206 -0.2831 -0.688 -0.458 0.563 142 127 98 0 0
-0.1223 -0.0211 -0.2852 -0.846 0.074 0.528 93 82 65 0 0
-0.1243 -0.0212 -0.2920 -0.888 -0.114 0.445 46 36 26 0 0
-0.1280 -0.0217 -0.2997 -0.845 0.103 0.524 64 56 48 0 0
-0.1330 -0.0225 -0.3071 -0.924 -0.048 0.380 68 59 49 0 0
-0.1335 -0.0226 -0.3084 -0.924 -0.048 0.380 63 54 44 0 0
-0.1341 -0.0226 -0.3097 -0.915 -0.083 0.396 46 36 26 0 0
-0.1430 -0.0239 -0.3247 -0.832 -0.323 0.451 66 58 47 0 0
-0.1456 -0.0245 -0.3253 -0.597 -0.295 0.746 79 72 56 0 0
-0.1470 -0.0247 -0.3278 -0.841 -0.285 0.460 134 120 91 0 0
-0.1475 -0.0247 -0.3291 -0.920 -0.318 0.230 168 154 121 0 0
-0.1514 -0.0254 -0.3338 -0.867 -0.420 0.267 73 63 45 0 0
-0.1517 -0.0254 -0.3352 -0.804 -0.490 0.336 58 48 35 0 0
-0.1528 -0.0254 -0.3393 -0.956 -0.240 0.168 81 71 56 0 0
-0.1530 -0.0254 -0.3407 -0.920 -0.342 0.193 78 67 52 0 0
-0.1473 -0.0221 -0.3779 -0.856 -0.495 0.146 76 62 36 0 0
-0.1499 -0.0221 -0.3893 -0.901 -0.425 0.084 93 79 52 0 0
-0.1544 -0.0228 -0.3953 -0.824 0.055 0.564 87 73 47 0 0
-0.1372 -0.0151 -0.4647 -0.897 -0.233 -0.376 22 18 15 0 0
-0.1364 -0.0148 -0.4668 -0.897 -0.233 -0.376 20 16 13 0 0
-0.1437 -0.0154 -0.4870 -0.818 0.011 0.575 32 27 22 0 0
-0.1540 -0.0175 -0.4936 -0.773 -0.357 0.524 24 20 11 0 0
-0.1553 -0.0176 -0.4964 -0.827 -0.413 0.380 41 36 29 0 0
-0.1576 -0.0179 -0.5020 -0.876 -0.281 0.392 48 39 35 0 0
-0.1702 -0.0202 -0.5141 -0.821 -0.479 0.312 33 26 23 0 0
-0.1701 -0.0201 -0.5159 -0.766 -0.344 0.543 15 12 10 0 0
-0.1710 -0.0197 -0.5275 -0.886 -0.076 0.458 20 14 14 0 0
-0.1845 -0.0191 -0.5993 -0.971 -0.236 -0.037 30 25 20 0 0
-0.1708 -0.0138 -0.6381 -0.750 -0.362 -0.553 13 9 8 0 0
-0.1607 -0.0091 -0.6800 -0.711 -0.678 0.184 7 6 4 0 0
-0.1996 -0.0177 -0.6922 -0.083 0.696 0.714 61 51 41 0 0
-0.2033 -0.0186 -0.6914 -0.069 0.691 0.719 70 59 45 0 0
-0.2224 -0.0211 -0.7291 -0.979 0.077 0.188 122 105 73 0 0
-0.1936 -0.0113 -0.7861 -0.248 0.477 0.844 24 16 12 0 0
-0.2075 -0.0142 -0.7928 -0.840 -0.185 0.511 38 30 19 0 0
-0.2193 -0.0157 -0.8158 -0.926 -0.215 0.310 110 94 60 0 0
-0.2223 -0.0157 -0.8300 -0.827 -0.062 0.559 76 64 42 0 0
-0.2236 -0.0159 -0.8310 -0.899 -0.206 0.387 83 71 48 0 0
-0.2243 -0.0160 -0.8325 -0.899 -0.206 0.387 82 70 46 0 0
-0.2249 -0.0160 -0.8341 -0.960 -0.190 0.206 89 76 50 0 0
-0.2254 -0.0161 -0.8357 -0.981 0.034 0.190 106 93 61 0 0
-0.2272 -0.0157 -0.8513 -0.870 0.473 0.139 98 86 64 0 0
-0.2271 -0.0155 -0.8535 -0.842 0.466 0.273 82 72 56 0 0
-0.2277 -0.0156 -0.8552 -0.858 0.454 0.240 57 51 37 0 0
0.0023 0.0037 -0.1721 -0.957 0.038 0.289 177 177 179 0 0
0.0021 0.0038 -0.1736 -0.826 -0.098 0.555 176 176 177 0 0
-0.0789 -0.0120 -0.2363 -0.693 -0.440 0.571 218 206 166 0 0
-0.0838 -0.0129 -0.2425 -0.569 -0.420 0.707 101 88 59 0 0
-0.0953 -0.0152 -0.2500 -0.781 -0.184 0.597 190 174 148 0 0
-0.0962 -0.0153 -0.2512 -0.781 -0.184 0.597 185 170 137 0 0
-0.0983 -0.0157 -0.2536 -0.681 -0.284 0.675 176 158 122 0 0
-0.0994 -0.0159 -0.2548 -0.681 -0.284 0.675 159 140 106 0 0
-0.1040 -0.0165 -0.2639 -0.711 -0.371 0.598 102 89 80 0 0
-0.1179 -0.0189 -0.2806 -0.676 -0.100 0.730 169 154 127 0 0
-0.1204 -0.0194 -0.2829 -0.793 -0.284 0.539 123 110 90 0 0
-0.1212 -0.0195 -0.2841 -0.868 -0.056 0.494 87 76 61 0 0
-0.1275 -0.0203 -0.2970 -0.888 -0.380 0.258 92 83 63 0 0
-0.1287 -0.0205 -0.2981 -0.867 -0.219 0.448 78 68 53 0 0
-0.1287 -0.0204 -0.2996 -0.842 -0.151 0.518 90 81 68 0 0
-0.1303 -0.0207 -0.3020 -0.861 -0.202 0.468 75 68 56 0 0
-0.1330 -0.0210 -0.3071 -0.878 -0.125 0.463 32 25 18 0 0
-0.1337 -0.0211 -0.3084 -0.827 -0.225 0.514 41 33 26 0 0
-0.1345 -0.0212 -0.3096 -0.827 -0.225 0.514 63 55 45 0 0
-0.1414 -0.0226 -0.3148 -0.750 -0.505 0.428 88 78 60 0 0
-0.1499 -0.0239 -0.3283 -0.878 -0.205 0.433 194 180 143 0 0
-0.1506 -0.0240 -0.3296 -0.908 -0.227 0.352 184 168 132 0 0
-0.1524 -0.0241 -0.3350 -0.804 -0.490 0.336 73 65 48 0 0
-0.1529 -0.0241 -0.3378 -0.822 -0.452 0.347 61 49 33 0 0
-0.1534 -0.0241 -0.3391 -0.822 -0.452 0.347 62 51 35 0 0
-0.1494 -0.0212 -0.3756 -0.725 -0.645 0.242 74 59 35 0 0
-0.1536 -0.0212 -0.3942 -0.892 -0.044 0.450 72 58 32 0 0
-0.1543 -0.0213 -0.3954 -0.840 0.014 0.542 72 58 33 0 0
-0.1551 -0.0214 -0.3967 -0.840 0.014 0.542 76 61 38 0 0
-0.1546 -0.0205 -0.4127 -0.885 -0.406 0.227 86 71 47 0 0
-0.1551 -0.0200 -0.4237 -0.795 -0.516 0.318 72 57 34 0 0
-0.1559 -0.0201 -0.4249 -0.642 -0.477 0.601 73 58 35 0 0
-0.1568 -0.0202 -0.4262 -0.795 -0.279 0.539 81 66 43 0 0
-0.1578 -0.0204 -0.4273 -0.741 -0.040 0.670 87 72 49 0 0
-0.1382 -0.0130 -0.4795 -0.801 -0.208 0.561 13 9 8 0 0
-0.1546 -0.0161 -0.4934 -0.773 -0.357 0.524 52 44 33 0 0
-0.1557 -0.0162 -0.4963 -0.853 -0.356 0.383 79 72 61 0 0
-0.1574 -0.0163 -0.5022 -0.941 -0.265 0.209 34 26 23 0 0
-0.1707 -0.0188 -0.5140 -0.897 -0.440 0.034 31 24 19 0 0
-0.1847 -0.0176 -0.5975 -0.890 -0.454 -0.027 37 30 24 0 0
-0.1847 -0.0175 -0.5993 -0.890 -0.454 -0.027 31 25 21 0 0
-0.1820 -0.0167 -0.6029 -0.606 -0.725 0.327 16 12 9 0 0
-0.1831 -0.0167 -0.6077 -0.827 -0.550 -0.117 10 6 5 0 0
-0.1763 -0.0137 -0.6327 -0.915 -0.367 -0.168 27 22 18 0 0
-0.1615 -0.0077 -0.6796 -0.699 -0.663 0.266 7 6 4 0 0
-0.1770 -0.0104 -0.6978 -0.891 -0.155 0.426 56 47 42 0 0
-0.1778 -0.0105 -0.6992 -0.612 0.388 0.689 56 48 40 0 0
-0.1971 -0.0153 -0.6944 -0.123 0.731 0.672 59 49 40 0 0
-0.2002 -0.0161 -0.6939 -0.060 0.729 0.682 57 46 39 0 0
-0.2073 -0.0126 -0.7890 -0.790 -0.541 0.288 26 20 14 0 0
-0.2188 -0.0141 -0.8123 -0.800 0.489 0.349 94 79 47 0 0
-0.2197 -0.0141 -0.8157 -0.931 0.087 0.355 99 83 49 0 0
-0.2198 -0.0140 -0.8177 -0.969 -0.178 0.172 108 93 59 0 0
-0.2203 -0.0138 -0.8237 -0.969 -0.226 0.096 83 72 48 0 0
-0.2204 -0.0134 -0.8321 -0.653 0.498 0.570 71 59 39 0 0
-0.2246 -0.0142 -0.8367 -0.921 0.239 0.308 109 96 64 0 0
-0.2258 -0.0144 -0.8377 -0.985 0.060 0.164 122 109 74 0 0
-0.2262 -0.0144 -0.8395 -0.934 0.271 0.232 125 111 76 0 0
-0.2258 -0.0137 -0.8507 -0.846 0.404 0.348 103 90 61 0 0
-0.2259 -0.0136 -0.8528 -0.873 0.374 0.312 94 82 62 0 0
-0.2260 -0.0135 -0.8549 -0.793 0.244 0.558 73 62 49 0 0
-0.2269 -0.0137 -0.8561 -0.793 0.244 0.558 57 50 35 0 0
-0.2278 -0.0138 -0.8575 -0.670 0.283 0.686 66 60 47 0 0
-0.2263 -0.0128 -0.8699 -0.468 0.193 0.862 154 153 153 0 0
0.0049 0.0059 -0.1710 -0.747 0.431 0.506 178 178 179 0 0
0.0065 0.0063 -0.1727 -0.571 -0.208 0.795 178 178 180 0 0
0.0068 0.0065 -0.1742 -0.834 0.044 0.549 178 176 181 0 0
-0.0761 -0.0099 -0.2355 -0.972 -0.060 0.227 152 143 120 0 0
-0.0796 -0.0107 -0.2362 -0.693 -0.440 0.571 218 205 173 0 0
-0.0846 -0.0116 -0.2423 -0.569 -0.420 0.707 92 77 46 0 0
-0.1134 -0.0169 -0.2702 -0.797 -0.462 0.389 57 42 25 0 0
-0.1208 -0.0180 -0.2828 -0.793 -0.284 0.539 73 63 50 0 0
-0.1213 -0.0180 -0.2841 -0.868 -0.056 0.494 67 57 48 0 0
-0.1221 -0.0181 -0.2853 -0.846 0.074 0.528 79 71 60 0 0
-0.1332 -0.0196 -0.3071 -0.878 -0.125 0.463 24 16 14 0 0
-0.1340 -0.0197 -0.3083 -0.791 -0.189 0.581 36 29 24 0 0
-0.1347 -0.0198 -0.3096 -0.745 -0.193 0.639 80 72 63 0 0
-0.1372 -0.0203 -0.3118 -0.561 -0.031 0.828 116 104 91 0 0
-0.1452 -0.0215 -0.3240 -0.749 -0.305 0.588 92 80 67 0 0
-0.1512 -0.0227 -0.3295 -0.958 0.026 0.287 201 184 145 0 0
-0.1517 -0.0227 -0.3308 -0.777 -0.429 0.461 162 146 115 0 0
-0.1534 -0.0228 -0.3376 -0.853 -0.400 0.336 47 36 27 0 0
-0.1540 -0.0228 -0.3389 -0.822 -0.452 0.347 43 33 24 0 0
-0.1545 -0.0229 -0.3402 -0.857 -0.448 0.254 47 36 28 0 0
-0.1538 -0.0197 -0.3957 -0.946 -0.056 0.318 96 81 55 0 0
-0.1544 -0.0197 -0.3971 -0.909 -0.044 0.414 105 89 65 0 0
-0.1550 -0.0198 -0.3984 -0.909 -0.044 0.414 110 95 73 0 0
-0.1552 -0.0191 -0.4125 -0.885 -0.406 0.227 77 62 37 0 0
-0.1552 -0.0189 -0.4157 -0.753 -0.585 0.301 77 62 39 0 0
-0.1565 -0.0191 -0.4184 -0.657 -0.624 0.423 87 72 49 0 0
-0.1585 -0.0191 -0.4271 -0.747 -0.556 0.366 83 68 45 0 0
-0.1545 -0.0168 -0.4517 -0.991 -0.070 0.111 17 14 9 0 0
-0.1547 -0.0167 -0.4533 -0.991 -0.070 0.111 26 23 19 0 0
-0.1387 -0.0115 -0.4794 -0.700 -0.162 0.695 13 9 8 0 0
-0.1548 -0.0146 -0.4934 -0.859 0.027 0.511 80 70 58 0 0
-0.1567 -0.0149 -0.4958 -0.910 -0.159 0.384 100 91 81 0 0
-0.1583 -0.0149 -0.5036 -0.743 -0.332 0.582 36 31 27 0 0
-0.1716 -0.0171 -0.5204 -0.681 -0.453 0.575 8 7 5 0 0
-0.1694 -0.0157 -0.5356 -0.683 -0.588 -0.434 54 50 48 0 0
-0.1846 -0.0157 -0.6031 -0.936 -0.318 -0.150 9 5 4 0 0
-0.1844 -0.0155 -0.6051 -0.936 -0.318 -0.150 9 5 4 0 0
-0.1841 -0.0153 -0.6072 -0.934 -0.100 -0.343 9 5 4 0 0
-0.1797 -0.0133 -0.6249 -0.997 -0.069 -0.036 58 49 42 0 0
-0.1769 -0.0123 -0.6324 -0.929 -0.310 -0.201 31 24 20 0 0
-0.1624 -0.0063 -0.6791 -0.915 -0.307 0.260 8 7 5 0 0
-0.1779 -0.0088 -0.6993 -0.889 -0.395 0.231 79 70 62 0 0
-0.2130 -0.0144 -0.7513 -0.911 0.412 -0.003 78 69 52 0 0
-0.1939 -0.0079 -0.7863 -0.643 -0.085 0.761 16 11 7 0 0
-0.1959 -0.0084 -0.7867 -0.755 0.095 0.649 15 10 6 0 0
-0.1970 -0.0086 -0.7878 -0.651 0.038 0.758 16 11 7 0 0
-0.2096 -0.0112 -0.7935 -0.851 -0.392 0.351 34 26 19 0 0
-0.2181 -0.0122 -0.8132 -0.537 -0.054 0.842 93 78 47 0 0
-0.2195 -0.0125 -0.8140 -0.557 -0.180 0.811 106 87 53 0 0
-0.2208 -0.0128 -0.8149 -0.866 -0.039 0.499 100 85 50 0 0
-0.2203 -0.0125 -0.8175 -0.986 0.159 0.050 104 90 56 0 0
-0.2255 -0.0127 -0.8361 -0.997 0.070 0.032 114 101 69 0 0
-0.2258 -0.0127 -0.8380 -0.994 0.108 -0.029 126 113 78 0 0
-0.2253 -0.0118 -0.8515 -0.817 0.449 0.362 96 84 61 0 0
-0.2251 -0.0117 -0.8538 -0.875 0.275 0.397 83 71 55 0 0
-0.2258 -0.0117 -0.8553 -0.770 0.068 0.634 61 50 37 0 0
-0.2268 -0.0119 -0.8565 -0.770 0.068 0.634 59 51 37 0 0
-0.2263 -0.0110 -0.8702 -0.468 0.193 0.862 157 157 157 0 0
-0.0002 0.0069 -0.1835 -0.927 -0.030 0.374 179 172 165 0 0
-0.0788 -0.0090 -0.2364 -0.912 0.192 0.362 173 161 135 0 0
-0.0813 -0.0095 -0.2373 -0.861 -0.329 0.388 210 194 162 0 0
-0.0821 -0.0097 -0.2386 -0.675 -0.406 0.616 222 206 172 0 0
-0.0844 -0.0101 -0.2409 -0.597 -0.336 0.728 161 143 108 0 0
-0.1009 -0.0132 -0.2559 -0.835 0.118 0.537 78 70 61 0 0
-0.1168 -0.0157 -0.2795 -0.767 -0.233 0.598 157 143 121 0 0
-0.1213 -0.0166 -0.2827 -0.793 -0.284 0.539 68 58 47 0 0
-0.1213 -0.0166 -0.2841 -0.918 -0.037 0.396 89 78 67 0 0
-0.1221 -0.0167 -0.2854 -0.836 -0.051 0.546 106 96 82 0 0
-0.1233 -0.0169 -0.2865 -0.776 -0.236 0.585 114 103 80 0 0
-0.1242 -0.0170 -0.2877 -0.776 -0.236 0.585 148 135 107 0 0
-0.1324 -0.0180 -0.3059 -0.838 -0.025 0.545 16 12 8 0 0
-0.1328 -0.0180 -0.3072 -0.939 0.043 0.341 17 11 10 0 0
-0.1427 -0.0199 -0.3160 -0.891 -0.362 0.275 105 96 81 0 0
-0.1528 -0.0215 -0.3319 -0.907 -0.365 0.209 64 54 36 0 0
-0.1534 -0.0215 -0.3332 -0.905 -0.268 0.331 50 40 29 0 0
-0.1540 -0.0216 -0.3345 -0.883 -0.244 0.401 37 27 19 0 0
-0.1546 -0.0217 -0.3358 -0.789 -0.289 0.542 32 23 17 0 0
-0.1554 -0.0218 -0.3370 -0.789 -0.289 0.542 34 26 20 0 0
-0.1547 -0.0215 -0.3387 -0.822 -0.452 0.347 36 26 20 0 0
-0.1552 -0.0216 -0.3401 -0.822 -0.452 0.347 43 35 27 0 0
-0.1555 -0.0216 -0.3415 -0.807 -0.452 0.380 38 30 22 0 0
-0.1561 -0.0212 -0.3502 -0.873 -0.477 0.100 64 49 37 0 0
-0.1519 -0.0190 -0.3732 -0.781 -0.572 0.252 89 76 53 0 0
-0.1523 -0.0190 -0.3745 -0.781 -0.572 0.252 74 60 42 0 0
-0.1531 -0.0190 -0.3774 -0.832 -0.508 0.221 70 55 37 0 0
-0.1510 -0.0184 -0.3797 -0.847 -0.271 0.457 65 49 32 0 0
-0.1529 -0.0187 -0.3821 -0.872 -0.159 0.464 63 49 29 0 0
-0.1532 -0.0181 -0.3944 -0.985 -0.002 0.172 92 78 55 0 0
-0.1535 -0.0181 -0.3959 -0.985 -0.002 0.172 93 79 54 0 0
-0.1544 -0.0183 -0.3971 -0.909 -0.044 0.414 98 83 59 0 0
-0.1541 -0.0181 -0.3988 -0.933 -0.226 0.279 94 79 56 0 0
-0.1553 -0.0183 -0.3999 -0.896 -0.395 0.203 88 74 49 0 0
-0.1552 -0.0176 -0.4126 -0.763 -0.590 0.265 72 57 33 0 0
-0.1545 -0.0152 -0.4518 -0.798 -0.595 -0.091 16 15 9 0 0
-0.1570 -0.0134 -0.4958 -0.910 -0.159 0.384 60 53 44 0 0
-0.1586 -0.0134 -0.5035 -0.786 -0.380 0.488 60 55 53 0 0
-0.1601 -0.0137 -0.5044 -0.588 -0.217 0.779 67 60 57 0 0
-0.1713 -0.0158 -0.5155 -0.849 -0.284 0.446 33 30 25 0 0
-0.1706 -0.0155 -0.5176 -0.551 -0.195 0.811 18 17 14 0 0
-0.1719 -0.0157 -0.5187 -0.528 -0.336 0.780 7 6 4 0 0
-0.1698 -0.0146 -0.5302 -0.998 0.043 0.035 51 46 42 0 0
-0.1700 -0.0145 -0.5318 -0.975 -0.220 -0.005 57 52 48 0 0
-0.1858 -0.0144 -0.6025 -0.925 0.380 0.014 10 6 5 0 0
-0.1786 -0.0111 -0.6314 -0.938 -0.332 -0.102 32 24 20 0 0
-0.1725 -0.0092 -0.6393 -0.684 -0.451 -0.574 12 8 7 0 0
-0.2108 -0.0121 -0.7534 -0.897 0.385 -0.216 75 66 48 0 0
-0.2101 -0.0097 -0.7932 -0.896 -0.403 0.185 30 22 17 0 0
-0.2201 -0.0110 -0.8137 -0.659 -0.052 0.751 108 93 55 0 0
-0.2242 -0.0099 -0.8506 -0.935 0.259 0.244 101 89 62 0 0
-0.2258 -0.0100 -0.8556 -0.836 0.098 0.541 52 43 34 0 0
-0.2267 -0.0102 -0.8569 -0.891 0.229 0.392 63 55 45 0 0
-0.2251 -0.0091 -0.8695 -0.629 0.234 0.741 153 151 152 0 0
0.0038 0.0092 -0.1797 -0.920 0.138 0.367 177 177 179 0 0
0.0032 0.0092 -0.1811 -0.969 -0.053 0.242 177 177 179 0 0
-0.0031 0.0088 -0.2024 -0.796 -0.545 -0.264 149 142 126 0 0
-0.0028 0.0090 -0.2040 -0.769 -0.608 -0.195 135 124 104 0 0
-0.0105 0.0093 -0.2436 -0.587 0.797 0.144 73 62 45 0 0
-0.0657 -0.0043 -0.2378 -0.032 0.467 0.884 99 92 72 0 0
-0.1008 -0.0117 -0.2560 -0.842 0.236 0.484 68 60 50 0 0
-0.1172 -0.0144 -0.2794 -0.767 -0.233 0.598 166 155 132 0 0
-0.1215 -0.0151 -0.2841 -0.822 -0.156 0.548 112 98 75 0 0
-0.1346 -0.0173 -0.3023 -0.655 -0.459 0.600 35 29 21 0 0
-0.1324 -0.0165 -0.3059 -0.945 -0.013 0.326 13 8 5 0 0
-0.1332 -0.0167 -0.3071 -0.764 0.006 0.645 14 9 7 0 0
-0.1338 -0.0167 -0.3084 -0.838 -0.049 0.543 28 21 15 0 0
-0.1432 -0.0186 -0.3159 -0.891 -0.362 0.275 80 71 57 0 0
-0.1549 -0.0203 -0.3357 -0.770 -0.371 0.520 47 39 28 0 0
-0.1558 -0.0205 -0.3369 -0.789 -0.289 0.542 58 49 38 0 0
-0.1558 -0.0203 -0.3399 -0.822 -0.452 0.347 47 39 26 0 0
-0.1568 -0.0200 -0.3500 -0.873 -0.477 0.100 63 48 34 0 0
-0.1505 -0.0174 -0.3691 -0.807 -0.291 0.514 65 52 34 0 0
-0.1513 -0.0175 -0.3704 -0.767 -0.341 0.543 84 69 51 0 0
-0.1520 -0.0176 -0.3716 -0.896 -0.284 0.341 67 53 32 0 0
-0.1525 -0.0175 -0.3746 -0.932 -0.313 0.185 65 51 33 0 0
-0.1530 -0.0175 -0.3774 -0.963 -0.247 0.112 55 41 24 0 0
-0.1537 -0.0176 -0.3787 -0.912 -0.394 0.113 78 63 46 0 0
-0.1534 -0.0173 -0.3819 -0.920 -0.097 0.379 64 50 32 0 0
-0.1539 -0.0174 -0.3833 -0.920 -0.097 0.379 59 46 27 0 0
-0.1562 -0.0176 -0.3886 -0.849 -0.452 0.273 97 84 65 0 0
-0.1568 -0.0176 -0.3915 -0.763 -0.497 0.414 110 95 71 0 0
-0.1544 -0.0169 -0.3940 -0.772 -0.619 0.142 91 76 52 0 0
-0.1545 -0.0168 -0.3956 -0.769 -0.575 0.280 78 64 37 0 0
-0.1547 -0.0168 -0.3970 -0.915 -0.093 0.393 88 74 48 0 0
-0.1558 -0.0170 -0.3982 -0.758 -0.546 0.355 92 78 52 0 0
-0.1562 -0.0164 -0.4107 -0.752 -0.624 0.213 77 62 39 0 0
-0.1591 -0.0165 -0.4206 -0.906 -0.416 -0.085 76 64 39 0 0
-0.1717 -0.0143 -0.5154 -0.849 -0.284 0.446 34 30 23 0 0
-0.1704 -0.0132 -0.5300 -0.925 -0.305 0.227 60 55 51 0 0
-0.1710 -0.0132 -0.5314 -0.666 -0.694 0.273 61 56 52 0 0
-0.1850 -0.0131 -0.5941 -0.953 -0.062 0.296 45 38 31 0 0
-0.1744 -0.0081 -0.6382 -0.720 -0.435 -0.542 14 10 8 0 0
-0.1522 -0.0014 -0.6612 -0.911 -0.408 -0.058 12 11 9 0 0
-0.1503 -0.0005 -0.6704 -0.748 -0.662 -0.044 5 5 5 0 0
-0.1626 -0.0026 -0.6852 -0.745 -0.096 0.661 10 9 7 0 0
-0.2098 -0.0101 -0.7544 -0.906 0.360 -0.221 71 62 45 0 0
-0.2196 -0.0091 -0.8143 -0.823 -0.201 0.532 111 95 58 0 0
-0.2226 -0.0080 -0.8481 -0.799 0.294 0.525 124 109 78 0 0
-0.2253 -0.0082 -0.8563 -0.940 0.256 0.225 55 48 37 0 0
-0.2218 -0.0066 -0.8685 -0.522 0.172 0.836 138 134 134 0 0
-0.2249 -0.0073 -0.8699 -0.629 0.234 0.741 156 154 155 0 0
0.0012 0.0103 -0.1823 -0.630 0.011 0.776 177 177 179 0 0
-0.0037 0.0094 -0.1874 -0.965 0.157 0.209 177 177 177 0 0
-0.0039 0.0095 -0.1889 -0.966 0.200 0.164 177 176 177 0 0
-0.0042 0.0095 -0.1903 -0.945 0.274 0.181 177 175 178 0 0
-0.0055 0.0094 -0.1945 -0.918 -0.395 -0.019 177 177 177 0 0
-0.0052 0.0096 -0.1961 -0.980 -0.187 -0.070 176 176 176 0 0
-0.0057 0.0095 -0.1975 -0.788 -0.594 -0.164 176 175 176 0 0
-0.0825 -0.0065 -0.2429 -0.925 0.354 0.141 40 32 19 0 0
-0.1145 -0.0128 -0.2700 -0.835 0.019 0.549 72 54 34 0 0
-0.1295 -0.0151 -0.2935 -0.857 -0.291 0.425 129 114 87 0 0
-0.1301 -0.0151 -0.2948 -0.858 -0.337 0.389 149 136 110 0 0
-0.1307 -0.0152 -0.2961 -0.858 -0.337 0.389 93 81 58 0 0
-0.1316 -0.0153 -0.2974 -0.918 -0.137 0.372 127 116 95 0 0
-0.1437 -0.0172 -0.3157 -0.947 -0.122 0.296 41 32 20 0 0
-0.1441 -0.0173 -0.3171 -0.947 -0.122 0.296 37 28 19 0 0
-0.1434 -0.0169 -0.3203 -0.897 -0.181 0.404 21 13 8 0 0
-0.1440 -0.0170 -0.3216 -0.864 -0.325 0.385 57 47 40 0 0
-0.1551 -0.0190 -0.3342 -0.825 -0.492 0.279 84 75 56 0 0
-0.1585 -0.0191 -0.3465 -0.744 -0.555 0.372 52 39 23 0 0
-0.1571 -0.0185 -0.3500 -0.986 -0.123 0.108 64 51 35 0 0
-0.1501 -0.0159 -0.3663 -0.847 -0.294 0.442 44 30 18 0 0
-0.1507 -0.0160 -0.3676 -0.847 -0.294 0.442 43 29 15 0 0
-0.1529 -0.0162 -0.3744 -0.932 -0.313 0.185 50 38 21 0 0
-0.1532 -0.0161 -0.3759 -0.963 -0.247 0.112 48 35 19 0 0
-0.1533 -0.0161 -0.3774 -0.963 -0.247 0.112 49 37 21 0 0
-0.1525 -0.0157 -0.3808 -0.806 -0.397 0.439 48 36 20 0 0
-0.1533 -0.0158 -0.3820 -0.838 -0.115 0.533 54 41 24 0 0
-0.1541 -0.0159 -0.3833 -0.838 -0.115 0.533 63 50 33 0 0
-0.1539 -0.0158 -0.3849 -0.688 -0.448 0.571 68 55 37 0 0
-0.1588 -0.0164 -0.3954 -0.777 -0.427 0.462 94 80 53 0 0
-0.1570 -0.0157 -0.3993 -0.839 -0.407 0.361 88 74 49 0 0
-0.1569 -0.0154 -0.4057 -0.923 -0.375 -0.082 83 68 45 0 0
-0.1570 -0.0153 -0.4072 -0.752 -0.658 -0.030 70 55 32 0 0
-0.1562 -0.0150 -0.4091 -0.626 -0.718 0.303 75 60 37 0 0
-0.1605 -0.0153 -0.4216 -0.941 -0.075 0.331 100 85 60 0 0
-0.1488 -0.0103 -0.4613 -0.558 -0.501 -0.662 23 17 14 0 0
-0.1528 -0.0095 -0.4913 -0.663 -0.044 0.748 23 19 17 0 0
-0.1567 -0.0102 -0.4961 -0.818 0.191 0.543 38 34 28 0 0
-0.1592 -0.0105 -0.5017 -0.940 -0.234 0.250 36 30 25 0 0
-0.1596 -0.0105 -0.5032 -0.940 -0.234 0.250 40 33 29 0 0
-0.1601 -0.0105 -0.5046 -0.917 -0.193 0.350 41 33 30 0 0
-0.1616 -0.0109 -0.5055 -0.919 -0.032 0.393 35 27 24 0 0
-0.1729 -0.0130 -0.5166 -0.854 -0.277 0.440 38 33 26 0 0
-0.1746 -0.0132 -0.5191 -0.846 -0.350 0.402 45 41 33 0 0
-0.1707 -0.0117 -0.5299 -0.879 -0.298 0.372 57 52 48 0 0
-0.1713 -0.0117 -0.5314 -0.689 -0.305 0.657 57 52 48 0 0
-0.1648 -0.0089 -0.5544 -0.911 -0.171 -0.376 17 16 12 0 0
-0.1846 -0.0115 -0.5927 -0.885 0.141 0.443 43 36 33 0 0
-0.1851 -0.0115 -0.5941 -0.953 -0.062 0.296 40 33 30 0 0
-0.1861 -0.0117 -0.5953 -0.989 -0.077 0.128 34 28 24 0 0
-0.1798 -0.0083 -0.6290 -0.980 -0.097 0.173 68 60 49 0 0
-0.1812 -0.0086 -0.6299 -0.814 -0.009 0.581 44 37 27 0 0
-0.1533 -0.0001 -0.6606 -0.805 -0.593 -0.026 13 12 10 0 0
-0.1647 -0.0014 -0.6859 -0.816 -0.492 0.304 9 8 6 0 0
-0.1700 -0.0028 -0.6839 -0.987 -0.084 -0.134 10 9 7 0 0
-0.2223 -0.0064 -0.8442 -0.925 0.356 0.134 121 107 73 0 0
-0.2200 -0.0056 -0.8487 -0.574 -0.188 0.797 124 110 77 0 0
-0.2206 -0.0057 -0.8503 -0.784 0.156 0.601 116 103 74 0 0
-0.2232 -0.0063 -0.8499 -0.967 -0.065 0.246 105 95 67 0 0
-0.2239 -0.0062 -0.8557 -0.821 0.274 0.501 54 48 35 0 0
-0.2249 -0.0063 -0.8570 -0.753 0.374 0.542 61 56 44 0 0
-0.0029 0.0115 -0.1920 -0.867 0.489 0.096 178 177 180 0 0
0.0039 0.0136 -0.2006 -0.535 0.844 -0.029 179 176 177 0 0
0.0019 0.0135 -0.2078 -0.535 0.813 0.231 178 164 138 0 0
0.0010 0.0134 -0.2092 -0.514 0.769 0.380 180 163 133 0 0
-0.0002 0.0132 -0.2105 -0.533 0.774 0.343 177 160 130 0 0
-0.0075 0.0133 -0.2443 -0.781 0.616 -0.098 61 48 38 0 0
-0.0828 -0.0054 -0.2370 -0.986 0.167 0.015 130 118 96 0 0
-0.1145 -0.0113 -0.2700 -0.807 0.023 0.590 62 44 27 0 0
-0.1165 -0.0113 -0.2782 -0.905 0.107 0.413 97 89 74 0 0
-0.1282 -0.0135 -0.2896 -0.854 -0.443 0.274 90 76 55 0 0
-0.1298 -0.0137 -0.2935 -0.713 -0.195 0.673 148 134 103 0 0
-0.1303 -0.0137 -0.2948 -0.776 -0.271 0.569 124 113 84 0 0
-0.1410 -0.0152 -0.3137 -0.615 -0.135 0.777 94 85 72 0 0
-0.1430 -0.0156 -0.3160 -0.955 0.127 0.268 42 33 22 0 0
-0.1458 -0.0160 -0.3210 -0.749 -0.239 0.617 100 89 80 0 0
-0.1572 -0.0171 -0.3500 -0.986 -0.123 0.108 69 56 41 0 0
-0.1512 -0.0146 -0.3675 -0.847 -0.294 0.442 73 60 43 0 0
-0.1518 -0.0147 -0.3688 -0.847 -0.294 0.442 62 48 31 0 0
-0.1599 -0.0152 -0.3951 -0.846 -0.195 0.496 90 76 49 0 0
-0.1617 -0.0153 -0.4006 -0.972 -0.021 0.236 81 67 44 0 0
-0.1643 -0.0140 -0.4345 -0.760 -0.649 0.018 93 79 51 0 0
-0.1360 -0.0049 -0.4726 -0.416 -0.793 0.444 21 17 14 0 0
-0.1374 -0.0052 -0.4736 -0.469 -0.462 0.752 18 14 12 0 0
-0.1440 -0.0060 -0.4874 -0.765 -0.147 0.628 27 23 20 0 0
-0.1596 -0.0091 -0.4999 -0.768 -0.144 0.624 62 55 52 0 0
-0.1601 -0.0092 -0.5013 -0.829 -0.395 0.396 30 23 21 0 0
-0.1599 -0.0090 -0.5031 -0.940 -0.234 0.250 25 17 17 0 0
-0.1604 -0.0091 -0.5046 -0.932 -0.075 0.353 41 33 30 0 0
-0.1670 -0.0102 -0.5131 -0.841 0.110 0.529 38 31 21 0 0
-0.1753 -0.0119 -0.5188 -0.839 -0.274 0.470 46 39 30 0 0
-0.1877 -0.0105 -0.5962 -0.894 -0.399 -0.203 27 24 21 0 0
-0.1804 -0.0068 -0.6288 -0.814 -0.009 0.581 80 72 59 0 0
-0.1813 -0.0070 -0.6300 -0.814 -0.009 0.581 59 52 40 0 0
-0.1822 -0.0071 -0.6313 -0.814 -0.009 0.581 34 29 22 0 0
-0.1708 -0.0013 -0.6855 -0.917 -0.227 0.328 9 7 6 0 0
-0.1716 -0.0013 -0.6869 -0.931 -0.234 0.280 12 8 7 0 0
-0.1720 -0.0014 -0.6885 -0.931 -0.234 0.280 14 10 9 0 0
-0.1722 -0.0013 -0.6904 -0.688 -0.273 0.672 16 12 11 0 0
-0.1818 -0.0032 -0.6990 -0.804 -0.083 0.588 50 41 32 0 0
-0.1827 -0.0033 -0.7003 -0.804 -0.083 0.588 66 59 46 0 0
-0.1832 -0.0033 -0.7019 -0.884 -0.024 0.467 79 71 58 0 0
-0.1839 -0.0034 -0.7034 -0.884 -0.024 0.467 79 71 59 0 0
-0.1864 -0.0040 -0.7034 -0.743 0.428 0.515 66 56 47 0 0
-0.2126 -0.0098 -0.7145 -0.910 0.308 0.278 77 62 33 0 0
-0.2197 -0.0053 -0.8233 -0.775 0.252 0.580 123 109 74 0 0
-0.2190 -0.0036 -0.8498 -0.810 0.272 0.520 116 104 71 0 0
-0.2238 -0.0044 -0.8561 -0.547 0.315 0.775 53 50 36 0 0
-0.2243 -0.0044 -0.8578 -0.735 0.401 0.547 68 64 53 0 0
-0.2210 -0.0029 -0.8699 -0.398 0.031 0.917 147 145 146 0 0
-0.2230 -0.0034 -0.8701 -0.640 0.077 0.764 156 154 155 0 0
0.0087 0.0169 -0.2105 -0.370 0.820 0.438 186 170 140 0 0
0.0029 0.0156 -0.2110 -0.520 0.771 0.367 183 168 136 0 0
-0.0043 0.0148 -0.2280 -0.656 0.648 0.386 79 66 41 0 0
-0.0804 -0.0033 -0.2375 -0.813 0.406 0.417 104 93 75 0 0
-0.0828 -0.0039 -0.2384 -0.964 0.257 0.061 114 101 76 0 0
-0.0813 -0.0030 -0.2475 -0.737 0.674 0.056 40 31 20 0 0
-0.0838 -0.0035 -0.2484 -0.379 0.258 0.888 68 61 47 0 0
-0.0974 -0.0065 -0.2540 -0.610 -0.084 0.788 77 65 46 0 0
-0.1149 -0.0098 -0.2714 -0.965 0.013 0.262 91 74 52 0 0
-0.1146 -0.0095 -0.2758 -0.879 -0.280 0.387 42 31 20 0 0
-0.1153 -0.0096 -0.2771 -0.793 -0.079 0.604 75 64 50 0 0
-0.1255 -0.0116 -0.2860 -0.670 -0.376 0.640 202 188 158 0 0
-0.1322 -0.0127 -0.2943 -0.737 -0.305 0.603 172 161 131 0 0
-0.1389 -0.0137 -0.3070 -0.558 -0.582 0.591 67 57 49 0 0
-0.1432 -0.0141 -0.3175 -0.985 0.009 0.171 50 41 32 0 0
-0.1436 -0.0141 -0.3188 -0.984 0.003 0.181 38 30 22 0 0
-0.1440 -0.0141 -0.3202 -0.868 -0.202 0.453 53 42 34 0 0
-0.1586 -0.0164 -0.3435 -0.932 -0.291 0.216 73 61 45 0 0
-0.1592 -0.0164 -0.3448 -0.913 -0.152 0.379 74 61 44 0 0
-0.1589 -0.0163 -0.3464 -0.961 -0.174 0.214 72 59 41 0 0
-0.1598 -0.0163 -0.3491 -0.972 -0.071 0.223 70 56 42 0 0
-0.1510 -0.0137 -0.3568 -0.975 0.157 -0.156 80 67 50 0 0
-0.1516 -0.0133 -0.3673 -0.793 -0.337 0.508 75 60 41 0 0
-0.1542 -0.0131 -0.3818 -0.942 -0.096 0.322 49 37 20 0 0
-0.1562 -0.0133 -0.3857 -0.931 -0.244 0.272 60 45 28 0 0
-0.1589 -0.0136 -0.3924 -0.841 -0.276 0.465 97 81 55 0 0
-0.1602 -0.0138 -0.3950 -0.846 -0.195 0.496 93 79 53 0 0
-0.1597 -0.0135 -0.3968 -0.729 -0.199 0.655 92 78 52 0 0
-0.1619 -0.0136 -0.4053 -0.951 -0.268 0.155 90 75 51 0 0
-0.1620 -0.0135 -0.4068 -0.966 -0.231 0.118 87 72 49 0 0
-0.1653 -0.0130 -0.4292 -0.735 -0.525 0.430 103 89 63 0 0
-0.1363 -0.0034 -0.4725 -0.436 -0.327 0.838 26 21 18 0 0
-0.1587 -0.0074 -0.4987 -0.863 -0.240 0.445 86 80 75 0 0
-0.1596 -0.0075 -0.5000 -0.858 -0.157 0.490 26 21 18 0 0
-0.1605 -0.0077 -0.5012 -0.894 -0.258 0.367 19 13 12 0 0
-0.1613 -0.0078 -0.5025 -0.847 -0.400 0.350 33 26 23 0 0
-0.1614 -0.0077 -0.5042 -0.890 -0.292 0.351 62 55 48 0 0
-0.1619 -0.0078 -0.5056 -0.890 -0.292 0.351 36 29 26 0 0
-0.1628 -0.0079 -0.5069 -0.897 -0.260 0.359 23 17 16 0 0
-0.1636 -0.0081 -0.5081 -0.958 -0.128 0.256 25 21 18 0 0
-0.1715 -0.0093 -0.5193 -0.924 -0.114 0.365 47 40 32 0 0
-0.1722 -0.0094 -0.5207 -0.845 -0.143 0.515 43 36 28 0 0
-0.1714 -0.0087 -0.5298 -0.986 -0.008 0.167 51 44 38 0 0
-0.1771 -0.0077 -0.5723 -0.846 -0.154 0.511 20 16 13 0 0
-0.1779 -0.0078 -0.5737 -0.846 -0.154 0.511 19 15 12 0 0
-0.1794 -0.0077 -0.5817 -0.895 0.175 0.410 35 30 27 0 0
-0.1814 -0.0080 -0.5841 -0.808 0.176 0.563 28 23 20 0 0
-0.1884 -0.0093 -0.5923 -0.941 -0.218 0.259 28 25 23 0 0
-0.1892 -0.0094 -0.5936 -0.979 0.033 0.203 24 22 20 0 0
-0.1852 -0.0077 -0.6053 -0.979 -0.178 -0.096 38 33 30 0 0
-0.1802 -0.0057 -0.6197 -0.970 0.196 0.146 35 28 25 0 0
-0.1797 -0.0052 -0.6257 -0.982 -0.150 0.116 39 33 29 0 0
-0.1799 -0.0052 -0.6274 -0.953 -0.233 0.195 45 36 29 0 0
-0.1820 -0.0056 -0.6297 -0.604 -0.300 0.738 72 64 53 0 0
-0.1740 -0.0000 -0.6912 -0.742 -0.327 0.585 20 17 14 0 0
-0.1781 -0.0010 -0.6922 -0.840 -0.351 0.413 33 25 19 0 0
-0.1807 -0.0013 -0.6981 -0.594 0.353 0.723 35 27 20 0 0
-0.1840 -0.0019 -0.7015 -0.795 -0.365 0.485 61 52 42 0 0
-0.1846 -0.0020 -0.7030 -0.863 -0.467 0.191 66 58 50 0 0
-0.2120 -0.0079 -0.7152 -0.930 0.229 0.286 82 67 42 0 0
-0.2128 -0.0081 -0.7165 -0.859 -0.490 0.147 70 55 31 0 0
-0.2172 -0.0086 -0.7268 -0.914 0.355 0.194 128 112 79 0 0
-0.2102 -0.0018 -0.8131 -0.687 0.175 0.706 78 66 41 0 0
-0.2171 -0.0024 -0.8324 -0.993 0.003 0.115 89 78 53 0 0
-0.2195 -0.0024 -0.8431 -0.985 -0.142 0.096 120 107 72 0 0
-0.2222 -0.0023 -0.8558 -0.697 0.411 0.588 53 50 35 0 0
-0.2232 -0.0025 -0.8570 -0.821 0.504 0.268 59 55 43 0 0
-0.2230 -0.0017 -0.8704 -0.640 0.077 0.764 159 157 160 0 0
-0.1003 -0.0053 -0.2620 -0.936 0.148 0.318 105 92 76 0 0
-0.1074 -0.0069 -0.2646 -0.378 0.041 0.925 156 139 110 0 0
-0.1150 -0.0082 -0.2743 -0.914 0.256 0.315 37 24 12 0 0
-0.1145 -0.0080 -0.2759 -0.804 -0.071 0.591 45 31 18 0 0
-0.1154 -0.0081 -0.2771 -0.793 -0.079 0.604 80 67 49 0 0
-0.1310 -0.0111 -0.2917 -0.950 -0.232 0.208 120 104 75 0 0
-0.1332 -0.0115 -0.2940 -0.842 -0.015 0.540 121 110 80 0 0
-0.1362 -0.0120 -0.2990 -0.833 -0.367 0.415 80 71 54 0 0
-0.1368 -0.0120 -0.3003 -0.833 -0.367 0.415 61 53 43 0 0
-0.1444 -0.0128 -0.3201 -0.921 -0.061 0.385 47 36 28 0 0
-0.1582 -0.0150 -0.3393 -0.791 -0.376 0.482 52 44 26 0 0
-0.1589 -0.0151 -0.3405 -0.985 -0.163 0.062 44 34 21 0 0
-0.1583 -0.0144 -0.3497 -0.989 0.104 0.101 65 51 37 0 0
-0.1508 -0.0122 -0.3570 -0.975 0.157 -0.156 83 71 55 0 0
