ply
format ascii 1.0
element vertex 856
property float x
property float y
property float z
property float nx
property float ny
property float nz
property uchar diffuse_red
property uchar diffuse_green
property uchar diffuse_blue
property uchar class
property uchar detection
end_header
-0.1726 0.0802 -0.4566 -0.745 0.614 0.261 70 54 38 0 0
-0.1727 0.0804 -0.4581 -0.468 0.714 0.521 60 45 31 0 0
-0.1721 0.0797 -0.4619 -0.436 0.806 0.401 76 64 47 0 0
-0.1450 0.0419 -0.5127 -0.944 0.240 0.226 33 30 27 0 0
-0.1456 0.0428 -0.5157 -0.929 0.311 0.200 28 24 22 0 0
-0.1448 0.0418 -0.5181 -0.777 0.628 0.041 20 16 15 0 0
-0.1460 0.0436 -0.5188 -0.901 0.425 0.088 18 14 15 0 0
-0.1462 0.0438 -0.5204 -0.916 0.363 0.172 18 14 14 0 0
-0.1464 0.0442 -0.5256 -0.593 0.683 0.426 15 11 10 0 0
-0.1467 0.0448 -0.5270 -0.564 0.673 0.478 39 35 34 0 0
-0.1480 0.0468 -0.5365 -0.569 0.724 0.390 35 33 31 0 0
-0.1507 0.0510 -0.5465 -0.666 0.665 0.338 34 30 27 0 0
-0.1506 0.0509 -0.5484 -0.549 0.801 0.240 22 18 15 0 0
-0.1532 0.0550 -0.5602 -0.305 0.693 0.653 22 20 18 0 0
-0.1534 0.0555 -0.5654 -0.066 0.855 0.514 24 21 19 0 0
-0.1541 0.0565 -0.5683 0.050 0.775 0.630 32 24 22 0 0
-0.1493 0.0520 -0.6578 -0.304 0.625 0.719 54 47 42 0 0
-0.1497 0.0527 -0.6592 -0.267 0.665 0.698 39 34 28 0 0
-0.1497 0.0528 -0.6612 -0.621 0.493 0.610 33 27 20 0 0
-0.1505 0.0540 -0.6621 -0.585 0.473 0.659 47 39 30 0 0
-0.1576 0.0645 -0.6732 -0.744 0.534 0.401 78 71 59 0 0
-0.1581 0.0653 -0.6745 -0.641 0.699 0.317 77 69 57 0 0
-0.1582 0.0656 -0.6822 -0.826 0.561 0.054 79 71 55 0 0
-0.1584 0.0660 -0.6839 -0.840 0.542 -0.027 56 48 36 0 0
-0.1708 0.0847 -0.7133 -0.666 0.416 0.619 83 74 54 0 0
-0.1715 0.0857 -0.7143 -0.812 0.391 0.434 90 77 55 0 0
-0.1720 0.0865 -0.7156 -0.736 0.553 0.390 134 117 87 0 0
-0.1725 0.0872 -0.7170 -0.813 0.556 0.175 135 119 89 0 0
-0.1721 0.0873 -0.7393 -0.787 0.570 -0.234 110 100 72 0 0
-0.1584 0.0687 -0.7827 -0.737 0.668 0.107 28 18 15 0 0
-0.1760 0.0955 -0.8369 -0.884 0.451 0.124 138 123 91 0 0
-0.1768 0.0968 -0.8399 -0.777 0.608 0.165 117 104 72 0 0
-0.1764 0.0970 -0.8662 -0.858 0.499 -0.122 135 133 130 0 0
-0.1773 0.0982 -0.8671 -0.785 0.559 0.267 152 151 149 0 0
-0.1782 0.0997 -0.8743 0.093 0.032 0.995 177 176 176 0 0
-0.0426 -0.1104 -0.2475 -0.995 0.034 0.094 178 178 176 0 0
-0.0426 -0.1103 -0.2492 -0.922 0.367 -0.126 179 179 175 0 0
-0.1350 0.0242 -0.3024 -0.539 0.466 0.701 242 228 191 0 0
-0.1388 0.0300 -0.3096 -0.592 0.652 0.473 174 157 128 0 0
-0.1405 0.0325 -0.3132 -0.557 0.630 0.541 76 64 47 0 0
-0.1431 0.0365 -0.3210 -0.587 0.735 0.338 11 9 5 0 0
-0.1434 0.0377 -0.3519 -0.813 0.577 -0.075 34 27 19 0 0
-0.1439 0.0386 -0.3531 -0.584 0.577 0.571 30 23 14 0 0
-0.1594 0.0625 -0.4125 -0.145 0.896 0.419 76 60 44 0 0
-0.1608 0.0647 -0.4195 -0.341 0.905 0.255 59 44 25 0 0
-0.1621 0.0666 -0.4201 -0.675 0.738 0.005 65 49 32 0 0
-0.1646 0.0707 -0.4343 -0.437 0.720 0.539 67 51 35 0 0
-0.1653 0.0717 -0.4354 -0.591 0.512 0.623 59 45 30 0 0
-0.1658 0.0727 -0.4464 -0.321 0.821 0.472 75 61 49 0 0
-0.1699 0.0788 -0.4512 -0.063 0.839 0.540 138 126 102 0 0
-0.1714 0.0812 -0.4582 -0.425 0.885 0.188 61 46 33 0 0
-0.1706 0.0802 -0.4688 0.026 0.970 0.241 80 70 47 0 0
-0.1702 0.0798 -0.4707 -0.069 0.928 -0.365 78 68 43 0 0
-0.1449 0.0446 -0.5151 -0.944 0.240 0.226 20 16 13 0 0
-0.1452 0.0452 -0.5255 -0.593 0.683 0.426 22 21 19 0 0
-0.1458 0.0462 -0.5284 -0.603 0.728 0.326 19 18 16 0 0
-0.1460 0.0466 -0.5300 -0.518 0.650 0.556 23 20 19 0 0
-0.1463 0.0471 -0.5315 -0.566 0.652 0.505 30 26 25 0 0
-0.1561 0.0625 -0.5758 -0.390 0.774 0.498 27 22 18 0 0
-0.1576 0.0650 -0.5870 -0.407 0.914 0.011 48 39 31 0 0
-0.1464 0.0507 -0.6557 -0.501 0.666 0.553 19 14 11 0 0
-0.1478 0.0528 -0.6579 -0.304 0.625 0.719 47 42 39 0 0
-0.1488 0.0543 -0.6607 -0.691 0.360 0.627 28 22 19 0 0
-0.1500 0.0562 -0.6631 -0.691 0.360 0.627 75 68 54 0 0
-0.1569 0.0664 -0.6743 -0.641 0.699 0.317 100 92 79 0 0
-0.1681 0.0836 -0.7111 -0.387 0.738 0.553 153 136 101 0 0
-0.1686 0.0843 -0.7124 -0.376 0.788 0.487 106 92 66 0 0
-0.1704 0.0870 -0.7140 -0.626 0.535 0.567 83 70 48 0 0
-0.1709 0.0878 -0.7153 -0.736 0.553 0.390 133 116 87 0 0
-0.1716 0.0889 -0.7183 -0.779 0.567 0.270 102 91 70 0 0
-0.1652 0.0818 -0.7983 -0.769 0.431 0.472 49 41 23 0 0
-0.1755 0.0978 -0.8354 -0.700 0.696 0.157 145 127 93 0 0
-0.1756 0.0980 -0.8374 -0.815 0.568 0.115 139 123 89 0 0
-0.1758 0.0983 -0.8393 -0.760 0.639 0.121 132 119 85 0 0
-0.1770 0.1008 -0.8696 -0.732 0.596 0.329 167 165 166 0 0
-0.0415 -0.1089 -0.2490 -0.855 0.480 -0.197 178 178 173 0 0
-0.1377 0.0310 -0.3095 -0.592 0.652 0.473 183 170 138 0 0
-0.1401 0.0345 -0.3143 -0.358 0.829 0.430 42 36 26 0 0
-0.1424 0.0390 -0.3516 -0.813 0.577 -0.075 39 32 21 0 0
-0.1427 0.0395 -0.3530 -0.554 0.631 0.543 34 27 16 0 0
-0.1455 0.0438 -0.3670 -0.697 0.464 0.547 134 120 97 0 0
-0.1575 0.0623 -0.4114 -0.224 0.891 0.395 49 33 17 0 0
-0.1578 0.0628 -0.4127 -0.145 0.896 0.419 88 72 56 0 0
-0.1581 0.0633 -0.4141 -0.241 0.858 0.453 62 46 30 0 0
-0.1586 0.0640 -0.4154 -0.365 0.816 0.449 53 37 20 0 0
-0.1589 0.0646 -0.4167 -0.162 0.853 0.496 59 44 25 0 0
-0.1594 0.0653 -0.4196 -0.341 0.905 0.255 55 40 21 0 0
-0.1632 0.0715 -0.4426 -0.238 0.840 0.488 75 63 49 0 0
-0.1656 0.0751 -0.4472 -0.390 0.740 0.549 119 107 92 0 0
-0.1663 0.0761 -0.4483 -0.269 0.662 0.700 125 114 97 0 0
-0.1688 0.0804 -0.4692 -0.192 0.884 0.426 56 46 33 0 0
-0.1685 0.0800 -0.4711 -0.182 0.930 -0.319 57 47 32 0 0
-0.1437 0.0455 -0.5133 -0.698 0.716 0.003 22 18 15 0 0
-0.1438 0.0461 -0.5273 -0.490 0.498 0.715 31 30 28 0 0
-0.1471 0.0512 -0.5385 -0.596 0.658 0.460 14 10 9 0 0
-0.1475 0.0518 -0.5399 -0.596 0.658 0.460 16 12 11 0 0
-0.1541 0.0630 -0.5985 -0.676 0.731 0.097 51 44 34 0 0
-0.1542 0.0632 -0.6002 -0.676 0.731 0.097 62 55 45 0 0
-0.1515 0.0600 -0.6217 -0.674 0.736 0.065 79 68 53 0 0
-0.1450 0.0517 -0.6556 -0.501 0.666 0.553 16 11 8 0 0
-0.1572 0.0705 -0.7016 -0.944 0.171 0.282 33 29 22 0 0
-0.1650 0.0819 -0.7075 -0.301 0.701 0.647 62 55 46 0 0
-0.1667 0.0844 -0.7112 -0.383 0.749 0.542 139 126 95 0 0
-0.1671 0.0851 -0.7126 -0.383 0.749 0.542 94 83 57 0 0
-0.1705 0.0900 -0.7161 -0.650 0.665 0.368 125 110 80 0 0
-0.1708 0.0906 -0.7176 -0.604 0.619 0.501 93 82 62 0 0
-0.1712 0.0911 -0.7191 -0.578 0.499 0.645 92 78 58 0 0
-0.1559 0.0710 -0.7823 -0.623 0.754 0.209 53 44 37 0 0
-0.1755 0.1007 -0.8355 -0.865 0.445 0.231 133 117 82 0 0
-0.1748 0.0998 -0.8387 -0.819 0.547 0.174 120 106 71 0 0
-0.1741 0.0994 -0.8590 -0.811 0.585 -0.007 69 61 42 0 0
-0.1741 0.0994 -0.8612 -0.856 0.518 0.010 69 62 48 0 0
-0.1741 0.0995 -0.8634 -0.856 0.518 0.010 88 81 68 0 0
-0.1757 0.1020 -0.8695 -0.694 0.557 0.456 165 163 163 0 0
-0.0408 -0.1070 -0.2537 -0.999 0.001 0.040 129 117 83 0 0
-0.1309 0.0234 -0.2986 -0.326 0.744 0.583 174 163 143 0 0
-0.1396 0.0370 -0.3339 -0.470 0.869 0.155 22 18 15 0 0
-0.1396 0.0370 -0.3354 -0.173 0.914 0.367 28 22 18 0 0
-0.1406 0.0389 -0.3489 -0.456 0.870 0.187 29 21 15 0 0
-0.1410 0.0395 -0.3502 -0.674 0.736 0.055 39 32 24 0 0
-0.1414 0.0401 -0.3515 -0.480 0.865 0.148 38 31 23 0 0
-0.1412 0.0399 -0.3532 -0.678 0.707 0.202 35 27 19 0 0
-0.1422 0.0415 -0.3604 -0.806 0.473 0.356 48 38 26 0 0
-0.1471 0.0491 -0.3778 -0.537 0.685 0.492 55 38 20 0 0
-0.1566 0.0638 -0.4143 -0.241 0.858 0.453 49 33 17 0 0
-0.1569 0.0643 -0.4157 -0.309 0.894 0.324 43 27 11 0 0
-0.1572 0.0647 -0.4171 -0.309 0.894 0.324 61 46 27 0 0
-0.1574 0.0651 -0.4185 -0.309 0.894 0.324 62 47 28 0 0
-0.1579 0.0659 -0.4197 -0.341 0.905 0.255 59 44 25 0 0
-0.1605 0.0700 -0.4323 -0.408 0.883 0.234 56 41 28 0 0
-0.1619 0.0724 -0.4442 -0.556 0.757 0.343 59 46 33 0 0
-0.1640 0.0754 -0.4475 -0.664 0.542 0.516 112 102 91 0 0
-0.1673 0.0808 -0.4694 -0.192 0.884 0.426 39 29 20 0 0
-0.1413 0.0445 -0.5002 -0.318 0.857 0.405 34 32 27 0 0
-0.1463 0.0528 -0.5397 -0.720 0.537 0.440 23 20 18 0 0
-0.1542 0.0655 -0.5823 -0.554 0.773 0.310 23 17 16 0 0
-0.1548 0.0664 -0.5854 -0.654 0.747 0.121 30 25 22 0 0
-0.1441 0.0532 -0.6532 -0.596 0.644 0.480 18 13 10 0 0
-0.1574 0.0737 -0.7016 -0.671 0.476 0.569 29 24 13 0 0
-0.1694 0.0913 -0.7158 -0.696 0.597 0.399 140 124 97 0 0
-0.1700 0.0922 -0.7170 -0.475 0.783 0.402 102 90 71 0 0
-0.1706 0.0931 -0.7181 -0.338 0.826 0.452 98 84 63 0 0
-0.1710 0.0937 -0.7196 -0.338 0.826 0.452 146 130 104 0 0
-0.1721 0.0954 -0.7240 -0.598 0.756 0.265 120 105 76 0 0
-0.1549 0.0726 -0.7838 -0.761 0.606 0.234 62 54 43 0 0
-0.1602 0.0804 -0.7910 -0.649 0.337 0.682 55 45 35 0 0
-0.1712 0.0967 -0.8062 -0.260 0.935 0.241 110 94 60 0 0
-0.1712 0.0967 -0.8083 -0.426 0.881 0.206 108 93 59 0 0
-0.1718 0.0978 -0.8158 -0.594 0.792 0.139 135 120 81 0 0
-0.1715 0.0976 -0.8246 -0.739 0.642 0.205 81 73 50 0 0
-0.1713 0.0973 -0.8272 -0.811 0.506 0.292 79 70 53 0 0
-0.1722 0.0999 -0.8684 -0.881 0.433 -0.192 130 125 120 0 0
-0.1745 0.1032 -0.8669 -0.833 0.488 0.260 149 147 145 0 0
-0.1741 0.1027 -0.8698 -0.612 0.531 0.587 161 160 158 0 0
-0.1288 0.0231 -0.2975 -0.533 0.571 0.625 97 86 71 0 0
-0.1372 0.0356 -0.3160 -0.392 0.822 0.413 59 50 41 0 0
-0.1382 0.0379 -0.3417 -0.729 0.678 0.089 27 22 17 0 0
-0.1384 0.0382 -0.3432 -0.534 0.836 -0.124 25 19 15 0 0
-0.1386 0.0386 -0.3446 -0.235 0.972 -0.005 22 16 13 0 0
-0.1397 0.0403 -0.3502 -0.519 0.790 0.327 42 33 26 0 0
-0.1399 0.0406 -0.3516 -0.678 0.707 0.202 46 37 28 0 0
-0.1409 0.0423 -0.3604 -0.774 0.453 0.443 68 58 43 0 0
-0.1411 0.0427 -0.3619 -0.575 0.715 0.397 51 38 22 0 0
-0.1437 0.0467 -0.3713 -0.557 0.651 0.516 128 108 74 0 0
-0.1441 0.0473 -0.3726 -0.557 0.651 0.516 125 104 72 0 0
-0.1446 0.0480 -0.3739 -0.557 0.651 0.516 132 117 84 0 0
-0.1490 0.0547 -0.3868 -0.428 0.728 0.535 101 87 72 0 0
-0.1525 0.0602 -0.4019 -0.021 0.995 0.094 42 31 15 0 0
-0.1535 0.0617 -0.4060 -0.357 0.927 0.114 45 31 18 0 0
-0.1540 0.0625 -0.4072 -0.462 0.886 0.030 61 45 30 0 0
-0.1537 0.0621 -0.4091 -0.374 0.791 0.483 64 48 32 0 0
-0.1544 0.0636 -0.4247 -0.471 0.626 0.621 66 49 32 0 0
-0.1601 0.0723 -0.4447 -0.371 0.798 0.475 47 33 22 0 0
-0.1609 0.0735 -0.4457 -0.383 0.883 0.270 60 47 32 0 0
-0.1625 0.0758 -0.4477 -0.465 0.795 0.389 104 93 80 0 0
-0.1654 0.0807 -0.4700 -0.065 0.936 0.346 44 33 23 0 0
-0.1396 0.0449 -0.5005 -0.587 0.582 0.562 41 41 36 0 0
-0.1465 0.0596 -0.6585 -0.768 0.281 0.576 57 48 37 0 0
-0.1471 0.0605 -0.6598 -0.842 0.213 0.495 79 67 53 0 0
-0.1473 0.0609 -0.6614 -0.524 0.570 0.633 96 84 67 0 0
-0.1577 0.0769 -0.7016 -0.733 0.428 0.529 42 37 27 0 0
-0.1624 0.0839 -0.7073 -0.282 0.614 0.738 48 41 35 0 0
-0.1631 0.0850 -0.7084 -0.432 0.679 0.594 77 69 61 0 0
-0.1641 0.0863 -0.7091 -0.490 0.788 0.372 91 83 65 0 0
-0.1669 0.0905 -0.7133 -0.571 0.459 0.681 86 71 54 0 0
-0.1683 0.0925 -0.7155 -0.696 0.597 0.399 113 99 74 0 0
-0.1562 0.0770 -0.7718 -0.563 0.678 -0.473 69 61 46 0 0
-0.1584 0.0807 -0.7895 -0.446 0.265 0.855 65 56 44 0 0
-0.1699 0.0982 -0.8229 -0.599 0.730 0.330 92 81 55 0 0
-0.1712 0.1002 -0.8294 -0.853 0.127 0.507 92 81 62 0 0
-0.1725 0.1031 -0.8615 -0.771 0.478 0.421 70 64 48 0 0
-0.1735 0.1047 -0.8663 -0.737 0.614 0.282 144 141 137 0 0
-0.1729 0.1039 -0.8694 -0.594 0.553 0.584 158 156 154 0 0
-0.1734 0.1048 -0.8730 -0.851 0.447 -0.277 172 172 170 0 0
-0.1143 0.0041 -0.2702 -0.620 0.502 0.602 165 150 116 0 0
-0.1279 0.0243 -0.2973 -0.546 0.649 0.530 107 94 78 0 0
-0.1387 0.0407 -0.3268 -0.736 0.499 0.458 13 10 10 0 0
-0.1391 0.0413 -0.3281 -0.736 0.499 0.458 11 9 9 0 0
-0.1370 0.0387 -0.3385 -0.813 0.582 0.011 25 20 16 0 0
-0.1369 0.0386 -0.3401 -0.722 0.688 -0.071 25 20 16 0 0
-0.1367 0.0383 -0.3419 -0.718 0.694 -0.040 25 20 16 0 0
-0.1366 0.0382 -0.3435 -0.693 0.721 -0.020 25 20 16 0 0
-0.1366 0.0382 -0.3450 -0.713 0.701 0.029 22 17 14 0 0
-0.1366 0.0383 -0.3466 -0.713 0.701 0.029 25 20 17 0 0
-0.1378 0.0401 -0.3490 -0.554 0.696 0.456 30 23 19 0 0
-0.1384 0.0410 -0.3502 -0.354 0.660 0.663 35 28 21 0 0
-0.1394 0.0427 -0.3590 -0.563 0.714 0.417 38 31 20 0 0
-0.1397 0.0432 -0.3604 -0.563 0.714 0.417 56 47 35 0 0
-0.1415 0.0460 -0.3671 -0.472 0.646 0.600 130 110 74 0 0
-0.1434 0.0489 -0.3738 -0.557 0.651 0.516 115 99 69 0 0
-0.1443 0.0503 -0.3748 -0.636 0.747 0.193 95 80 54 0 0
-0.1474 0.0550 -0.3854 -0.334 0.632 0.699 106 93 76 0 0
-0.1484 0.0565 -0.3895 -0.280 0.865 0.416 72 55 38 0 0
-0.1490 0.0574 -0.3923 -0.191 0.949 0.250 65 52 36 0 0
-0.1521 0.0624 -0.4077 -0.500 0.859 0.111 50 35 20 0 0
-0.1523 0.0628 -0.4091 -0.374 0.791 0.483 59 44 28 0 0
-0.1522 0.0627 -0.4108 -0.297 0.741 0.602 64 49 32 0 0
-0.1533 0.0643 -0.4132 -0.332 0.693 0.640 67 50 34 0 0
-0.1634 0.0804 -0.4673 -0.376 0.908 0.187 43 34 25 0 0
-0.1630 0.0799 -0.4693 -0.382 0.916 0.121 41 31 21 0 0
-0.1639 0.0812 -0.4701 -0.371 0.864 0.340 47 36 26 0 0
-0.1384 0.0458 -0.5005 -0.466 0.666 0.583 65 65 62 0 0
-0.1407 0.0494 -0.5107 -0.685 0.541 0.488 15 11 10 0 0
-0.1411 0.0501 -0.5120 -0.685 0.541 0.488 12 8 7 0 0
-0.1416 0.0508 -0.5134 -0.685 0.541 0.488 31 27 26 0 0
-0.1504 0.0660 -0.5945 -0.499 0.853 -0.151 63 56 45 0 0
-0.1499 0.0654 -0.5968 -0.404 0.902 -0.149 68 60 46 0 0
-0.1446 0.0587 -0.6229 -0.122 0.989 -0.087 52 41 27 0 0
-0.1377 0.0498 -0.6515 -0.423 0.794 0.437 20 15 10 0 0
-0.1462 0.0621 -0.6593 -0.768 0.281 0.576 86 74 59 0 0
-0.1468 0.0630 -0.6605 -0.686 0.312 0.658 95 84 67 0 0
-0.1567 0.0784 -0.7031 -0.882 0.448 0.148 47 41 35 0 0
-0.1626 0.0871 -0.7092 -0.145 0.826 0.544 68 60 46 0 0
-0.1631 0.0878 -0.7107 -0.602 0.550 0.579 67 58 42 0 0
-0.1696 0.0975 -0.7238 -0.499 0.832 0.241 96 81 56 0 0
-0.1690 0.0999 -0.8242 -0.676 0.523 0.520 68 60 42 0 0
-0.1694 0.1005 -0.8279 -0.802 0.563 0.202 81 72 52 0 0
-0.1714 0.1045 -0.8610 -0.771 0.478 0.421 66 59 41 0 0
-0.0387 -0.1016 -0.2429 -0.969 -0.023 0.245 155 147 122 0 0
-0.1185 0.0130 -0.2814 -0.691 0.608 0.391 101 91 81 0 0
-0.1272 0.0259 -0.2986 -0.546 0.649 0.530 124 109 90 0 0
-0.1332 0.0349 -0.3107 -0.558 0.804 0.205 82 67 53 0 0
-0.1333 0.0352 -0.3121 -0.558 0.804 0.205 72 59 44 0 0
-0.1337 0.0357 -0.3135 -0.501 0.821 0.275 46 37 26 0 0
-0.1359 0.0399 -0.3463 -0.544 0.815 0.198 18 13 10 0 0
-0.1366 0.0409 -0.3474 -0.405 0.862 0.304 19 14 11 0 0
-0.1366 0.0410 -0.3489 -0.307 0.867 0.393 23 18 15 0 0
-0.1370 0.0416 -0.3519 -0.457 0.794 0.399 30 23 16 0 0
-0.1392 0.0452 -0.3630 -0.498 0.786 0.366 88 72 52 0 0
-0.1395 0.0457 -0.3644 -0.509 0.746 0.429 90 72 43 0 0
-0.1427 0.0505 -0.3750 -0.631 0.614 0.475 70 54 36 0 0
-0.1431 0.0512 -0.3763 -0.327 0.939 0.104 45 28 16 0 0
-0.1553 0.0705 -0.4367 -0.374 0.747 0.550 73 58 40 0 0
-0.1558 0.0713 -0.4379 -0.505 0.587 0.633 84 71 53 0 0
-0.1567 0.0726 -0.4405 -0.448 0.802 0.396 68 54 41 0 0
-0.1569 0.0729 -0.4420 -0.287 0.897 0.337 87 73 58 0 0
-0.1372 0.0469 -0.5003 -0.669 0.491 0.558 25 22 23 0 0
-0.1394 0.0502 -0.5071 -0.570 0.710 0.415 36 32 31 0 0
-0.1412 0.0530 -0.5125 -0.567 0.390 0.726 20 16 15 0 0
-0.1423 0.0545 -0.5133 -0.663 0.352 0.661 15 11 10 0 0
-0.1391 0.0545 -0.6485 -0.736 0.585 0.342 19 14 10 0 0
-0.1397 0.0556 -0.6535 -0.650 0.533 0.542 28 21 19 0 0
-0.1407 0.0569 -0.6544 -0.452 0.415 0.790 30 27 23 0 0
-0.1439 0.0617 -0.6584 -0.376 0.402 0.835 67 56 46 0 0
-0.1446 0.0628 -0.6595 -0.558 0.319 0.766 73 61 48 0 0
-0.1454 0.0639 -0.6605 -0.558 0.319 0.766 77 67 52 0 0
-0.1561 0.0805 -0.7040 -0.765 0.606 0.218 20 15 13 0 0
-0.1558 0.0802 -0.7063 -0.268 0.656 0.705 19 17 14 0 0
-0.1640 0.0919 -0.7117 -0.571 0.459 0.681 65 57 41 0 0
-0.1660 0.0949 -0.7170 -0.434 0.819 0.375 116 103 77 0 0
-0.1678 0.0976 -0.7205 -0.499 0.832 0.241 97 82 61 0 0
-0.1682 0.0983 -0.7239 -0.499 0.832 0.241 107 92 69 0 0
-0.1594 0.0881 -0.7903 -0.784 0.426 0.452 164 143 106 0 0
-0.1632 0.0939 -0.8014 -0.762 0.508 0.401 82 72 47 0 0
-0.1636 0.0945 -0.8029 -0.599 0.751 0.278 76 67 41 0 0
-0.1667 0.0991 -0.8110 -0.467 0.856 0.222 100 84 52 0 0
-0.1669 0.0995 -0.8128 -0.467 0.856 0.222 113 97 63 0 0
-0.1673 0.1003 -0.8205 -0.448 0.787 0.424 74 63 45 0 0
-0.1676 0.1008 -0.8222 -0.526 0.579 0.623 65 55 40 0 0
-0.1682 0.1017 -0.8255 -0.684 0.607 0.405 76 68 49 0 0
-0.1683 0.1019 -0.8275 -0.802 0.563 0.202 79 71 49 0 0
-0.1690 0.1045 -0.8711 -0.505 0.552 0.663 144 143 139 0 0
-0.0366 -0.1019 -0.2349 -0.967 -0.066 0.247 177 177 177 0 0
-0.0999 -0.0116 -0.2554 -0.706 0.280 0.651 95 87 74 0 0
-0.1008 -0.0103 -0.2566 -0.692 0.325 0.645 88 83 74 0 0
-0.1263 0.0274 -0.2999 -0.481 0.575 0.662 109 97 75 0 0
-0.1325 0.0366 -0.3134 -0.584 0.789 0.188 36 26 15 0 0
-0.1329 0.0372 -0.3148 -0.554 0.795 0.249 56 46 34 0 0
-0.1349 0.0403 -0.3229 -0.433 0.762 0.482 79 66 47 0 0
-0.1353 0.0409 -0.3242 -0.433 0.762 0.482 70 57 45 0 0
-0.1348 0.0410 -0.3477 -0.509 0.814 0.281 15 10 8 0 0
-0.1360 0.0429 -0.3517 -0.329 0.799 0.503 20 15 10 0 0
-0.1365 0.0436 -0.3529 -0.480 0.769 0.422 22 16 9 0 0
-0.1390 0.0477 -0.3671 -0.455 0.690 0.563 105 85 55 0 0
-0.1402 0.0495 -0.3711 -0.499 0.738 0.455 73 56 33 0 0
-0.1412 0.0509 -0.3736 -0.650 0.465 0.601 83 68 48 0 0
-0.1449 0.0567 -0.3870 -0.600 0.721 0.346 43 28 14 0 0
-0.1452 0.0571 -0.3884 -0.600 0.721 0.346 50 34 17 0 0
-0.1459 0.0583 -0.3927 -0.420 0.837 0.351 47 33 18 0 0
-0.1490 0.0630 -0.4033 -0.267 0.840 0.472 30 19 10 0 0
-0.1530 0.0699 -0.4375 -0.642 0.555 0.529 77 62 43 0 0
-0.1544 0.0718 -0.4380 -0.416 0.833 0.364 103 90 72 0 0
-0.1547 0.0723 -0.4394 -0.416 0.833 0.364 72 55 41 0 0
-0.1552 0.0731 -0.4406 -0.204 0.909 0.364 54 38 26 0 0
-0.1361 0.0481 -0.5001 -0.699 0.488 0.523 35 31 33 0 0
-0.1365 0.0487 -0.5015 -0.655 0.634 0.410 63 61 62 0 0
-0.1368 0.0492 -0.5030 -0.638 0.657 0.403 22 19 20 0 0
-0.1381 0.0512 -0.5071 -0.570 0.710 0.415 14 10 9 0 0
-0.1386 0.0519 -0.5102 -0.448 0.832 0.326 20 16 15 0 0
-0.1392 0.0528 -0.5114 -0.697 0.513 0.501 15 11 10 0 0
-0.1443 0.0605 -0.5243 -0.591 0.761 0.268 37 30 25 0 0
-0.1487 0.0687 -0.5826 -0.336 0.934 -0.118 58 48 36 0 0
-0.1443 0.0632 -0.6036 -0.393 0.900 0.186 67 55 40 0 0
-0.1448 0.0640 -0.6049 -0.219 0.869 0.443 67 56 38 0 0
-0.1451 0.0645 -0.6064 -0.276 0.923 0.267 68 55 38 0 0
-0.1450 0.0644 -0.6084 -0.264 0.954 0.143 66 53 37 0 0
-0.1392 0.0578 -0.6544 -0.646 0.409 0.645 29 26 23 0 0
-0.1398 0.0587 -0.6557 -0.639 0.406 0.654 28 25 22 0 0
-0.1434 0.0638 -0.6594 -0.341 0.360 0.868 69 58 45 0 0
-0.1443 0.0651 -0.6603 -0.341 0.360 0.868 72 62 49 0 0
-0.1681 0.1013 -0.7280 -0.692 0.644 0.326 103 96 76 0 0
-0.1588 0.0901 -0.7892 -0.843 0.508 0.176 148 130 97 0 0
-0.1656 0.1008 -0.8189 -0.570 0.698 0.433 70 59 40 0 0
-0.1664 0.1020 -0.8219 -0.526 0.561 0.639 76 68 48 0 0
-0.1672 0.1033 -0.8271 -0.777 0.626 0.066 75 66 45 0 0
-0.1713 0.1093 -0.8334 -0.490 0.845 0.212 148 133 90 0 0
-0.1682 0.1063 -0.8701 -0.782 0.455 0.426 138 137 132 0 0
-0.0364 -0.0994 -0.2329 0.282 0.932 0.229 177 178 178 0 0
-0.0382 -0.0968 -0.2339 -0.560 0.705 0.436 177 177 176 0 0
-0.0413 -0.0918 -0.2524 -0.735 0.673 0.083 87 76 52 0 0
-0.0416 -0.0913 -0.2539 -0.865 0.451 0.221 84 73 48 0 0
-0.0987 -0.0108 -0.2508 -0.215 0.967 0.139 165 150 135 0 0
-0.1232 0.0253 -0.2947 -0.462 0.806 0.371 86 75 57 0 0
-0.1235 0.0258 -0.2960 -0.462 0.806 0.371 85 73 57 0 0
-0.1241 0.0267 -0.2973 -0.456 0.686 0.566 106 94 80 0 0
-0.1282 0.0328 -0.3059 -0.479 0.578 0.661 160 145 113 0 0
-0.1288 0.0337 -0.3071 -0.479 0.578 0.661 188 167 125 0 0
-0.1311 0.0371 -0.3120 -0.616 0.781 0.103 50 41 24 0 0
-0.1315 0.0377 -0.3133 -0.654 0.750 0.100 42 34 21 0 0
-0.1316 0.0380 -0.3147 -0.554 0.795 0.249 72 61 47 0 0
-0.1336 0.0410 -0.3229 -0.434 0.728 0.530 130 115 82 0 0
-0.1341 0.0417 -0.3241 -0.487 0.761 0.428 117 104 76 0 0
-0.1341 0.0428 -0.3520 -0.313 0.828 0.464 14 9 6 0 0
-0.1360 0.0457 -0.3587 -0.613 0.722 0.322 30 22 13 0 0
-0.1360 0.0458 -0.3603 -0.541 0.700 0.466 37 27 18 0 0
-0.1433 0.0569 -0.3856 -0.519 0.687 0.509 46 32 16 0 0
-0.1437 0.0576 -0.3869 -0.600 0.721 0.346 45 29 15 0 0
-0.1439 0.0579 -0.3884 -0.696 0.690 0.197 47 31 16 0 0
-0.1467 0.0624 -0.4024 -0.088 0.734 0.674 32 21 13 0 0
-0.1516 0.0704 -0.4360 -0.444 0.890 0.104 86 71 49 0 0
-0.1511 0.0698 -0.4380 -0.368 0.780 0.506 97 82 60 0 0
-0.1354 0.0498 -0.5014 -0.729 0.497 0.471 31 27 26 0 0
-0.1367 0.0518 -0.5019 -0.518 0.817 0.255 35 31 30 0 0
-0.1373 0.0528 -0.5084 -0.796 0.574 0.194 19 15 14 0 0
-0.1375 0.0531 -0.5100 -0.910 0.343 0.234 14 11 10 0 0
-0.1425 0.0604 -0.5160 -0.803 0.079 0.590 40 34 28 0 0
-0.1426 0.0606 -0.5177 -0.797 0.471 0.378 34 28 22 0 0
-0.1429 0.0611 -0.5192 -0.856 0.447 0.260 33 28 23 0 0
-0.1430 0.0615 -0.5243 -0.591 0.761 0.268 35 31 25 0 0
-0.1472 0.0693 -0.5827 -0.316 0.940 -0.131 71 62 54 0 0
-0.1430 0.0661 -0.6602 -0.341 0.360 0.868 74 64 51 0 0
-0.1439 0.0674 -0.6611 -0.341 0.360 0.868 74 64 52 0 0
-0.1447 0.0686 -0.6620 -0.372 0.465 0.803 63 53 41 0 0
-0.1605 0.0927 -0.7107 -0.541 0.533 0.651 67 58 44 0 0
-0.1613 0.0938 -0.7117 -0.506 0.631 0.589 69 60 45 0 0
-0.1618 0.0946 -0.7130 -0.391 0.562 0.728 80 69 53 0 0
-0.1625 0.0956 -0.7141 -0.391 0.562 0.728 83 70 51 0 0
-0.1664 0.1014 -0.7227 -0.623 0.621 0.475 129 115 86 0 0
-0.1660 0.1012 -0.7331 -0.632 0.711 -0.309 89 79 59 0 0
-0.1623 0.0966 -0.7500 -0.579 0.726 -0.371 79 70 57 0 0
-0.1519 0.0829 -0.7783 -0.861 0.475 0.182 56 49 31 0 0
-0.1520 0.0831 -0.7803 -0.690 0.502 0.522 68 60 43 0 0
-0.1553 0.0878 -0.7819 -0.344 0.796 0.498 78 69 52 0 0
-0.1563 0.0893 -0.7825 -0.046 0.670 0.741 80 70 54 0 0
-0.1577 0.0915 -0.7887 -0.369 0.867 0.336 136 121 91 0 0
-0.1634 0.1003 -0.8096 -0.734 0.635 0.243 121 105 76 0 0
-0.1639 0.1011 -0.8110 -0.654 0.723 0.221 120 105 71 0 0
-0.1702 0.1107 -0.8352 -0.777 0.601 0.188 147 132 91 0 0
-0.1711 0.1131 -0.8656 -0.813 0.499 0.302 152 148 147 0 0
-0.0346 -0.0992 -0.2297 -0.378 0.916 -0.134 178 178 176 0 0
-0.0339 -0.1000 -0.2332 0.282 0.932 0.229 176 176 178 0 0
-0.0369 -0.0958 -0.2338 -0.560 0.705 0.436 177 172 169 0 0
-0.0372 -0.0953 -0.2370 -0.810 0.404 0.424 126 112 88 0 0
-0.0373 -0.0951 -0.2386 -0.832 0.498 0.244 131 115 84 0 0
-0.0383 -0.0935 -0.2431 -0.729 0.505 0.462 115 100 72 0 0
-0.0963 -0.0115 -0.2512 -0.537 0.314 0.783 203 188 171 0 0
-0.1298 0.0381 -0.3165 -0.628 0.720 0.295 123 108 91 0 0
-0.1341 0.0443 -0.3219 -0.476 0.618 0.625 180 168 131 0 0
-0.1330 0.0428 -0.3240 -0.580 0.759 0.297 151 137 107 0 0
-0.1334 0.0435 -0.3269 -0.571 0.682 0.457 91 79 61 0 0
-0.1342 0.0448 -0.3310 -0.608 0.786 0.108 71 60 43 0 0
-0.1346 0.0462 -0.3573 -0.613 0.722 0.322 32 23 16 0 0
-0.1348 0.0466 -0.3587 -0.613 0.722 0.322 33 25 16 0 0
-0.1354 0.0477 -0.3630 -0.575 0.783 0.235 78 62 43 0 0
-0.1368 0.0497 -0.3685 -0.356 0.883 0.307 88 70 47 0 0
-0.1370 0.0501 -0.3699 -0.356 0.883 0.307 100 84 60 0 0
-0.1383 0.0521 -0.3722 -0.491 0.723 0.486 47 34 19 0 0
-0.1385 0.0524 -0.3737 -0.444 0.830 0.336 47 33 20 0 0
-0.1419 0.0576 -0.3873 -0.411 0.843 0.346 67 51 35 0 0
-0.1460 0.0644 -0.4132 -0.721 0.581 0.378 44 31 18 0 0
-0.1464 0.0649 -0.4162 -0.731 0.561 0.389 47 32 16 0 0
-0.1503 0.0712 -0.4360 -0.362 0.929 0.074 92 78 53 0 0
-0.1346 0.0514 -0.5009 -0.739 0.353 0.574 14 10 9 0 0
-0.1345 0.0514 -0.5027 -0.709 0.555 0.434 19 15 14 0 0
-0.1357 0.0530 -0.5034 -0.521 0.802 0.292 18 14 13 0 0
-0.1359 0.0535 -0.5050 -0.666 0.720 0.196 16 12 11 0 0
-0.1402 0.0598 -0.5134 -0.804 0.204 0.558 51 43 40 0 0
-0.1409 0.0607 -0.5146 -0.786 0.453 0.420 34 27 22 0 0
-0.1412 0.0614 -0.5177 -0.700 0.706 0.110 35 28 21 0 0
-0.1326 0.0532 -0.6282 -0.358 0.614 0.703 35 26 17 0 0
-0.1363 0.0592 -0.6508 -0.644 0.746 0.167 19 14 11 0 0
-0.1367 0.0598 -0.6523 -0.578 0.784 0.226 22 17 14 0 0
-0.1413 0.0666 -0.6605 -0.335 0.231 0.913 66 57 44 0 0
-0.1425 0.0684 -0.6610 -0.348 0.446 0.824 60 50 39 0 0
-0.1435 0.0698 -0.6619 -0.483 0.364 0.796 63 53 42 0 0
-0.1484 0.0766 -0.6620 -0.738 -0.047 0.673 78 68 56 0 0
-0.1489 0.0774 -0.6633 -0.769 0.167 0.618 80 69 54 0 0
-0.1557 0.0875 -0.6743 -0.945 0.157 0.287 100 84 57 0 0
-0.1560 0.0883 -0.6855 -0.964 0.152 0.220 111 98 72 0 0
-0.1583 0.0923 -0.7099 -0.374 0.347 0.860 61 51 41 0 0
-0.1593 0.0938 -0.7105 -0.541 0.533 0.651 79 69 57 0 0
-0.1600 0.0948 -0.7116 -0.506 0.631 0.589 88 78 65 0 0
-0.1605 0.0955 -0.7130 -0.511 0.628 0.587 87 77 62 0 0
-0.1611 0.0964 -0.7141 -0.436 0.807 0.398 94 82 65 0 0
-0.1502 0.0833 -0.7767 -0.322 0.772 0.548 74 66 48 0 0
-0.1534 0.0881 -0.7826 -0.661 0.286 0.694 85 77 58 0 0
-0.1648 0.1057 -0.8265 -0.638 0.753 0.159 78 67 42 0 0
-0.1691 0.1132 -0.8666 -0.854 0.361 0.374 145 141 139 0 0
-0.0370 -0.0931 -0.2284 -0.576 0.626 0.525 178 178 178 0 0
-0.0356 -0.0948 -0.2338 -0.592 0.697 0.406 167 158 140 0 0
-0.0360 -0.0940 -0.2385 -0.578 0.609 0.543 169 153 110 0 0
-0.0367 -0.0930 -0.2399 -0.631 0.462 0.623 160 142 102 0 0
-0.1269 0.0363 -0.3082 -0.253 0.519 0.817 199 181 147 0 0
-0.1278 0.0375 -0.3093 -0.253 0.519 0.817 193 177 143 0 0
-0.1283 0.0382 -0.3106 -0.431 0.719 0.545 116 101 79 0 0
-0.1286 0.0387 -0.3120 -0.641 0.748 0.170 72 62 47 0 0
-0.1288 0.0391 -0.3134 -0.603 0.772 0.199 41 33 23 0 0
-0.1291 0.0395 -0.3148 -0.566 0.785 0.252 46 34 24 0 0
-0.1288 0.0391 -0.3164 -0.683 0.652 0.330 101 88 72 0 0
-0.1315 0.0432 -0.3226 -0.619 0.543 0.567 144 133 106 0 0
-0.1329 0.0453 -0.3265 -0.472 0.844 0.254 54 41 23 0 0
-0.1322 0.0454 -0.3548 -0.254 0.780 0.573 16 12 7 0 0
-0.1371 0.0529 -0.3722 -0.491 0.723 0.486 63 48 26 0 0
-0.1379 0.0542 -0.3780 -0.613 0.769 0.180 73 58 41 0 0
-0.1407 0.0584 -0.3857 -0.567 0.802 0.186 57 39 22 0 0
-0.1412 0.0593 -0.3901 -0.306 0.859 0.412 59 44 24 0 0
-0.1419 0.0609 -0.4040 -0.674 0.712 0.196 31 18 10 0 0
-0.1449 0.0653 -0.4115 -0.866 0.394 0.309 43 29 19 0 0
-0.1451 0.0656 -0.4130 -0.877 0.437 0.203 39 26 13 0 0
-0.1479 0.0706 -0.4385 -0.055 0.939 0.339 97 83 57 0 0
-0.1322 0.0506 -0.4966 -0.760 0.549 0.349 82 77 74 0 0
-0.1325 0.0511 -0.4981 -0.760 0.549 0.349 67 62 59 0 0
-0.1346 0.0541 -0.5015 -0.502 0.623 0.600 15 11 10 0 0
-0.1343 0.0539 -0.5034 -0.521 0.802 0.292 18 14 13 0 0
-0.1386 0.0602 -0.5119 -0.624 0.557 0.549 49 42 37 0 0
-0.1388 0.0639 -0.6070 -0.280 0.940 -0.197 58 46 33 0 0
-0.1324 0.0559 -0.6306 -0.383 0.906 0.178 37 27 19 0 0
-0.1301 0.0533 -0.6465 -0.274 0.960 -0.060 18 13 9 0 0
-0.1298 0.0528 -0.6488 -0.276 0.867 0.414 19 14 10 0 0
-0.1392 0.0665 -0.6595 -0.378 0.133 0.916 64 55 41 0 0
-0.1401 0.0678 -0.6603 -0.514 0.144 0.846 42 32 22 0 0
-0.1411 0.0692 -0.6611 -0.289 0.108 0.951 50 40 30 0 0
-0.1462 0.0763 -0.6610 -0.602 -0.113 0.791 82 72 61 0 0
-0.1483 0.0794 -0.6643 -0.532 0.808 0.253 98 87 63 0 0
-0.1485 0.0798 -0.6660 -0.532 0.808 0.253 123 109 78 0 0
-0.1556 0.0901 -0.6748 -0.863 0.491 0.120 105 90 60 0 0
-0.1571 0.0936 -0.7096 -0.324 0.257 0.910 53 44 34 0 0
-0.1581 0.0949 -0.7103 -0.588 0.426 0.687 75 65 55 0 0
-0.1637 0.1036 -0.7305 -0.520 0.844 -0.132 103 89 66 0 0
-0.1611 0.1003 -0.7440 -0.508 0.776 -0.373 78 69 52 0 0
-0.1603 0.0993 -0.7470 -0.539 0.765 -0.353 59 49 35 0 0
-0.1499 0.0860 -0.7814 -0.641 0.636 0.430 68 58 39 0 0
-0.1512 0.0879 -0.7837 -0.383 0.551 0.741 92 84 65 0 0
-0.1548 0.0933 -0.7889 -0.445 0.659 0.606 105 93 71 0 0
-0.1550 0.0936 -0.7907 -0.621 0.766 0.167 113 99 76 0 0
-0.1565 0.0957 -0.7907 -0.768 0.641 -0.020 102 88 66 0 0
-0.0357 -0.0920 -0.2284 -0.576 0.626 0.525 178 178 179 0 0
-0.0336 -0.0949 -0.2307 -0.782 0.596 0.181 176 177 175 0 0
-0.0346 -0.0934 -0.2320 -0.880 0.211 0.425 176 172 160 0 0
-0.0352 -0.0926 -0.2334 -0.880 0.211 0.425 176 165 135 0 0
-0.0342 -0.0939 -0.2354 -0.743 0.422 0.519 172 156 114 0 0
-0.0356 -0.0917 -0.2398 -0.602 0.537 0.591 119 104 70 0 0
-0.1093 0.0127 -0.2704 -0.509 0.564 0.650 162 147 128 0 0
-0.1273 0.0394 -0.3120 -0.558 0.788 0.260 109 96 78 0 0
-0.1278 0.0402 -0.3132 -0.449 0.872 0.194 48 38 24 0 0
-0.1301 0.0437 -0.3196 -0.238 0.702 0.671 172 162 142 0 0
-0.1308 0.0446 -0.3208 -0.238 0.702 0.671 200 189 170 0 0
-0.1316 0.0460 -0.3265 -0.412 0.759 0.504 41 27 13 0 0
-0.1307 0.0459 -0.3549 -0.562 0.555 0.613 10 8 4 0 0
-0.1339 0.0509 -0.3687 -0.333 0.858 0.391 102 82 47 0 0
-0.1369 0.0554 -0.3794 -0.300 0.774 0.557 70 56 38 0 0
-0.1312 0.0519 -0.4963 -0.760 0.549 0.349 26 22 19 0 0
-0.1313 0.0521 -0.4980 -0.763 0.620 0.185 45 40 38 0 0
-0.1321 0.0534 -0.5008 -0.766 0.542 0.346 18 14 14 0 0
-0.1334 0.0552 -0.5014 -0.599 0.552 0.581 15 11 11 0 0
-0.1344 0.0567 -0.5040 -0.610 0.532 0.587 32 29 28 0 0
-0.1390 0.0635 -0.5139 -0.495 0.738 0.458 38 30 25 0 0
-0.1394 0.0641 -0.5153 -0.495 0.738 0.458 46 39 33 0 0
-0.1384 0.0657 -0.5930 -0.291 0.770 -0.568 43 37 24 0 0
-0.1378 0.0650 -0.5974 -0.227 0.892 -0.390 75 65 48 0 0
-0.1307 0.0563 -0.6310 -0.166 0.986 -0.004 33 24 15 0 0
-0.1368 0.0660 -0.6586 -0.297 0.110 0.948 69 61 48 0 0
-0.1380 0.0676 -0.6593 -0.299 0.168 0.940 59 49 38 0 0
-0.1390 0.0691 -0.6600 -0.338 0.190 0.922 47 37 27 0 0
-0.1548 0.0916 -0.6723 -0.709 0.703 -0.058 101 86 56 0 0
-0.1485 0.0868 -0.7773 -0.398 0.809 0.433 81 69 48 0 0
-0.1489 0.0875 -0.7788 -0.391 0.838 0.381 75 63 43 0 0
-0.1488 0.0874 -0.7809 -0.576 0.765 0.287 80 69 48 0 0
-0.1491 0.0879 -0.7826 -0.498 0.587 0.638 77 67 47 0 0
-0.1498 0.0889 -0.7837 -0.383 0.551 0.741 81 72 54 0 0
-0.1541 0.0952 -0.7900 -0.684 0.372 0.628 49 41 27 0 0
-0.1547 0.0960 -0.7913 -0.636 0.573 0.517 38 31 20 0 0
-0.1571 0.0996 -0.7962 -0.346 0.806 0.480 28 21 16 0 0
-0.1571 0.0997 -0.7982 -0.676 0.545 0.496 24 18 14 0 0
-0.1590 0.1026 -0.8038 -0.779 0.434 0.452 36 28 19 0 0
-0.1605 0.1051 -0.8140 -0.595 0.760 0.260 71 61 43 0 0
-0.1624 0.1081 -0.8260 -0.791 0.510 0.338 116 102 73 0 0
-0.0323 -0.0940 -0.2274 -0.507 0.401 0.763 177 177 177 0 0
-0.0332 -0.0927 -0.2287 -0.507 0.401 0.763 177 177 177 0 0
-0.0340 -0.0914 -0.2317 -0.880 0.211 0.425 166 156 138 0 0
-0.0345 -0.0906 -0.2331 -0.880 0.211 0.425 177 162 129 0 0
-0.0336 -0.0919 -0.2351 -0.864 0.449 0.226 156 141 101 0 0
-0.1078 0.0132 -0.2705 -0.298 0.617 0.728 156 141 117 0 0
-0.1111 0.0181 -0.2766 -0.672 0.533 0.514 204 186 144 0 0
-0.1119 0.0192 -0.2793 -0.429 0.710 0.559 93 74 45 0 0
-0.1171 0.0273 -0.2982 -0.461 0.829 0.316 53 44 35 0 0
-0.1173 0.0276 -0.2996 -0.685 0.648 0.332 59 50 41 0 0
-0.1284 0.0438 -0.3183 -0.282 0.702 0.654 93 81 67 0 0
-0.1287 0.0443 -0.3197 -0.238 0.702 0.671 134 125 108 0 0
-0.1293 0.0451 -0.3209 -0.195 0.847 0.494 167 157 142 0 0
-0.1305 0.0472 -0.3279 -0.477 0.791 0.382 142 127 96 0 0
-0.1309 0.0477 -0.3292 -0.730 0.474 0.493 109 96 69 0 0
-0.1316 0.0488 -0.3319 -0.807 0.551 0.213 49 34 21 0 0
-0.1302 0.0478 -0.3576 -0.448 0.586 0.675 17 10 7 0 0
-0.1300 0.0477 -0.3593 -0.617 0.709 0.341 39 30 20 0 0
-0.1297 0.0473 -0.3610 -0.449 0.793 0.411 40 28 19 0 0
-0.1348 0.0550 -0.3752 -0.595 0.781 0.188 66 50 35 0 0
-0.1352 0.0556 -0.3781 -0.403 0.826 0.395 56 43 23 0 0
-0.1399 0.0631 -0.4004 -0.044 0.927 0.372 144 128 104 0 0
-0.1459 0.0740 -0.4661 0.488 0.807 0.334 14 10 8 0 0
-0.1299 0.0528 -0.4963 -0.586 0.534 0.609 20 16 12 0 0
-0.1304 0.0536 -0.4976 -0.586 0.534 0.609 29 25 24 0 0
-0.1319 0.0559 -0.5015 -0.605 0.692 0.394 19 15 15 0 0
-0.1330 0.0575 -0.5040 -0.579 0.508 0.638 26 23 20 0 0
-0.1377 0.0644 -0.5139 -0.495 0.738 0.458 49 42 36 0 0
-0.1343 0.0631 -0.6014 -0.411 0.812 -0.414 57 48 32 0 0
-0.1334 0.0619 -0.6042 -0.169 0.935 -0.312 49 40 26 0 0
-0.1357 0.0651 -0.6056 -0.418 0.850 -0.320 59 49 37 0 0
-0.1327 0.0611 -0.6106 -0.020 0.979 -0.201 48 38 26 0 0
-0.1290 0.0568 -0.6314 -0.232 0.957 0.174 31 22 14 0 0
-0.1345 0.0655 -0.6578 -0.197 0.356 0.914 54 49 37 0 0
-0.1377 0.0702 -0.6599 -0.292 0.216 0.932 69 59 49 0 0
-0.1542 0.0935 -0.6675 -0.630 0.676 0.382 101 87 58 0 0
-0.1548 0.0944 -0.6707 -0.624 0.775 0.100 127 112 80 0 0
-0.1550 0.0947 -0.6724 -0.699 0.692 0.179 102 90 62 0 0
-0.1549 0.0947 -0.6743 -0.709 0.661 0.247 95 81 55 0 0
-0.1563 0.0980 -0.7092 -0.396 0.109 0.912 107 100 83 0 0
-0.1614 0.1061 -0.7320 -0.453 0.800 -0.393 94 84 67 0 0
-0.1597 0.1039 -0.7362 -0.195 0.922 -0.333 79 71 56 0 0
-0.1581 0.1018 -0.7423 -0.264 0.881 -0.393 64 56 38 0 0
-0.1472 0.0877 -0.7710 -0.956 0.223 -0.192 48 40 27 0 0
-0.1469 0.0877 -0.7817 -0.638 0.579 0.507 58 45 28 0 0
-0.1524 0.0956 -0.7885 -0.618 0.237 0.750 26 21 12 0 0
-0.1536 0.0974 -0.7909 -0.639 0.513 0.573 19 16 10 0 0
-0.1543 0.0984 -0.7920 -0.525 0.712 0.466 20 17 11 0 0
-0.1567 0.1021 -0.7989 -0.759 0.407 0.508 25 20 14 0 0
-0.1573 0.1029 -0.8001 -0.805 0.501 0.318 28 23 16 0 0
-0.1577 0.1035 -0.8017 -0.841 0.375 0.389 34 28 20 0 0
-0.1581 0.1041 -0.8031 -0.841 0.375 0.389 44 36 26 0 0
-0.1668 0.1187 -0.8635 -0.874 0.479 0.085 115 111 101 0 0
-0.0305 -0.0937 -0.2291 -0.262 0.272 0.926 176 176 175 0 0
-0.0968 -0.0001 -0.2595 -0.609 0.718 0.338 98 77 53 0 0
-0.1086 0.0170 -0.2741 -0.505 0.698 0.507 169 147 103 0 0
-0.1091 0.0177 -0.2755 -0.505 0.698 0.507 179 157 113 0 0
-0.1293 0.0480 -0.3278 -0.505 0.748 0.430 144 131 103 0 0
-0.1289 0.0487 -0.3591 -0.652 0.641 0.405 30 23 15 0 0
-0.1404 0.0674 -0.4266 -0.508 0.822 0.259 82 68 45 0 0
-0.1406 0.0678 -0.4280 -0.654 0.698 0.291 87 73 49 0 0
-0.1412 0.0686 -0.4292 -0.719 0.681 0.140 96 82 59 0 0
-0.1413 0.0688 -0.4308 -0.719 0.681 0.140 96 82 59 0 0
-0.1281 0.0529 -0.4950 -0.609 0.669 0.427 41 38 33 0 0
-0.1324 0.0593 -0.5034 -0.389 0.512 0.766 39 34 31 0 0
-0.1344 0.0622 -0.5052 -0.523 0.534 0.664 45 38 34 0 0
-0.1324 0.0632 -0.6020 -0.226 0.912 -0.342 53 45 32 0 0
-0.1316 0.0622 -0.6066 -0.116 0.904 -0.412 50 40 29 0 0
-0.1309 0.0614 -0.6091 -0.222 0.880 -0.419 54 44 33 0 0
-0.1310 0.0617 -0.6108 0.107 0.992 0.064 44 34 24 0 0
-0.1294 0.0595 -0.6145 -0.059 0.952 -0.299 45 35 26 0 0
-0.1253 0.0543 -0.6263 0.096 0.587 0.804 40 30 20 0 0
-0.1261 0.0554 -0.6273 0.093 0.696 0.712 45 35 25 0 0
-0.1268 0.0565 -0.6284 0.001 0.688 0.726 49 39 29 0 0
-0.1270 0.0568 -0.6302 0.016 0.988 0.153 37 27 19 0 0
-0.1264 0.0564 -0.6403 -0.469 0.862 -0.192 18 13 9 0 0
-0.1519 0.0931 -0.6686 -0.609 0.771 0.186 100 86 59 0 0
-0.1537 0.0957 -0.6723 -0.744 0.554 0.374 86 73 45 0 0
-0.1519 0.0946 -0.7072 -0.520 0.079 0.851 79 75 66 0 0
-0.1552 0.0993 -0.7089 -0.417 0.120 0.901 116 108 90 0 0
-0.1560 0.1004 -0.7098 -0.664 0.302 0.684 141 132 114 0 0
-0.1578 0.1040 -0.7369 -0.195 0.922 -0.333 62 55 39 0 0
-0.1457 0.0888 -0.7772 -0.508 0.777 0.372 94 81 62 0 0
-0.1490 0.0937 -0.7850 -0.355 0.327 0.876 20 17 12 0 0
-0.1512 0.0968 -0.7882 -0.509 0.287 0.811 20 16 9 0 0
-0.1519 0.0978 -0.7893 -0.495 0.465 0.734 21 16 9 0 0
-0.1525 0.0987 -0.7905 -0.567 0.521 0.638 23 17 12 0 0
-0.1537 0.1005 -0.7930 -0.616 0.587 0.525 28 23 13 0 0
-0.1541 0.1012 -0.7944 -0.616 0.587 0.525 30 24 15 0 0
-0.1546 0.1019 -0.7957 -0.557 0.580 0.594 35 27 19 0 0
-0.1551 0.1026 -0.7972 -0.661 0.578 0.478 36 27 18 0 0
-0.1558 0.1037 -0.7982 -0.635 0.615 0.467 39 31 21 0 0
-0.1563 0.1044 -0.7996 -0.635 0.615 0.467 46 38 27 0 0
-0.1568 0.1052 -0.8009 -0.600 0.559 0.572 54 46 34 0 0
-0.1572 0.1058 -0.8024 -0.665 0.551 0.505 55 46 33 0 0
-0.1583 0.1078 -0.8154 -0.510 0.781 0.360 54 47 29 0 0
-0.1586 0.1083 -0.8170 -0.542 0.805 0.241 70 60 39 0 0
-0.1589 0.1087 -0.8187 -0.510 0.859 0.051 89 78 59 0 0
-0.1652 0.1180 -0.8302 -0.782 0.553 0.286 145 129 87 0 0
-0.1630 0.1165 -0.8696 -0.839 0.497 -0.220 133 129 124 0 0
-0.0943 -0.0013 -0.2524 -0.577 0.572 0.583 183 172 138 0 0
-0.0946 -0.0007 -0.2537 -0.633 0.653 0.417 162 147 113 0 0
-0.0955 0.0007 -0.2580 -0.665 0.642 0.382 55 38 21 0 0
-0.0958 0.0011 -0.2593 -0.665 0.642 0.382 68 46 24 0 0
-0.0960 0.0016 -0.2608 -0.687 0.606 0.401 85 64 43 0 0
-0.1074 0.0179 -0.2741 -0.505 0.698 0.507 153 133 97 0 0
-0.1132 0.0269 -0.2988 -0.694 0.506 0.512 65 55 46 0 0
-0.1136 0.0276 -0.3001 -0.694 0.506 0.512 62 50 45 0 0
-0.1286 0.0496 -0.3291 -0.319 0.758 0.569 36 23 14 0 0
-0.1260 0.0473 -0.3633 -0.586 0.655 0.477 45 30 15 0 0
-0.1360 0.0622 -0.3870 -0.586 0.757 0.290 89 74 50 0 0
-0.1368 0.0638 -0.3992 0.011 0.897 0.441 112 97 66 0 0
-0.1371 0.0643 -0.4006 -0.096 0.906 0.413 166 149 116 0 0
-0.1364 0.0638 -0.4107 -0.737 0.627 0.252 34 22 11 0 0
-0.1269 0.0540 -0.4949 -0.609 0.669 0.427 44 41 36 0 0
-0.1356 0.0668 -0.5134 -0.795 0.595 0.120 50 43 37 0 0
-0.1294 0.0620 -0.6055 0.096 0.916 -0.389 45 36 26 0 0
-0.1291 0.0616 -0.6078 0.424 0.900 0.103 43 33 23 0 0
-0.1289 0.0614 -0.6098 0.400 0.916 -0.034 43 33 23 0 0
-0.1272 0.0592 -0.6135 -0.027 0.972 -0.235 41 31 21 0 0
-0.1262 0.0579 -0.6164 -0.007 0.938 -0.347 41 31 23 0 0
-0.1237 0.0547 -0.6227 -0.091 0.994 0.056 35 27 19 0 0
-0.1222 0.0528 -0.6262 0.034 0.485 0.874 39 30 21 0 0
-0.1229 0.0538 -0.6274 -0.083 0.253 0.964 41 31 19 0 0
-0.1221 0.0533 -0.6416 -0.115 0.829 0.547 18 13 9 0 0
-0.1523 0.0964 -0.6705 -0.593 0.790 0.155 138 120 89 0 0
-0.1527 0.0971 -0.6718 -0.690 0.634 0.349 111 97 69 0 0
-0.1530 0.0976 -0.6734 -0.675 0.594 0.436 82 70 42 0 0
-0.1543 0.1024 -0.7456 -0.408 0.870 -0.277 59 51 37 0 0
-0.1484 0.0948 -0.7615 -0.478 0.774 -0.416 56 46 34 0 0
-0.1505 0.0988 -0.7893 -0.607 0.516 0.604 36 26 16 0 0
-0.1545 0.1047 -0.7981 -0.798 0.349 0.491 73 64 50 0 0
-0.1567 0.1084 -0.8135 -0.575 0.767 0.285 48 39 28 0 0
-0.1570 0.1089 -0.8152 -0.575 0.767 0.285 48 41 24 0 0
-0.1573 0.1093 -0.8169 -0.575 0.767 0.285 58 49 29 0 0
-0.1575 0.1097 -0.8187 -0.544 0.837 0.059 65 54 36 0 0
-0.1626 0.1189 -0.8679 -0.804 0.546 -0.233 124 121 114 0 0
-0.0932 -0.0002 -0.2523 -0.633 0.653 0.417 166 152 120 0 0
-0.0941 0.0014 -0.2564 -0.722 0.630 0.285 87 68 45 0 0
-0.0947 0.0023 -0.2592 -0.718 0.603 0.348 93 73 48 0 0
-0.1073 0.0205 -0.2796 -0.417 0.740 0.527 53 40 27 0 0
-0.1124 0.0285 -0.2985 -0.672 0.292 0.680 67 57 45 0 0
-0.1168 0.0348 -0.3056 -0.775 0.529 0.345 170 156 132 0 0
-0.1265 0.0491 -0.3249 -0.491 0.654 0.575 139 119 87 0 0
-0.1283 0.0520 -0.3347 -0.278 0.861 0.426 57 39 23 0 0
-0.1284 0.0521 -0.3362 -0.356 0.836 0.418 66 48 30 0 0
-0.1284 0.0522 -0.3377 -0.444 0.869 0.218 57 40 23 0 0
-0.1265 0.0505 -0.3590 -0.396 0.806 0.440 15 9 6 0 0
-0.1246 0.0480 -0.3634 -0.399 0.835 0.379 46 32 19 0 0
-0.1348 0.0631 -0.3869 -0.586 0.757 0.290 80 66 40 0 0
-0.1349 0.0638 -0.3996 -0.106 0.699 0.707 135 117 84 0 0
-0.1354 0.0646 -0.4008 -0.062 0.883 0.466 155 137 102 0 0
-0.1358 0.0654 -0.4103 -0.710 0.571 0.412 44 28 15 0 0
-0.1382 0.0697 -0.4295 -0.362 0.656 0.662 89 77 53 0 0
-0.1343 0.0678 -0.5134 -0.696 0.718 0.017 45 36 28 0 0
-0.1260 0.0602 -0.6095 0.363 0.879 0.308 41 33 22 0 0
-0.1262 0.0605 -0.6112 0.290 0.957 -0.001 36 27 18 0 0
-0.1257 0.0600 -0.6135 0.066 0.972 -0.227 41 32 23 0 0
-0.1243 0.0581 -0.6169 -0.097 0.955 -0.280 42 33 25 0 0
-0.1221 0.0554 -0.6230 -0.252 0.965 0.065 36 27 18 0 0
-0.1205 0.0533 -0.6265 0.034 0.485 0.874 38 29 20 0 0
-0.1215 0.0548 -0.6273 -0.180 0.297 0.938 41 33 22 0 0
-0.1245 0.0602 -0.6566 -0.027 0.763 0.646 55 50 44 0 0
-0.1511 0.0972 -0.6608 -0.608 0.558 0.565 156 139 101 0 0
-0.1503 0.0962 -0.6675 -0.321 0.773 0.547 108 94 66 0 0
-0.1454 0.0944 -0.7820 -0.750 0.388 0.536 50 37 28 0 0
-0.1457 0.0949 -0.7837 -0.545 0.796 0.265 43 32 23 0 0
-0.1459 0.0951 -0.7856 -0.288 0.756 0.588 39 30 21 0 0
-0.1467 0.0963 -0.7865 -0.540 0.671 0.508 39 29 22 0 0
-0.1475 0.0975 -0.7874 -0.508 0.614 0.604 47 38 28 0 0
-0.1633 0.1220 -0.8520 -0.713 0.601 0.361 113 101 72 0 0
-0.1618 0.1206 -0.8670 -0.904 0.387 -0.182 116 110 100 0 0
-0.0356 -0.0788 -0.2148 -0.930 0.357 0.085 178 177 175 0 0
-0.0847 -0.0099 -0.2384 -0.661 0.306 0.685 138 122 98 0 0
-0.0851 -0.0092 -0.2397 -0.742 0.394 0.543 130 115 93 0 0
-0.1021 0.0153 -0.2662 -0.369 0.818 0.440 209 190 141 0 0
-0.1025 0.0159 -0.2675 -0.369 0.818 0.440 186 167 122 0 0
-0.1031 0.0169 -0.2703 -0.301 0.882 0.363 173 153 112 0 0
-0.1233 0.0470 -0.3198 -0.423 0.807 0.411 88 75 61 0 0
-0.1247 0.0490 -0.3237 -0.457 0.689 0.563 115 98 73 0 0
-0.1252 0.0497 -0.3250 -0.457 0.689 0.563 140 122 95 0 0
-0.1269 0.0525 -0.3348 -0.278 0.861 0.426 64 48 29 0 0
-0.1270 0.0528 -0.3362 -0.356 0.836 0.418 84 68 49 0 0
-0.1271 0.0529 -0.3377 -0.444 0.869 0.218 48 32 16 0 0
-0.1321 0.0623 -0.3975 -0.215 0.637 0.740 68 51 25 0 0
-0.1339 0.0650 -0.4010 -0.170 0.867 0.469 106 88 56 0 0
-0.1340 0.0653 -0.4026 -0.121 0.968 0.219 45 29 9 0 0
-0.1338 0.0654 -0.4107 -0.441 0.779 0.446 56 40 24 0 0
-0.1261 0.0584 -0.4968 -0.459 0.788 0.410 24 20 19 0 0
-0.1226 0.0584 -0.6135 0.356 0.932 0.067 39 30 21 0 0
-0.1218 0.0575 -0.6162 0.237 0.960 -0.151 45 36 27 0 0
-0.1222 0.0581 -0.6176 -0.097 0.955 -0.280 40 31 23 0 0
-0.1217 0.0575 -0.6201 -0.097 0.955 -0.280 31 22 15 0 0
-0.1204 0.0558 -0.6233 -0.252 0.965 0.065 36 27 18 0 0
-0.1187 0.0537 -0.6269 0.002 0.449 0.894 42 33 24 0 0
-0.1198 0.0552 -0.6277 -0.035 0.516 0.856 43 34 25 0 0
-0.1209 0.0568 -0.6284 -0.120 0.334 0.935 29 23 14 0 0
-0.1210 0.0570 -0.6302 0.002 0.945 0.328 23 17 11 0 0
-0.1503 0.1008 -0.7060 -0.521 -0.078 0.850 105 96 88 0 0
-0.1554 0.1080 -0.7113 -0.662 0.567 0.491 120 109 84 0 0
-0.1445 0.0957 -0.7773 -0.837 0.327 0.439 85 72 55 0 0
-0.1451 0.0966 -0.7786 -0.843 0.519 0.141 65 53 37 0 0
-0.1457 0.0975 -0.7819 -0.548 0.832 0.084 48 37 23 0 0
-0.1545 0.1107 -0.8024 -0.555 0.759 0.341 40 34 21 0 0
-0.1548 0.1112 -0.8040 -0.555 0.759 0.341 65 56 41 0 0
-0.0833 -0.0093 -0.2368 -0.827 0.472 0.307 142 127 102 0 0
-0.0837 -0.0087 -0.2382 -0.766 0.324 0.555 163 147 117 0 0
-0.1014 0.0170 -0.2674 -0.431 0.878 0.208 150 133 95 0 0
-0.1181 0.0419 -0.3112 -0.351 0.706 0.615 178 162 133 0 0
-0.1227 0.0487 -0.3226 -0.651 0.665 0.365 151 135 110 0 0
-0.1263 0.0544 -0.3375 -0.757 0.536 0.373 40 26 11 0 0
-0.1266 0.0549 -0.3388 -0.768 0.569 0.293 49 31 16 0 0
-0.1239 0.0519 -0.3591 -0.435 0.851 0.295 20 14 8 0 0
-0.1275 0.0577 -0.3758 -0.684 0.696 0.220 70 53 28 0 0
-0.1279 0.0583 -0.3771 -0.529 0.785 0.323 91 80 57 0 0
-0.1304 0.0626 -0.3977 -0.313 0.473 0.823 104 88 59 0 0
-0.1313 0.0639 -0.3988 -0.313 0.473 0.823 192 177 144 0 0
-0.1321 0.0651 -0.3998 -0.313 0.473 0.823 156 138 107 0 0
-0.1321 0.0671 -0.4453 -0.464 0.830 0.311 63 51 33 0 0
-0.1324 0.0675 -0.4468 -0.464 0.830 0.311 60 49 32 0 0
-0.1318 0.0693 -0.5081 -0.591 0.643 0.487 91 78 62 0 0
-0.1611 0.1107 -0.5294 -0.905 0.298 0.302 35 30 26 0 0
-0.1614 0.1112 -0.5309 -0.960 0.195 0.200 23 18 15 0 0
-0.1609 0.1106 -0.5331 -0.965 -0.071 0.254 26 21 19 0 0
-0.1610 0.1111 -0.5415 -0.921 0.310 -0.234 36 29 24 0 0
-0.1586 0.1080 -0.5455 -0.955 0.014 -0.297 30 24 20 0 0
-0.1198 0.0575 -0.6149 0.306 0.949 0.071 53 45 34 0 0
-0.1200 0.0578 -0.6167 0.325 0.945 0.044 41 32 23 0 0
-0.1185 0.0561 -0.6238 -0.098 0.995 0.020 40 31 23 0 0
-0.1170 0.0542 -0.6273 0.117 0.910 0.398 44 35 26 0 0
-0.1175 0.0549 -0.6287 0.117 0.910 0.398 35 28 20 0 0
-0.1176 0.0555 -0.6381 -0.158 0.980 0.118 18 13 9 0 0
-0.1189 0.0575 -0.6424 -0.528 0.842 0.106 18 13 9 0 0
-0.1192 0.0582 -0.6498 -0.715 0.573 0.402 27 22 18 0 0
-0.1197 0.0590 -0.6511 -0.700 0.321 0.638 24 19 16 0 0
-0.1495 0.1024 -0.7054 -0.817 -0.013 0.576 91 82 75 0 0
-0.1551 0.1104 -0.7139 -0.672 0.538 0.510 102 92 67 0 0
-0.1588 0.1158 -0.7188 -0.620 0.273 0.735 125 107 71 0 0
-0.1598 0.1173 -0.7214 -0.618 0.495 0.610 119 107 77 0 0
-0.1515 0.1092 -0.7986 -0.631 0.691 0.353 42 34 21 0 0
-0.1617 0.1262 -0.8649 -0.880 0.474 0.004 123 119 113 0 0
-0.0815 -0.0092 -0.2370 -0.481 0.550 0.683 177 161 134 0 0
-0.0828 -0.0072 -0.2426 -0.797 0.422 0.432 76 67 47 0 0
-0.0993 0.0166 -0.2662 -0.468 0.614 0.635 223 209 165 0 0
-0.0997 0.0172 -0.2676 -0.369 0.818 0.440 144 129 97 0 0
-0.1010 0.0193 -0.2746 -0.131 0.793 0.595 67 54 41 0 0
-0.1142 0.0389 -0.3064 -0.713 0.538 0.449 179 168 142 0 0
-0.1207 0.0484 -0.3199 -0.459 0.735 0.499 78 68 51 0 0
-0.1216 0.0498 -0.3224 -0.557 0.748 0.360 161 145 117 0 0
-0.1217 0.0500 -0.3239 -0.539 0.681 0.496 191 177 146 0 0
-0.1224 0.0510 -0.3266 -0.350 0.801 0.486 81 65 39 0 0
-0.1224 0.0511 -0.3282 -0.600 0.675 0.430 59 41 20 0 0
-0.1227 0.0516 -0.3295 -0.645 0.642 0.414 44 28 15 0 0
-0.1235 0.0534 -0.3429 -0.531 0.751 0.391 57 38 21 0 0
-0.1240 0.0540 -0.3442 -0.633 0.731 0.256 65 45 28 0 0
-0.1229 0.0533 -0.3605 -0.352 0.823 0.445 15 9 5 0 0
-0.1230 0.0534 -0.3620 -0.342 0.933 0.110 24 16 9 0 0
-0.1214 0.0514 -0.3661 -0.463 0.501 0.732 86 74 53 0 0
-0.1218 0.0521 -0.3674 -0.640 0.703 0.311 95 77 52 0 0
-0.1264 0.0589 -0.3788 -0.716 0.621 0.320 68 56 39 0 0
-0.1292 0.0636 -0.3977 -0.351 0.552 0.757 160 145 112 0 0
-0.1307 0.0657 -0.3999 -0.351 0.552 0.757 93 75 50 0 0
-0.1264 0.0603 -0.4109 -0.901 0.175 0.398 84 67 41 0 0
-0.1166 0.0564 -0.6243 -0.305 0.945 0.121 36 28 19 0 0
-0.1167 0.0566 -0.6261 -0.305 0.945 0.121 38 30 21 0 0
-0.1159 0.0559 -0.6385 -0.035 0.928 0.370 19 14 10 0 0
-0.1156 0.0557 -0.6406 -0.339 0.915 0.218 19 14 10 0 0
-0.1181 0.0595 -0.6495 -0.480 0.634 0.607 28 23 19 0 0
-0.1187 0.0604 -0.6508 -0.480 0.634 0.607 28 23 19 0 0
-0.1435 0.0949 -0.6593 -0.378 0.925 -0.045 172 153 111 0 0
-0.1584 0.1181 -0.7215 -0.571 0.611 0.548 115 104 78 0 0
-0.1494 0.1090 -0.7933 -0.610 0.466 0.641 109 99 75 0 0
-0.1585 0.1249 -0.8699 -0.899 0.371 -0.232 138 135 130 0 0
-0.0344 -0.0727 -0.2028 -0.985 0.010 0.170 123 114 94 0 0
-0.0335 -0.0732 -0.2189 -0.822 -0.031 -0.568 106 99 86 0 0
-0.0803 -0.0082 -0.2369 -0.216 0.682 0.699 145 129 103 0 0
-0.0809 -0.0074 -0.2382 -0.632 0.544 0.553 186 169 130 0 0
-0.0882 0.0031 -0.2476 -0.729 0.630 0.267 111 101 84 0 0
-0.0884 0.0035 -0.2505 -0.640 0.745 0.185 218 202 171 0 0
-0.0996 0.0199 -0.2731 -0.300 0.779 0.550 53 37 23 0 0
-0.1014 0.0227 -0.2799 -0.618 0.594 0.515 144 125 108 0 0
-0.1071 0.0309 -0.2895 -0.709 0.536 0.458 155 133 95 0 0
-0.1075 0.0316 -0.2908 -0.468 0.718 0.515 94 75 45 0 0
-0.1115 0.0375 -0.3026 -0.509 0.496 0.703 174 155 126 0 0
-0.1130 0.0398 -0.3064 -0.580 0.612 0.538 112 99 75 0 0
-0.1214 0.0523 -0.3280 -0.350 0.801 0.486 56 38 18 0 0
-0.1216 0.0526 -0.3294 -0.566 0.666 0.486 49 33 19 0 0
-0.1220 0.0532 -0.3307 -0.566 0.666 0.486 56 41 27 0 0
-0.1227 0.0542 -0.3335 -0.637 0.559 0.531 98 83 63 0 0
-0.1213 0.0536 -0.3607 -0.478 0.856 0.195 23 18 12 0 0
-0.1215 0.0539 -0.3621 -0.454 0.873 0.178 23 15 9 0 0
-0.1215 0.0541 -0.3652 -0.228 0.845 0.484 89 77 56 0 0
-0.1220 0.0548 -0.3666 -0.228 0.845 0.484 116 101 73 0 0
-0.1236 0.0573 -0.3735 -0.560 0.537 0.631 95 79 53 0 0
-0.1254 0.0615 -0.4107 -0.896 0.258 0.362 95 78 48 0 0
-0.1151 0.0568 -0.6169 0.301 0.911 0.280 36 27 18 0 0
-0.1150 0.0569 -0.6246 -0.377 0.917 0.131 36 29 21 0 0
-0.1173 0.0611 -0.6469 -0.287 0.954 0.084 25 20 16 0 0
-0.1177 0.0617 -0.6485 -0.213 0.952 0.219 33 28 24 0 0
-0.1186 0.0633 -0.6551 -0.403 0.760 0.509 27 23 20 0 0
-0.1478 0.1052 -0.6984 -0.802 0.588 -0.101 61 52 35 0 0
-0.1476 0.1051 -0.7006 -0.802 0.588 -0.101 49 42 28 0 0
-0.1478 0.1054 -0.7022 -0.800 0.596 -0.070 64 57 45 0 0
-0.1482 0.1061 -0.7036 -0.725 0.664 0.185 72 63 53 0 0
-0.1415 0.1001 -0.7758 -0.135 0.958 -0.252 101 88 71 0 0
-0.1405 0.0992 -0.7832 -0.313 0.931 0.187 112 100 79 0 0
-0.1424 0.1018 -0.7848 -0.506 0.854 0.122 119 106 86 0 0
-0.1435 0.1035 -0.7873 -0.142 0.713 0.687 114 104 81 0 0
-0.1479 0.1098 -0.7956 -0.605 0.643 0.470 172 156 123 0 0
-0.1501 0.1130 -0.8008 -0.387 0.787 0.481 92 80 54 0 0
-0.1545 0.1192 -0.8048 -0.706 0.135 0.695 78 66 43 0 0
-0.1597 0.1275 -0.8281 -0.677 0.598 0.430 98 88 54 0 0
-0.1604 0.1300 -0.8628 -0.930 0.361 -0.069 102 97 86 0 0
-0.1581 0.1271 -0.8684 -0.888 0.406 -0.216 128 125 118 0 0
-0.0282 -0.0795 -0.1806 -0.905 -0.096 0.414 179 178 175 0 0
-0.0322 -0.0738 -0.1842 -0.958 0.046 0.285 175 168 162 0 0
-0.0341 -0.0697 -0.2182 -0.788 0.020 -0.615 108 99 75 0 0
-0.0817 -0.0033 -0.2481 -0.480 0.827 0.291 50 42 33 0 0
-0.0976 0.0195 -0.2689 -0.487 0.799 0.354 83 72 53 0 0
-0.0979 0.0200 -0.2703 -0.487 0.799 0.354 56 42 27 0 0
-0.0982 0.0204 -0.2717 -0.487 0.799 0.354 52 36 22 0 0
-0.0984 0.0209 -0.2731 -0.487 0.799 0.354 69 51 36 0 0
-0.0984 0.0209 -0.2746 -0.470 0.806 0.359 76 61 48 0 0
-0.1060 0.0319 -0.2894 -0.564 0.670 0.483 146 122 84 0 0
-0.1063 0.0324 -0.2908 -0.530 0.678 0.510 120 99 67 0 0
-0.1071 0.0337 -0.2934 -0.523 0.712 0.469 67 49 29 0 0
-0.1077 0.0347 -0.2977 -0.623 0.711 0.325 102 87 60 0 0
-0.1128 0.0422 -0.3089 -0.434 0.671 0.601 159 144 124 0 0
-0.1201 0.0529 -0.3265 -0.345 0.801 0.490 74 57 25 0 0
-0.1208 0.0541 -0.3307 -0.633 0.621 0.463 70 56 41 0 0
-0.1216 0.0552 -0.3334 -0.633 0.621 0.463 63 50 34 0 0
-0.1219 0.0562 -0.3455 -0.761 0.617 0.203 50 34 18 0 0
-0.1201 0.0546 -0.3622 -0.428 0.875 0.224 26 17 12 0 0
-0.1200 0.0545 -0.3638 -0.388 0.783 0.487 28 17 8 0 0
-0.1204 0.0551 -0.3652 -0.388 0.783 0.487 60 47 27 0 0
-0.1208 0.0558 -0.3665 -0.388 0.783 0.487 108 93 66 0 0
-0.1237 0.0606 -0.3836 -0.525 0.791 0.313 56 39 22 0 0
-0.1244 0.0616 -0.3864 -0.577 0.750 0.323 48 32 18 0 0
-0.1240 0.0621 -0.4091 -0.578 0.808 0.112 97 82 54 0 0
