ply
format ascii 1.0
element vertex 671
property float x
property float y
property float z
property uchar diffuse_red
property uchar diffuse_green
property uchar diffuse_blue
end_header
-0.05810114862952677 -0.04505353318169619 -0.29157635694822415 34 29 24
-0.05790383035669365 -0.04412922752154776 -0.2934551066522417 24 19 16
-0.05822288376941404 -0.04486233155540159 -0.29483229270520844 17 12 11
-0.05823116820819205 -0.0445972433095399 -0.2965154535716466 16 14 12
-0.05832143161855398 -0.04459509104302946 -0.29812010978591424 16 14 12
-0.05851735803802409 -0.04493222546137349 -0.29962133426892285 7 7 6
-0.05876816402731044 -0.04544566669400714 -0.3010683331598442 8 7 5
-0.05973441882161446 -0.04767388652956318 -0.3051926999916251 62 57 54
-0.05970673633611541 -0.047290989352925 -0.3069245095957548 16 11 11
-0.060166236479999455 -0.04847614136229871 -0.30815801153791517 12 8 7
-0.06047392929610852 -0.04917272669182493 -0.3095465474979031 46 44 40
-0.060623303094530435 -0.04935934055407588 -0.3110993651265675 60 58 53
-0.060837148059178045 -0.04975349169386182 -0.3125860656375257 30 29 24
-0.061084754461037435 -0.05025636878243907 -0.3140378790967201 24 23 19
-0.06194214608382326 -0.05272542551368475 -0.314845567472936 20 18 15
-0.062285926923209334 -0.05353899770231808 -0.3161923573089584 21 18 14
-0.06235769152167815 -0.05347509534698624 -0.31782874696066893 66 62 58
-0.06259565506099325 -0.05394719136368902 -0.3192889419976654 42 41 36
-0.062432829501189724 -0.05312538621560471 -0.3211818000034733 28 25 21
-0.06266314231540072 -0.053572277782205954 -0.3226531821221818 23 19 16
-0.06283050759353821 -0.05381576564662055 -0.3241935898001014 27 25 21
-0.0631256884854216 -0.05447204369589017 -0.32559513398616047 32 28 24
-0.0631058243364537 -0.05411012842367325 -0.32734319613102686 33 29 24
-0.06349398506306372 -0.05506680862171999 -0.3286430467622295 53 50 45
-0.06395892338678827 -0.05627201320578464 -0.32985620553817346 26 22 20
-0.0643558091607641 -0.057257448217115245 -0.33114323365428133 24 20 18
-0.064555684546273 -0.05760562356456351 -0.3326500975438742 31 26 23
-0.06441032522880924 -0.056836187757865475 -0.33454739965708685 31 26 22
-0.06515646445836873 -0.058952470772093576 -0.3354381275969177 28 24 21
-0.06482148790105972 -0.057568161117408125 -0.33755587790389296 21 17 14
-0.06445127958242719 -0.05606853659952884 -0.3397207835999709 26 22 19
-0.06415288932059307 -0.054800412041912196 -0.3418102256822609 34 30 28
-0.06287257291889947 -0.05034805743675386 -0.34504199116261486 22 18 17
-0.06534198405217083 -0.057750043632889665 -0.34568244097483586 17 13 12
-0.06625962877247811 -0.06042511310134373 -0.3463584483142045 16 11 8
-0.06709929253063854 -0.06284835458654268 -0.347119075933481 56 51 48
-0.0678969414946736 -0.06513630967558925 -0.34792301004379966 63 59 56
-0.06751299132363574 -0.06358795484991364 -0.35012806722301526 27 23 20
-0.06795758810029653 -0.06472991041744164 -0.3513491460632851 24 20 17
-0.06810594291038079 -0.06490955497456855 -0.35292439881887544 15 11 8
-0.06811122791226387 -0.06462390451631714 -0.35467387536912887 17 13 10
-0.0676442241655904 -0.06280206397643302 -0.35699965129040945 18 15 12
-0.067806152964313 -0.06302438605685332 -0.3585668867182849 36 29 26
-0.06776755973068006 -0.0625940884636764 -0.36038107535181335 32 26 21
-0.06846980564640642 -0.06457425460576371 -0.3612867893935088 22 20 15
-0.06824418410417143 -0.06353458872317783 -0.36333517074467436 26 24 19
-0.06824360634117929 -0.06322679149755445 -0.3651096436175823 37 34 29
-0.06816249995489113 -0.06265612713963215 -0.3669878049808089 68 64 58
-0.06767516076431063 -0.060761036361064044 -0.36937959752221755 31 27 24
-0.06702053594358731 -0.05831914841033718 -0.371991029719444 44 41 40
-0.06701502165758591 -0.05799184423612885 -0.3737915309592163 52 51 47
-0.06641834751092246 -0.055735883919284884 -0.3763471262181774 50 48 45
-0.0662928980148109 -0.05501556326458176 -0.37831084366962214 47 43 40
-0.06509644457570671 -0.05079914057023567 -0.3816539111364561 46 42 41
-0.0649077817327843 -0.04986975077739089 -0.38371481467630825 56 50 47
-0.06512522531584747 -0.050265598250015 -0.38525515639664093 67 59 49
-0.06534427531348197 -0.05066657435061549 -0.38679409731612296 78 69 58
-0.06515916514127856 -0.04974678709462406 -0.3888619899778671 57 50 44
-0.06498042078178234 -0.04884686589919786 -0.3909269836448765 34 29 26
-0.06479379553599635 -0.04792024565560968 -0.393007770478457 43 38 34
-0.06449639527982844 -0.046630363584327914 -0.39524082950991585 58 53 50
-0.07814040979739073 -0.053436614780189545 -0.5964468491143287 84 78 66
-0.07848978889042044 -0.05424865294748871 -0.5979012823634706 61 53 42
-0.07909230593710244 -0.05592173347527771 -0.5988283941427743 55 47 40
-0.0796911739648786 -0.05758318242635632 -0.5997585820337143 49 43 36
-0.08023590646015819 -0.0590611583493838 -0.60079767076931 73 69 61
-0.08134487862914974 -0.06246087419389443 -0.6006469156436255 91 84 78
-0.08204257386824035 -0.06446185231016219 -0.6013516876543731 93 85 77
-0.08302698939842669 -0.0674408174219567 -0.6014434385274502 80 77 67
-0.0840176252312898 -0.07044276408739225 -0.6015116595268306 65 62 53
-0.08512503950744219 -0.07384471385408631 -0.6013204716861236 62 59 48
-0.08573459713670117 -0.07555048701067946 -0.6021822161209281 80 75 69
-0.08654382048030423 -0.07793844160907668 -0.6026104980641074 92 87 82
-0.08740622571850422 -0.08050929312523125 -0.6029163981171828 84 79 73
-0.08848393517361014 -0.08381691390947865 -0.6027481766871742 76 71 65
-0.08899610193021137 -0.08519447689180376 -0.6037950433456326 73 68 62
-0.08944576670950483 -0.08635901107277275 -0.6049746029480316 78 73 66
-0.09009160941884554 -0.08819469858904667 -0.6057231211948743 76 71 65
-0.09054160223924612 -0.08936145670233095 -0.6068955724264277 57 52 47
-0.09064881319350879 -0.08935577182664532 -0.6088196529607233 44 38 35
-0.09150064880050912 -0.09189841318368831 -0.6091026804881717 33 28 23
-0.09215353610607695 -0.09376129219218689 -0.609817798776328 36 33 25
-0.09309636477216895 -0.0966183521503102 -0.6098828176242884 51 46 38
-0.09419076841567584 -0.09999657993660087 -0.6095996765994375 59 52 44
-0.09415936075010634 -0.09951741999396814 -0.6118239258835269 52 45 37
-0.09390560133571901 -0.09827485146075522 -0.6145524432458362 42 35 27
-0.09398154739116134 -0.09816202696316131 -0.6165462500336327 41 34 26
-0.09415056149369597 -0.09836807091346722 -0.6183328483115186 40 33 25
-0.09443790919156698 -0.09898010549469928 -0.6198527526491917 46 39 31
-0.0954014479411296 -0.10191478623218271 -0.6198330220422344 50 43 35
-0.09582795207159145 -0.10300590688151869 -0.6210297106297488 51 44 36
-0.09642633358356315 -0.10468824822495618 -0.6218301788749023 44 37 29
-0.09675830255244963 -0.10545525852797336 -0.6232385906819418 35 28 20
-0.09710071752232183 -0.1062583316788931 -0.6246221629583788 35 28 21
-0.09744244894929774 -0.1070592066737602 -0.6260064233726779 39 32 26
-0.09781709461542468 -0.10797355802878107 -0.6273133090673697 38 31 25
-0.09808753826222968 -0.10852924418670072 -0.6288617573574105 38 31 24
-0.09803473904840278 -0.10797108873319672 -0.63116670652562 37 32 22
-0.09802281209135821 -0.10755290043852517 -0.6333810558133549 42 38 27
-0.09788769693407798 -0.10670909094931094 -0.6358902891228669 47 43 32
-0.09780153417619512 -0.1060330042684936 -0.6382905177466592 51 47 36
-0.09756662786122969 -0.10484255276729175 -0.6410494052418348 49 43 33
-0.09759878972834354 -0.10457273546139652 -0.6431811654872687 42 35 30
-0.09760912878735935 -0.10422683997171096 -0.645369103333864 28 25 22
-0.09754930143403584 -0.10363773081615059 -0.6477295567200922 21 21 17
-0.09761757038222252 -0.10349045056912093 -0.6497877259410554 12 11 9
-0.0973092473043839 -0.10204026858686527 -0.652757562789394 10 9 6
-0.09738631126270353 -0.10192166856917076 -0.6548045760358147 14 12 10
-0.09746351096268363 -0.10180294771376702 -0.6568546842994596 18 14 13
-0.09762117200397383 -0.10196221419071108 -0.6587122476068363 21 17 16
-0.09776683054090719 -0.10207953909893092 -0.660601280815195 20 16 15
-0.09765799746615095 -0.10131462705385985 -0.6631166481040417 12 10 8
-0.09558311298219842 -0.09373331030191506 -0.6704751353828988 10 9 7
-0.09364733151260497 -0.086627727226531 -0.6775289024296534 9 7 8
-0.09357613050909179 -0.08598464913117707 -0.680001655099577 7 5 6
-0.09334711184020236 -0.08479279506592197 -0.6828725284541418 7 6 4
-0.0968515816646995 -0.09096960344020222 -0.7088744190726092 10 9 7
-0.09740210093354294 -0.09248706146038418 -0.7097866576696618 11 10 8
-0.09819774991671124 -0.09486204530013709 -0.7100507051703585 14 10 10
-0.09881136899261325 -0.0966019935048072 -0.7107859372632058 17 13 12
-0.09940620268108702 -0.0982771624077135 -0.7115654117482711 23 19 18
-0.10068458484754106 -0.10234538526319645 -0.7105267934380086 26 22 18
-0.10117141869419645 -0.10364521305603405 -0.7115775298263802 28 26 21
-0.10320278270525746 -0.11035547847272514 -0.7085018886538099 34 31 26
-0.10413203921025199 -0.11320902813754086 -0.7083478583591938 36 31 26
-0.10601552950469655 -0.1194096078065302 -0.7056190892608698 36 33 27
-0.10672540295877647 -0.12149898881448717 -0.7060260995893765 40 36 29
-0.10743840857328828 -0.12360061472601594 -0.7064173606407315 45 39 33
-0.10744487222764262 -0.12322350851902353 -0.7087179047387259 54 47 38
-0.10801383638449605 -0.12482080620861408 -0.7094925720518408 63 56 45
-0.1089587150938261 -0.12773955610899662 -0.7092360626029038 72 64 49
-0.10957181311091957 -0.12949421793559113 -0.7098767913701711 87 74 58
-0.10995746437225326 -0.13045014054955095 -0.7111367695782368 114 99 78
-0.110294435431044 -0.13123512199604553 -0.7125292144445987 100 85 60
-0.11114487878405392 -0.13382721895759636 -0.7125009311157243 110 95 64
-0.11199441475781825 -0.13641783303853983 -0.7124652403272212 122 102 70
-0.11243483050848477 -0.13756917604612928 -0.7135581390108331 134 115 76
-0.11249688134119051 -0.13738775064282344 -0.7157046052797574 163 143 102
-0.11300360679959465 -0.1387732122812314 -0.7166096937909965 130 109 71
-0.11310983672912389 -0.13874690188064065 -0.7186360603412685 117 98 65
-0.11343889022943728 -0.1395062231181733 -0.7200376281268922 84 67 38
-0.11366305909903551 -0.1398954505602623 -0.7217349828560663 99 81 49
-0.11368551246621396 -0.1395721527267802 -0.7240055824495575 147 127 88
-0.11384699114607036 -0.1397392026539681 -0.7258853561016623 150 128 86
-0.11397418654343652 -0.13978469022224774 -0.7278652396922056 154 134 93
-0.11409838009478943 -0.139819066243244 -0.7298565998003784 135 118 81
-0.11370613158493191 -0.13802597654214582 -0.7333342978963366 121 104 68
-0.11340907574720079 -0.13656766508411947 -0.7365500163509112 126 108 72
-0.11311831697843125 -0.13512981804812943 -0.7397581538156798 114 96 60
-0.11276928172223519 -0.13348372132642883 -0.7431458084291025 115 97 61
-0.11246329587026835 -0.1319881780347408 -0.7464198852435604 131 112 79
-0.11202655294934916 -0.13002716662208447 -0.7500863767798219 117 99 66
-0.11155206222100342 -0.1279299659105489 -0.7538766763572899 94 79 47
-0.11086439583968422 -0.1250738675842646 -0.7583069478141836 86 72 42
-0.11004499789255706 -0.12174699000194 -0.7631432395444036 78 64 37
-0.10983286439176335 -0.1205734349132482 -0.7662058534622276 79 67 41
-0.10967169852424467 -0.11957937091068177 -0.7691267752568335 84 72 49
-0.1094091787519823 -0.11822354047442965 -0.7723574797250465 69 57 37
-0.10943513740261257 -0.11789191242650057 -0.7747382099116626 58 45 27
-0.10947816301380653 -0.1176201435798798 -0.7770729136159958 53 41 23
-0.1097463399579065 -0.11814904519002134 -0.7787366806858402 45 35 18
-0.11012640943090182 -0.11907634532706518 -0.7800641587651016 37 28 13
-0.11050175688698391 -0.11998708892236587 -0.7814043419391705 35 26 13
-0.11082176118432809 -0.12070080926454382 -0.7829106910256279 34 25 12
-0.11116958900762568 -0.12151382970312669 -0.7843320656852898 34 24 11
-0.1115173019112051 -0.12232660575621596 -0.7857528302411441 34 23 12
-0.11181595680996718 -0.12296443565054871 -0.7873226189806384 32 21 10
-0.11204072174018975 -0.12333840164501586 -0.7891189764024122 32 21 9
-0.11235474244608991 -0.12403102123591425 -0.7906421255328726 36 25 12
-0.11265807916271771 -0.12468550832323239 -0.7921979165031812 37 26 13
-0.11305643038865233 -0.1256797927662504 -0.7934594834515186 37 27 13
-0.11329631456340625 -0.1261074657105122 -0.795211130052182 40 29 16
-0.11354650117460016 -0.126571826889608 -0.796931778647408 42 30 18
-0.11388694324515902 -0.12735923844657873 -0.7983713592643505 42 30 19
-0.11432236927438928 -0.12848708971375203 -0.7995124524816938 43 30 19
-0.11482579243145617 -0.12985912562576907 -0.800437135740637 43 31 16
-0.11532417715659227 -0.13121378320546623 -0.8013737076682601 49 36 20
-0.11559512930907173 -0.13175316549072788 -0.8030256584185906 63 49 29
-0.11605655789850514 -0.1329761466124716 -0.8040738365958157 75 59 35
-0.11644813191068379 -0.13394883388660522 -0.8053410830216603 82 65 40
-0.1169495097364216 -0.13531633410891172 -0.8062559869645118 89 72 46
-0.11735317469706988 -0.1363333102306302 -0.8074797136265833 82 62 39
-0.11749550336838727 -0.13641086817081588 -0.809540586668919 75 53 30
-0.11774899279871118 -0.13688783717214406 -0.8112463920066326 78 54 31
-0.11798961333258629 -0.13731834177534602 -0.8129946089422335 82 57 30
-0.11814639265159324 -0.13744673297044657 -0.8150156398349043 104 80 49
-0.11831368085118299 -0.13761251201209349 -0.8170052577620274 122 98 68
-0.11868473329299614 -0.1385123350132885 -0.8183329997813136 94 70 42
-0.11902006312627858 -0.13928358870325364 -0.819776090718172 93 69 43
-0.11938060715087981 -0.14014595038826985 -0.8211356798667724 86 62 33
-0.11981298879326235 -0.1412678487211703 -0.8222575886399053 88 65 33
-0.11974857087580659 -0.1405960486851404 -0.8250165247432784 100 78 44
-0.1200229815519309 -0.14114725308470333 -0.8266609344208777 113 93 59
-0.12043398744038664 -0.14219216255275832 -0.8278521867801669 91 74 44
-0.12078086757354214 -0.14300555021722763 -0.8292547156738901 117 102 71
-0.12113404233432806 -0.14384189135542236 -0.8306351885412525 114 99 68
-0.1214516896197701 -0.1445498175553134 -0.8321335572429528 111 98 66
-0.12192989061112704 -0.14583932806961417 -0.8330918381713037 114 103 71
-0.12229752898499381 -0.14672883814041193 -0.8344191549054449 103 90 59
-0.1222271094132992 -0.14603046372431483 -0.8372263095319934 107 91 60
-0.12238630927960911 -0.14616366734916209 -0.8392621336723667 126 109 77
-0.12322136679523123 -0.14874902996498246 -0.8390015029901418 120 101 69
-0.12347075338079101 -0.14920990290829048 -0.8407282651739214 126 110 77
-0.1227306894926129 -0.14607645428591107 -0.8458424123430186 121 105 72
-0.12428978596760948 -0.15129506160886994 -0.8430852401669084 132 116 84
-0.12447026285966854 -0.15150545364824944 -0.8450488222068788 123 108 77
-0.12460460185219878 -0.15154759331183548 -0.8471741250686552 136 121 84
-0.1248085100179871 -0.15184236086331324 -0.8490617921862158 159 141 107
-0.12492325568613996 -0.15181212113891634 -0.8512611527341979 130 114 82
-0.1251648432944834 -0.1522433421088329 -0.8530222744937832 131 116 82
-0.12529763169650432 -0.15227779147761342 -0.855164815858947 112 101 76
-0.1255758004040994 -0.1528418271927069 -0.8568011160191438 71 65 50
-0.12629355688480262 -0.15500969527086542 -0.8568920945857247 56 53 42
-0.12659618118758817 -0.1556636724989821 -0.8584382753811624 55 52 44
-0.12726608564635478 -0.1576590845773906 -0.8586851123460311 67 63 54
-0.12517621478438973 -0.14911532201613667 -0.8713596869152864 139 134 130
-0.046157531515732944 -0.01826935870823055 -0.20742698018039676 179 177 178
-0.046463817803500174 -0.018962348238170168 -0.20881504027387332 179 177 179
-0.04666686576989891 -0.019327515031392836 -0.21027377101145472 177 177 180
-0.04662722946240577 -0.018921587505505023 -0.2119013441798098 173 174 174
-0.04634292503580853 -0.017737638016633625 -0.21370270734095814 176 178 172
-0.04629161175558119 -0.017293334289809968 -0.21534568651843095 173 168 159
-0.04692909648528601 -0.019038503470602243 -0.21650421199519612 143 134 120
-0.04699097603161412 -0.018953688271153186 -0.21806938468796655 123 113 94
-0.04725945880953951 -0.01952576594055872 -0.21948829825189953 94 83 62
-0.04737480917508205 -0.019610568076597813 -0.22101786118665517 80 68 50
-0.04749183302813568 -0.01970043392549798 -0.22254770875506247 73 61 43
-0.04750963884303513 -0.01947414917293249 -0.22415172581098583 80 69 50
-0.04778137875793699 -0.02005612559777499 -0.22557094669190464 93 81 63
-0.048031333484668634 -0.02056871134913662 -0.2270063034860756 104 93 76
-0.04828131761218093 -0.0210813596234875 -0.22844181636771813 101 92 74
-0.0483910120761281 -0.021146835219243702 -0.22998306158536033 94 85 68
-0.048630325516610964 -0.02162527887046764 -0.23142771302059087 96 88 71
-0.04878622106598579 -0.02183765094778479 -0.23293624800189897 95 86 71
-0.04881326162859158 -0.02163879252040693 -0.23454478776627932 113 104 91
-0.04881612916548562 -0.021362380426659958 -0.23617441618791873 123 117 106
-0.04864691184354909 -0.020536266737855614 -0.2379404938973571 135 129 120
-0.048929627860244754 -0.02115219432460555 -0.2393573575618997 157 152 145
-0.04870336557223503 -0.02014276770114337 -0.24117489938673137 173 170 163
-0.04841678687051386 -0.01893979797192178 -0.24304524200310434 150 147 140
-0.04846468363660742 -0.018804554751826102 -0.24465442850846864 60 55 48
-0.048511611255212514 -0.01866582089706896 -0.24626663969891047 38 32 24
-0.04861022639351488 -0.018691933861557562 -0.2478393635668201 38 33 24
-0.048603661068018916 -0.018381391117492173 -0.24949932182590934 43 34 26
-0.04933060154440492 -0.020416645822143267 -0.25056216466519393 46 37 27
-0.05107304347989719 -0.02570194025117962 -0.25078460238400113 58 49 37
-0.051614891892049874 -0.027147341759561953 -0.25198621848520125 54 44 35
-0.05187139431396812 -0.027679720848845457 -0.2534227973371805 47 38 31
-0.05068726436743844 -0.023598724732005957 -0.25606723561232947 35 29 24
-0.051284393932647235 -0.025220866577709562 -0.25722414828948414 16 14 13
-0.051054346774213194 -0.02419323296551417 -0.25907964531494115 10 10 11
-0.050936562203728955 -0.023524501703946724 -0.26084444240806137 8 8 8
-0.05098353487130847 -0.023383267671241936 -0.2624717274839814 7 7 7
-0.050702346509141155 -0.02218927779837264 -0.26438487691414697 6 6 6
-0.05097963321570102 -0.022785721119973984 -0.2658182807574355 6 6 5
-0.05286519192301891 -0.028542522625199185 -0.2658452920947175 11 10 7
-0.05328820082176646 -0.029608150467167894 -0.2671420357795982 50 46 41
-0.05433409454871806 -0.03267379587907562 -0.2678860402659514 78 73 64
-0.05535364285444896 -0.0356562520433748 -0.2686454051472501 93 86 77
-0.056040296985971835 -0.037570732643806094 -0.26969496077265515 76 69 62
-0.05646358851441346 -0.03863974561160363 -0.27097729522403524 52 44 38
-0.056494277337308704 -0.03844717819442099 -0.27261358828743887 37 31 26
-0.056743717738423266 -0.03895746626153285 -0.27405309442044684 28 23 19
-0.05695495741600895 -0.03934486907699875 -0.27552779511296005 14 12 9
-0.0566766672999002 -0.038157418772811376 -0.2774541812461908 11 9 9
-0.05641816034022782 -0.037032618560432766 -0.27936799250087024 17 15 16
-0.05657348609048431 -0.03723885032079626 -0.28090166691633706 5 3 4
-0.057122974490364214 -0.03871393020680848 -0.2820670898177421 5 3 4
-0.05723154536976034 -0.03876952946376332 -0.2836451541731047 9 6 6
-0.05796150781791084 -0.040826635997059504 -0.28463589217900986 37 34 31
-0.05834554391776128 -0.041769881214145085 -0.28595147673799737 99 96 89
-0.05872934947582997 -0.042712598543782725 -0.2872660523566247 132 127 121
-0.059112821757408396 -0.04365445664421646 -0.288579718608704 85 80 74
-0.05949602960231154 -0.04459567715427155 -0.2898924109698781 45 40 34
-0.05952282159569806 -0.04438726063688144 -0.29155123012555206 35 30 25
-0.05965904604858564 -0.04453153987304758 -0.29310539929937945 32 27 23
-0.060193771255905304 -0.04596194383775792 -0.2942683386306326 21 16 15
-0.059874255735778995 -0.04463452879742046 -0.29627470528715033 17 13 12
-0.05997881196641449 -0.044675721431730916 -0.2978649954185044 19 16 14
-0.06013826312632399 -0.04489396175529717 -0.2994020818011623 6 6 6
-0.060817397249997955 -0.046791509917137604 -0.30041708892992736 13 12 10
-0.06222292297816852 -0.05044492444471856 -0.3040819202119136 69 64 61
-0.06128988454459169 -0.04712863452734161 -0.3067408221297096 16 11 11
-0.061489577433363196 -0.047476207335843075 -0.30824150978708414 15 11 10
-0.0617404932310127 -0.04798948245407066 -0.3096897087203231 58 54 50
-0.06200521200887797 -0.048547423164209694 -0.3111236837151861 78 74 70
-0.06240841361976267 -0.04955396139255014 -0.3124122345521132 27 23 20
-0.06290049100386515 -0.050848749821291866 -0.31360546363318886 14 10 7
-0.06317146449089245 -0.05142729048140516 -0.3150309353886096 21 16 13
-0.06378684936478861 -0.053122528059400105 -0.31608890337398315 45 40 36
-0.06386672726305495 -0.05308163115041296 -0.317717379141329 73 68 64
-0.06411103202920262 -0.05357381193228245 -0.3191706846422962 49 45 40
-0.06404902179541944 -0.05307188392250572 -0.32095617542731636 17 14 10
-0.06421904431699182 -0.053322537485750054 -0.32249262577335625 13 11 8
-0.0643087618078691 -0.0533122342939823 -0.32411808554571114 21 17 16
-0.0645646370064746 -0.053841285533243355 -0.3255627292830696 25 22 19
-0.06456779357683534 -0.0535491973885096 -0.3272869854289756 30 27 24
-0.06491247394824534 -0.054366574428258194 -0.32863464262008224 26 23 21
-0.06528348826362636 -0.05526971228638107 -0.3299520437615982 20 18 16
-0.06574504976511567 -0.056467514069236564 -0.3311666569116661 18 16 14
-0.06602531992076038 -0.05707594535196927 -0.3325836503603961 23 19 16
-0.06607898934331927 -0.056947033710115134 -0.3342574530133804 42 38 34
-0.06618564725302543 -0.056990174992048295 -0.3358733055983915 47 43 40
-0.0660621739987221 -0.05628368751591392 -0.33775452897184166 29 25 22
-0.06575337383102145 -0.05497281408856985 -0.3398534723026413 14 10 7
-0.06550903511464544 -0.05387080726019494 -0.3418844263630694 20 16 14
-0.06704622377916816 -0.057961702336908075 -0.34534827731305734 15 11 10
-0.0678617208092394 -0.06031500292185573 -0.34613995693232114 20 15 13
-0.06909129196227623 -0.06402050381812169 -0.3464347485722759 75 70 67
-0.06959638006687334 -0.06536323925720626 -0.34758116817343526 60 56 53
-0.0692132553590428 -0.06380645965939077 -0.3497875413454346 26 22 19
-0.06967989185731052 -0.06502366944483082 -0.3509798633548944 21 17 14
-0.06976427931146524 -0.06499247531695868 -0.3526316351712656 21 17 14
-0.07080932771759352 -0.06810034184756031 -0.3531196065927016 18 14 11
-0.06974855897423765 -0.06432585193136992 -0.35616655887703574 18 15 12
-0.06975229319385867 -0.0640296121312218 -0.35792462616258613 43 37 34
-0.06955488260591516 -0.06307488158752142 -0.35993339470180524 36 29 25
-0.06962700526939714 -0.06300112663546503 -0.3616142215135275 45 43 38
-0.06943167118729492 -0.06205156439626787 -0.36362971421280643 14 13 9
-0.06950227723182344 -0.0619717625237933 -0.3653186140584577 25 23 19
-0.06987192145817207 -0.06287093334335936 -0.366634761343983 66 63 58
-0.06984449549808544 -0.06246945176555381 -0.36845013641696645 40 36 33
-0.07013239515751277 -0.06310072939160274 -0.36986979527895786 43 40 37
-0.06847186745776332 -0.05734473818647286 -0.3737674827353361 47 46 41
-0.06826400342907964 -0.056348364207719964 -0.37583169233448843 53 52 47
-0.06785066578064061 -0.05467699510136907 -0.37816533093038435 42 38 35
-0.06717450928823214 -0.05214182606087288 -0.38084600306200045 38 34 33
-0.06669179242919498 -0.05023961976947937 -0.38328731152622214 50 44 41
-0.0668488473781104 -0.050436436043251154 -0.3849049847825471 63 55 45
-0.06690629081721006 -0.05030584343333726 -0.38665429248804406 81 73 62
-0.06691981048464857 -0.05003048837563388 -0.3884638803004132 65 59 50
-0.06677804149671294 -0.0492442351983052 -0.3904814580473635 38 34 27
-0.06668424166859462 -0.04861480859740666 -0.39244045284810786 31 26 21
-0.080707798219978 -0.056124872486557065 -0.5943934116534625 73 66 57
-0.08039084586102899 -0.054660242281003635 -0.5972286507670478 45 40 33
-0.08111600470496226 -0.05675965511178993 -0.5978937522620471 40 36 32
-0.08169941727377725 -0.0583750123321099 -0.5988499193928603 48 45 39
-0.08214205920425724 -0.059509103542078584 -0.6000982468493608 74 70 63
-0.08346492737963207 -0.06365876021471589 -0.5994839946185855 88 81 76
-0.08382335558394277 -0.0645062007666056 -0.6008999085478116 84 79 75
-0.08480992207289731 -0.06750712045496332 -0.6009778588656993 72 71 66
-0.08581726695895622 -0.07058112134406569 -0.6010010038836998 63 60 53
-0.08698919263547573 -0.07422163537737098 -0.6006605993437377 60 57 47
-0.08783704645211148 -0.07675224947833606 -0.6010040113437857 85 80 73
-0.08885176523100964 -0.07985724401759767 -0.6009788006768949 93 88 83
-0.08956609800885426 -0.08193243046619703 -0.601593306927045 81 76 70
-0.09035901322794831 -0.08427875566878655 -0.6020305400785055 75 70 64
-0.09110937153337044 -0.08648014007542121 -0.6025529395968475 70 65 59
-0.09143524820972436 -0.08722310470620873 -0.6039974901041564 75 70 64
-0.0918002047962754 -0.08810060619186583 -0.6053556146618555 73 68 63
-0.0920320847700637 -0.08852035194114095 -0.6070058975582109 54 49 45
-0.09290438570201304 -0.09114471607170842 -0.6072404527003106 43 36 33
-0.09354206676753758 -0.09296261393101649 -0.6079867982473575 47 41 36
-0.0945468158362578 -0.09604614376560501 -0.6079101637926402 54 51 41
-0.09561299390068803 -0.09934334069041259 -0.607685157094824 62 59 47
-0.09630040786465474 -0.10133663926071185 -0.6082975748926602 52 45 37
-0.09681652494120455 -0.10274015053157234 -0.6092892708190506 41 34 26
-0.09616499831451983 -0.10011499382910789 -0.6129142466189107 41 34 26
-0.09571114612265863 -0.09816969173187146 -0.6161058401799366 41 34 26
-0.09583194282495291 -0.09820693276482415 -0.6180022911567736 44 37 29
-0.09592560589136309 -0.09814997788024628 -0.6199632369333694 49 42 34
-0.09717677969248248 -0.1020931445893953 -0.6192770965970817 50 43 35
-0.0978082491036748 -0.10389625273427916 -0.6199994945712711 45 38 30
-0.09819492937645108 -0.10485358613124583 -0.6212807428349756 42 35 27
-0.09843551242696338 -0.10530564722620146 -0.6228983264652187 38 31 23
-0.09865553329255333 -0.10568640371244886 -0.6245643383972614 39 32 24
-0.09880990526455505 -0.10583962820263401 -0.6263842687943102 39 32 23
-0.0989192196475491 -0.10583638624766846 -0.6283115639173867 39 32 23
-0.09875167363594661 -0.10487307957156408 -0.6308908144915462 38 31 22
-0.09898303564966122 -0.10529164859373202 -0.6325387775522512 49 44 33
-0.09919996280160406 -0.10565999451854795 -0.6342216894689515 52 48 37
-0.09938908703473867 -0.10593166780460025 -0.6359715628787057 51 47 36
-0.0994350473786943 -0.10570607501872317 -0.6380632397824131 51 47 36
-0.0993320885515839 -0.10496262484055792 -0.6405138947446551 53 47 37
-0.09942797601130929 -0.10490893300509868 -0.6424950345721586 45 39 33
-0.09942864042204655 -0.10452373331615897 -0.6447078605611997 26 24 19
-0.09943436143935216 -0.10415530654362047 -0.6469131324992273 15 16 12
-0.09946009656225287 -0.10385570204710734 -0.6490745912652374 16 16 13
-0.09950375539454688 -0.10361772797111922 -0.6511968337426373 21 19 17
-0.09954748284976624 -0.10337929786106995 -0.6533228804718108 23 21 18
-0.0993465530769897 -0.10228807468389697 -0.6560501870167759 29 26 22
-0.09931206206279466 -0.10177536705511481 -0.6583777987369758 22 18 16
-0.09937148602924831 -0.10158909057826304 -0.6604798945720668 18 14 13
-0.09938811771787476 -0.10125293328711377 -0.6626912767612333 10 9 7
-0.098335479684032 -0.0971857967408078 -0.6675525314900999 10 9 7
-0.09622995792127591 -0.08944024736862435 -0.6750493881837365 9 7 8
-0.09469222656094065 -0.08367018059788747 -0.681171691662093 7 5 6
-0.09540784678549138 -0.08576548666530853 -0.6816937047696184 7 6 4
-0.09761282024793179 -0.08777627068842711 -0.7087047320363016 9 8 6
-0.09845662131916852 -0.09032911707215752 -0.7088503314852379 9 8 6
-0.09885779354888974 -0.09132712590618536 -0.7101521879748774 11 10 8
-0.09963703835392804 -0.09365547868336332 -0.7104534216767575 14 10 10
-0.1007405404248943 -0.0971264813408095 -0.7098869266109384 19 15 14
-0.1050752707041555 -0.1115705810228399 -0.7030360207683348 26 23 19
-0.1054217548298906 -0.11238441980046379 -0.704435393224576 31 28 23
-0.10460462759518467 -0.10909614783155624 -0.708958144317775 35 32 27
-0.10562417619965367 -0.1122824453390264 -0.7085526625808567 36 32 27
-0.10686888665930477 -0.1162654422289125 -0.7075260543731001 39 33 28
-0.10809305542446046 -0.1201788334908026 -0.7065385234269385 42 36 28
-0.10921579277560384 -0.12373686706815995 -0.7058105625627438 49 41 33
-0.10939421887740386 -0.12396110936430452 -0.707644677417461 59 52 42
-0.10993536510193863 -0.12546709535243664 -0.7084878222727016 67 60 48
-0.11059166405864036 -0.12738105749629758 -0.7090103004361874 75 66 51
-0.11136116340421612 -0.12969662424053963 -0.7092144317645606 79 67 50
-0.11184376627828126 -0.13099827762576488 -0.7102029939704806 109 95 73
-0.11216948976069147 -0.13174505499368 -0.7116230816202888 100 88 62
-0.1127720821871927 -0.1334727207108107 -0.712272366432545 103 87 57
-0.11346866770113337 -0.13553447063094906 -0.7126537658258101 130 110 73
-0.1138093368390227 -0.13633560479020612 -0.7140242017271496 126 107 68
-0.11419080852203534 -0.1372816359889131 -0.7152790877891831 134 114 74
-0.11441658224990435 -0.13767545407610512 -0.7169709115064807 115 93 57
-0.11464907037712 -0.13809291893713427 -0.7186448476808797 127 109 73
-0.11486750161071609 -0.13846028726708998 -0.7203596092554172 86 70 40
-0.1150652514069242 -0.13875395288535652 -0.7221344207962753 105 90 58
-0.11528403326465719 -0.1391221044669929 -0.7238508288231973 130 112 76
-0.11532583761689612 -0.13886062280633377 -0.7260750238543984 143 123 85
-0.11528639506220767 -0.13830928106762735 -0.728536950055442 146 128 88
-0.11549366815307455 -0.138635125143717 -0.7302941666305474 127 111 74
-0.11561549856542469 -0.13865643021629637 -0.7322997335903001 109 93 57
-0.11499266830706437 -0.1360240882540845 -0.7364668448736749 128 110 74
-0.11459401116470132 -0.13418788558310363 -0.7399987656776263 120 102 66
-0.11438966834501957 -0.13304241333869338 -0.7429764824798116 110 94 58
-0.11420016020151394 -0.1319482777873672 -0.745919868051523 122 104 71
-0.11381804222024797 -0.1301651177595336 -0.74943747145648 117 100 67
-0.11332242342286045 -0.12797448467111455 -0.7533017111821244 98 85 53
-0.11276273723728919 -0.12555242156393712 -0.7573697597400812 87 75 46
-0.11218557212674837 -0.12306512153680468 -0.7615054004411315 79 67 40
-0.11155384267674626 -0.12037988131752633 -0.7658194076687642 77 66 41
-0.11131812951893819 -0.1191083287822853 -0.7689698443560531 91 80 57
-0.11123747461671514 -0.11838999922973564 -0.7716664025042581 72 60 38
-0.11117301074508448 -0.11772841149304156 -0.7743214255183888 61 49 28
-0.11110183931822629 -0.1170416113765225 -0.7770034022415909 64 51 33
-0.11146419191603803 -0.11790732988632843 -0.7783833916680277 63 54 35
-0.11177549474006745 -0.11859021963691882 -0.7799167621147017 49 40 24
-0.1121031982674664 -0.11933199011755774 -0.7814000357520252 42 33 20
-0.1124331477222539 -0.12008192279134242 -0.7828758832826666 47 38 26
-0.11281958548593463 -0.12103479007301515 -0.7841784186536839 45 36 24
-0.11316564696927281 -0.12184291434221964 -0.7856030668048148 44 35 23
-0.11354551889967318 -0.12277271414714713 -0.7869227734777042 39 30 17
-0.11383884026899614 -0.12339159330524577 -0.7885079534042508 36 27 12
-0.11416826566771476 -0.12414033628832727 -0.7899814487358674 41 33 18
-0.11448133907501742 -0.12483033975389257 -0.7915050844905102 44 36 21
-0.11485754641357267 -0.12574771891344663 -0.7928317805091528 48 39 23
-0.11512384274377643 -0.12626943514934702 -0.7945003064290392 51 40 24
-0.11541911154679327 -0.12689546550242148 -0.7960786255185743 56 44 29
-0.11568635242469794 -0.1274204319453215 -0.7977450711340615 60 48 34
-0.11608260188290856 -0.12841068097910938 -0.7990053131325421 57 45 30
-0.11655287852354251 -0.12966843894563643 -0.8000294840081378 64 52 34
-0.11700128516676318 -0.130847822133894 -0.8011196496070395 69 56 35
-0.11754069503843659 -0.13235647390099287 -0.8019172419199814 82 68 43
-0.11770003509264555 -0.13249230960249972 -0.8039232896613835 91 74 48
-0.11877068930086226 -0.1359229174962746 -0.8030140648643636 91 74 47
-0.1193816160172521 -0.13769306256099387 -0.8035661287078152 99 81 53
-0.11957268667254911 -0.137944683556151 -0.8054645780018614 93 73 48
-0.11916662224695948 -0.1360336608303924 -0.8092947175440107 82 60 36
-0.11960324575401934 -0.13717312525269973 -0.8104072503941955 78 56 31
-0.11976236758814675 -0.13730725533795884 -0.812419234481879 84 60 33
-0.11966559947155178 -0.13651297367376553 -0.8152684638153365 107 85 53
-0.12008950447599678 -0.13760635406390606 -0.8164222626502624 110 87 57
-0.12057856011184047 -0.1389366660155541 -0.8173597288861443 95 71 42
-0.12071073240306064 -0.13897161160059282 -0.8194679295399632 91 67 41
-0.12046287360332131 -0.1376252078377337 -0.8228340252983481 87 63 35
-0.12161941213990182 -0.14138198651522377 -0.8215605470291636 86 63 32
-0.12141168845820371 -0.14018018914361116 -0.8248010997274474 94 72 37
-0.12152405782870473 -0.1401413062371725 -0.8269854091413329 117 97 61
-0.12194848960379517 -0.14123780085712234 -0.8281306097920185 95 77 47
-0.12234610888182713 -0.14223709544437507 -0.8293630797603448 115 100 71
-0.12272670382418194 -0.1431747158082768 -0.8306507205442112 105 91 61
-0.12313959221855615 -0.1442303718513597 -0.8318277311445856 106 92 62
-0.12335621937408021 -0.14457057749331567 -0.8336662124525855 109 98 67
-0.12427632233109562 -0.14747771274908097 -0.8331195558420252 101 86 56
-0.12416020378230318 -0.14660371748227852 -0.8360864254453603 99 83 52
-0.12426859760161588 -0.14654836659357612 -0.8382954229732535 112 95 62
-0.12486002897516545 -0.14825771517861955 -0.8388544948179306 113 94 62
-0.1252566428490131 -0.14925577464651782 -0.8400764672355225 115 99 66
-0.12456585959624397 -0.1462761005991767 -0.8450418623266289 120 104 71
-0.12569453917239642 -0.14995241578658694 -0.8437417397738811 129 115 81
-0.1258628796897897 -0.15011499147513394 -0.8457521413972428 120 105 74
-0.12603135188189118 -0.15027758381984352 -0.8477647470477689 137 123 88
-0.1261795939739113 -0.15036555211238284 -0.8498505485936924 143 127 97
-0.1264494357167129 -0.15089894645264543 -0.8515142473980646 121 109 79
-0.12669963603285767 -0.15136017253123707 -0.8532473874682879 116 105 76
-0.1269576186927805 -0.15184979955786768 -0.8549541199318663 88 78 56
-0.12732811238438166 -0.15275254510457337 -0.8562646721807112 61 55 39
-0.12787226163354895 -0.15429373637044114 -0.8569590730452034 51 48 37
-0.12826791628474066 -0.15528986884724336 -0.8581753080033158 49 46 37
-0.12876053529141046 -0.15664307108508024 -0.8590441886579263 63 59 50
-0.12965771133330378 -0.1594859875181108 -0.8584641773942807 100 95 87
-0.04859556491855072 -0.01974661745479199 -0.21307832472292731 177 177 181
-0.048527513066858506 -0.01924449068585434 -0.2147301712731871 177 177 177
-0.0482134552769421 -0.01795570930998404 -0.21656018783777964 177 175 171
-0.048283118453469 -0.017892357943001716 -0.2181212878861748 170 167 161
-0.04823349378430118 -0.017447286541253826 -0.21977031771338174 151 147 142
-0.0483118883988733 -0.017411057340229782 -0.22132959107048944 143 140 135
-0.048585070699829064 -0.017997588894867418 -0.22274842548638574 145 141 136
-0.048737615977023696 -0.018198124610910103 -0.22425595013608565 151 148 142
-0.04906903884682273 -0.01897097309695639 -0.22563214906017717 156 153 149
-0.049316710742062626 -0.019475805680184533 -0.22707015897384575 158 156 154
-0.04965152768946222 -0.02025967375222682 -0.22844296290104382 164 163 160
-0.049872535580612117 -0.02067909954816611 -0.22990109053127802 170 168 166
-0.050207331784376946 -0.021463037561975574 -0.23127314191117967 173 170 170
-0.05045476922530959 -0.021967105432758288 -0.2327114060976368 177 175 174
-0.05035438137965213 -0.021356028455635348 -0.23441792831971292 179 176 176
-0.0503038745248372 -0.020904252704465456 -0.2360894704515721 178 178 177
-0.050393498537526796 -0.020901408226546757 -0.23765482517728015 178 178 178
-0.05029727316004545 -0.020301920365897078 -0.23936802767697574 179 177 176
-0.04991020350980414 -0.01876830279189306 -0.2413149414629206 166 161 157
-0.049982117193520095 -0.018707038005002348 -0.24290319330216187 84 76 70
-0.05003638007591925 -0.018588734100687565 -0.24450759166207633 52 43 36
-0.050493504330752725 -0.019764126943968452 -0.24578943753505203 45 38 28
-0.05066977209663483 -0.020037427029733407 -0.24729720362357852 42 37 26
-0.05103232366305041 -0.02090928277868899 -0.24865386056186428 54 44 34
-0.052615349702557754 -0.025705078934142013 -0.24900705270680668 65 53 39
-0.0531565264205182 -0.0271528165865031 -0.2502079165922775 68 56 38
-0.053562778563690905 -0.028167028619623884 -0.2515181958974844 60 47 33
-0.054447375695696035 -0.030720657879129712 -0.2524267740494772 49 38 27
-0.054206089646867545 -0.02965164229535419 -0.25427695310123644 38 30 22
-0.054352502484364684 -0.029829898484402276 -0.2558039569333457 22 19 16
-0.05455709257026842 -0.030195287404810325 -0.2572826356062139 10 10 10
-0.05478345913126299 -0.030630709023860954 -0.258743301233053 7 7 7
-0.05274965522580027 -0.023783161494351494 -0.26215411861222915 7 7 7
-0.05278495927142629 -0.02360051266709539 -0.2637932018586369 6 6 6
-0.05485592760821226 -0.02998065720905075 -0.2636575241942897 6 6 4
-0.0561115978217305 -0.03373475872074037 -0.2642191176125799 12 9 6
-0.05671420270220982 -0.035383917955729885 -0.2653473721257126 48 43 37
-0.05631462031318981 -0.03379973961135835 -0.2673627645731419 91 84 74
-0.05710585044617608 -0.03605806048219846 -0.2683206478714621 140 133 121
-0.05785535691120601 -0.03818263922959142 -0.26931056387690294 104 96 84
-0.058265368093236306 -0.03921165040638051 -0.27060246868247273 78 70 59
-0.05866993852574896 -0.04022335066461746 -0.27189782393638307 55 49 42
-0.058548897157612606 -0.0395367592598505 -0.2736726479076742 36 32 28
-0.058403488000267914 -0.03877067063495063 -0.27547399831877833 24 21 19
-0.058431033377178004 -0.038563044345922025 -0.2771196443665652 18 16 16
-0.05803625200130512 -0.036988999683562326 -0.2791609534650769 12 11 11
-0.0583013642042825 -0.03754867491524285 -0.2805915498004162 6 4 5
-0.05898846509181645 -0.039474011574312615 -0.28162490243553345 5 3 4
-0.05891964962227857 -0.038953076675781614 -0.2833694862875038 9 5 7
-0.05900152073452162 -0.0389194502141083 -0.28497419787019823 42 38 36
-0.059586322030108815 -0.040514514993290215 -0.2860993717358083 66 62 56
-0.060183217169241146 -0.04214936499149257 -0.28720951946386325 56 51 45
-0.06099088970334166 -0.04446797201375082 -0.2881120774650414 35 30 23
-0.06146411678118694 -0.04570334707035937 -0.2893344396945614 32 27 21
-0.061486329568463324 -0.045476510852292186 -0.29099610225126393 28 23 18
-0.06165276023304388 -0.04571702990965439 -0.2925184552996117 17 12 8
-0.061871007344749686 -0.04612549025644457 -0.2939906208419236 17 12 11
-0.06282825631455083 -0.04893250456435614 -0.2947279261091469 19 15 14
-0.06253857907418942 -0.04769237674459955 -0.29670536572235 25 22 21
-0.061771387240042046 -0.04490034076157133 -0.29916921754980796 6 6 6
-0.06418165640762451 -0.05152775687085927 -0.3035062707929147 65 60 57
-0.06212149721674772 -0.04452554354932092 -0.30733264846835523 17 13 12
-0.06241302237964917 -0.04517009170383758 -0.3087417943045217 15 11 10
-0.06330656598078108 -0.047773959272154415 -0.3095220598687364 24 19 15
-0.06349424156801789 -0.04808109954801932 -0.3110364262869458 42 37 33
-0.06400137440151203 -0.049428382847786584 -0.312214588042252 30 25 22
-0.0641431325759762 -0.0495859433666767 -0.3137776962523442 24 19 16
-0.06443874904431579 -0.05024459058055928 -0.3151781547606929 29 24 21
-0.06494477513000846 -0.05158910209672356 -0.31635279638071195 48 42 39
-0.06520762512360015 -0.05214122925632404 -0.3177868008300727 67 60 57
-0.0659377353059803 -0.054217260838583116 -0.31871485770594854 49 44 39
-0.06602319618904244 -0.05419111622382317 -0.3203394837868084 21 20 15
-0.06612629976528833 -0.05422218357505982 -0.321946849600872 12 12 8
-0.06601149669608694 -0.05354159690470995 -0.3237956931862268 17 13 13
-0.06626907341836119 -0.05407619902745255 -0.32523724931962933 15 14 12
-0.06673351068709932 -0.05528645680829424 -0.326449136506562 17 16 14
-0.0671892747047593 -0.056468765706513935 -0.32766851279885034 23 22 20
-0.06700126827737306 -0.05554738373580472 -0.3296081825624463 27 26 24
-0.06731831229278318 -0.05627627208210009 -0.3309834220790341 27 26 24
-0.06753651846516676 -0.05668202211069369 -0.33247014594172053 29 26 22
-0.06764897337550006 -0.05674171997495435 -0.3340779053653486 34 31 26
-0.06786954176000999 -0.0571548885750001 -0.33556367928494624 53 49 46
-0.06773752708326161 -0.05641382467003706 -0.337455627160788 42 38 35
-0.06756872390892132 -0.0555514906033603 -0.33939467306541493 20 16 13
-0.06758118482929967 -0.055281979784306934 -0.34112812220867955 21 17 14
-0.06872494603712183 -0.0580974984338559 -0.3450417689403216 12 8 7
-0.06982031591655924 -0.06137836768511991 -0.3454977564412865 31 27 24
-0.07084790228050825 -0.06443855946161871 -0.3460249481728045 74 69 66
-0.07119421539214496 -0.06526470554673457 -0.3473583530410408 41 37 34
-0.07125455007455678 -0.06515228041361346 -0.3490346022389745 26 22 19
-0.07157632780520569 -0.06589788855389488 -0.35039749833094813 24 20 17
-0.07160824543400637 -0.06569153834423333 -0.3521115400314199 26 22 19
-0.07237570469038238 -0.06790139964613484 -0.3529314470706916 29 25 22
-0.07145592943912658 -0.06456696298400906 -0.35581269107714203 21 19 15
-0.07155151543308813 -0.06456824301034819 -0.35745787922109695 27 21 18
-0.07139832479348607 -0.06375100988739052 -0.35941278555187434 29 23 18
-0.07109288921312047 -0.06243205303692708 -0.361561819794684 32 30 26
-0.07094460889137931 -0.061629063899838576 -0.36352138078245977 18 18 15
-0.07123107829574016 -0.062256321465550324 -0.3649405179090577 15 14 11
-0.07119330410885114 -0.061815921170584195 -0.3667680970763389 62 59 56
-0.07136452047819082 -0.06206327178803722 -0.3683347015510096 48 44 41
-0.07173769207207802 -0.06297584652461827 -0.36964559493754684 43 40 37
-0.0704498694441719 -0.05841399199829636 -0.373077902003331 47 46 41
-0.06998830125613231 -0.05657306826055711 -0.37546787882781546 46 45 40
-0.07009712605115093 -0.05661181606657105 -0.3771308868739696 43 39 36
-0.06937713548668423 -0.05391582308445163 -0.37986974016746994 35 31 30
-0.06932098949621403 -0.053408562432718173 -0.3817563206228823 39 32 29
-0.0684982111158187 -0.050369739802787486 -0.3846492876308868 68 60 51
-0.0686031649072634 -0.050392271798655394 -0.38633671410330167 78 70 59
-0.06861864838037368 -0.05011888572778957 -0.3881442418096081 72 66 56
-0.06860380981572264 -0.04974474815662448 -0.3899950807658615 61 57 47
-0.06854641410501677 -0.04922931723722475 -0.39190607682213446 54 49 43
-0.0829636524596162 -0.057781069025761106 -0.5929690270537431 61 55 49
-0.08357620076207849 -0.05950304047121929 -0.5938590543960456 33 29 26
-0.08403864032960506 -0.06070912602542408 -0.5950599075935842 28 27 25
-0.08393687641726807 -0.059972704049059605 -0.5974486553922045 52 49 45
-0.08409308991210321 -0.0601239751501583 -0.599297078709383 87 81 76
-0.08535520708028968 -0.0640862498279576 -0.5987975722258526 91 84 81
-0.08581914088055473 -0.06529920074933579 -0.5999855866526218 79 76 72
-0.08702012981371976 -0.06905476081974646 -0.5995936876958793 69 69 66
-0.08853325274612975 -0.0738897507747909 -0.5985177011406676 63 60 53
-0.08938754320981943 -0.07645390254883372 -0.5988430982666445 60 56 47
-0.08981694855024136 -0.07755240441612546 -0.6000788597405556 87 82 74
-0.09078037830662786 -0.08049604583478678 -0.600153451558963 90 85 79
-0.09106354565562164 -0.08109065704478621 -0.6016993886299578 84 79 73
-0.09222987227734986 -0.08473847876921183 -0.6013151243334725 75 70 64
-0.09271282099457451 -0.08602520833777591 -0.6024162872816304 72 67 61
-0.09351957737983464 -0.08843280669769252 -0.60280175841888 70 65 60
-0.09378804479610386 -0.08897866900206175 -0.6043681586199408 67 62 58
-0.09436134114336292 -0.09057998636329 -0.6052592280290388 45 40 37
-0.0950947470810045 -0.0927367059418209 -0.6057897784534438 51 47 41
-0.0959130257283494 -0.09518876683454294 -0.6061239972396403 70 67 57
-0.09651274033003535 -0.09688458698905678 -0.606939466817819 58 55 46
-0.09711217815711937 -0.09858031279833852 -0.6077506831905903 48 41 33
-0.09756823101452397 -0.09977943170063519 -0.6088803692468451 43 36 28
-0.09768736184820179 -0.09980960546165041 -0.6107698319495143 39 32 24
-0.09795490209234561 -0.10035463661099087 -0.6123248856315306 40 33 25
-0.0982829598448509 -0.10110983588947706 -0.6137423219554665 42 35 27
-0.0983958423505879 -0.1011174076419088 -0.6156510768750371 46 39 31
-0.0990492420809968 -0.10300358181876959 -0.616322421758469 43 36 28
-0.09963967324647664 -0.10467179026945986 -0.6171329329721736 46 39 31
-0.09993382608396734 -0.10531002666834416 -0.6186230548637454 46 39 31
-0.0998347177101408 -0.10457948000532073 -0.6210246159608632 44 37 29
-0.09983019771250898 -0.10417721564505128 -0.623212258226931 40 33 25
-0.1000006382469704 -0.10438360554468055 -0.624996164669699 38 31 22
-0.10021142671188836 -0.10473027849603875 -0.6266874137948099 40 33 22
-0.10022494554269223 -0.104388995916849 -0.6288434100728851 46 39 29
-0.10041994009886426 -0.10467987927954572 -0.6305758678265502 47 41 30
-0.10070711635758733 -0.10529214011437943 -0.6320916944067163 56 51 40
-0.10095278808715497 -0.10575952928197892 -0.6337060298165598 52 48 37
-0.10109051219458526 -0.10584984892807639 -0.6355781394816133 53 49 38
-0.10113904115949884 -0.10562814568827567 -0.6376658187718207 51 47 36
-0.10103397311335034 -0.10486895767510203 -0.6401256790598792 52 48 39
-0.10136044193885085 -0.10561743237591574 -0.6415535241661121 38 31 24
-0.10140653884696615 -0.10538534868591633 -0.6436576289629282 23 19 13
-0.10142940553202298 -0.10507128254524072 -0.6458219235592073 28 26 19
-0.10155899206720906 -0.10513004019206693 -0.6477311337352498 42 38 33
-0.10160441840361872 -0.10489360307705813 -0.6498481672820121 44 39 34
-0.10164996921383651 -0.10465689840986965 -0.6519688596159409 33 28 23
-0.10132788312949131 -0.10313091872615104 -0.654996125371482 32 29 22
-0.1011236585521989 -0.10201643558934448 -0.6577430860897848 23 19 17
-0.100676958736094 -0.10004992520552508 -0.6610974676845165 16 12 12
-0.10018879170134071 -0.09793573311288453 -0.6645668308348094 10 9 7
-0.09995530295142904 -0.09671339562250689 -0.6674153974227738 8 7 6
-0.09813496389615836 -0.08991596768041571 -0.6742340863700934 7 5 6
-0.09692541374616553 -0.08525850587810055 -0.6795580061978792 7 5 6
-0.0968338127477788 -0.08452651187044397 -0.6820974997824182 7 6 4
-0.10056548273151655 -0.0914701054030308 -0.7074967595186055 9 8 6
-0.101364888017396 -0.09388073804194128 -0.7077380612086523 11 10 8
-0.10143728698799015 -0.09371865442577573 -0.7099025706870457 15 11 11
-0.10305695901011824 -0.0990370041998671 -0.7079459465409953 19 15 14
-0.10502118693944747 -0.10558052832144862 -0.7050447983420653 24 20 18
-0.10535167977338426 -0.10633676199854267 -0.7064985036765179 25 22 18
-0.10599860321404407 -0.10821551289804149 -0.7070997048248584 30 27 22
-0.10697249869648778 -0.11125566007288731 -0.7068116431551171 36 33 28
-0.10782654715161767 -0.11387244667793286 -0.7068363876374325 39 34 31
-0.10862452005023006 -0.11629181888691226 -0.7070037014209516 42 34 33
-0.10974096742538325 -0.11984440380624212 -0.7062936004415027 43 34 33
-0.11038763055600846 -0.12172955847215333 -0.7068542319806502 53 44 39
-0.11055192899642458 -0.12190034193483376 -0.7087325153790265 62 54 44
-0.11108278983386086 -0.12337495748786242 -0.7096036568397818 71 64 52
-0.11196247764311051 -0.1260920040497896 -0.7095069090277315 75 66 52
-0.11263219310254566 -0.128063172975036 -0.7099815660853683 79 68 51
