ply
format ascii 1.0
element vertex 855
property float x
property float y
property float z
property float nx
property float ny
property float nz
property uchar diffuse_red
property uchar diffuse_green
property uchar diffuse_blue
property uchar class
property uchar detection
end_header
-0.1617 0.0310 -0.5065 0.904 0.421 0.069 66 61 57 0 0
-0.1633 0.0607 -0.6114 -0.351 0.935 0.042 132 123 108 0 0
-0.1632 0.0412 -0.6527 -0.420 0.530 0.737 16 12 11 0 0
-0.1633 0.0459 -0.6599 0.167 0.894 0.415 80 72 62 0 0
-0.1634 0.0485 -0.6623 -0.139 0.801 0.583 42 29 18 0 0
-0.1635 0.0529 -0.6636 -0.264 0.864 0.428 49 35 23 0 0
-0.1648 0.0638 -0.7836 0.366 0.700 0.613 73 64 46 0 0
-0.1591 0.0345 -0.3810 -0.032 0.083 0.996 136 119 90 0 0
-0.1592 0.0367 -0.3818 0.002 0.149 0.989 145 127 92 0 0
-0.1599 0.0183 -0.5313 -0.511 0.777 -0.367 62 60 55 0 0
-0.1599 0.0178 -0.5334 -0.559 0.770 -0.307 60 56 52 0 0
-0.1615 0.0563 -0.6179 -0.081 0.932 -0.353 52 41 31 0 0
-0.1615 0.0539 -0.6252 -0.201 0.951 -0.236 53 43 33 0 0
-0.1616 0.0545 -0.6268 -0.720 0.662 0.209 90 83 73 0 0
-0.1615 0.0425 -0.6561 -0.231 0.623 0.747 25 19 14 0 0
-0.1632 0.0926 -0.7120 -0.313 0.449 0.837 89 77 59 0 0
-0.1632 0.0701 -0.7897 -0.328 0.789 0.520 31 21 13 0 0
-0.1635 0.0812 -0.7920 -0.428 0.229 0.875 110 100 83 0 0
-0.1636 0.0831 -0.7926 0.059 0.335 0.940 97 85 66 0 0
-0.1636 0.0850 -0.7933 0.059 0.335 0.940 101 89 66 0 0
-0.1636 0.0855 -0.7951 0.467 0.480 0.743 114 101 74 0 0
-0.1638 0.0929 -0.7979 -0.206 0.416 0.886 105 94 67 0 0
-0.1645 0.1120 -0.8258 -0.174 0.751 0.637 152 137 99 0 0
-0.1561 -0.0051 -0.3225 -0.934 0.082 0.347 171 169 166 0 0
-0.1569 0.0207 -0.3360 -0.619 0.620 0.482 102 90 70 0 0
-0.1569 0.0227 -0.3370 -0.726 0.666 0.170 100 88 67 0 0
-0.1569 0.0235 -0.3384 -0.674 0.687 0.270 100 87 66 0 0
-0.1570 0.0240 -0.3399 -0.674 0.687 0.270 97 85 64 0 0
-0.1570 0.0231 -0.3418 -0.283 0.732 0.619 103 93 73 0 0
-0.1574 0.0317 -0.3769 -0.272 0.878 0.395 119 105 81 0 0
-0.1576 0.0387 -0.3795 0.125 0.125 0.984 133 117 84 0 0
-0.1576 0.0377 -0.3815 -0.011 0.151 0.988 151 133 96 0 0
-0.1577 0.0370 -0.3918 -0.089 0.976 -0.201 173 154 112 0 0
-0.1577 0.0364 -0.3937 0.039 0.966 -0.255 173 154 111 0 0
-0.1580 0.0477 -0.3929 0.300 0.850 0.433 171 150 106 0 0
-0.1589 0.0588 -0.4811 0.020 0.546 -0.837 66 55 40 0 0
-0.1583 0.0222 -0.5238 -0.635 0.753 0.173 56 55 51 0 0
-0.1606 0.1133 -0.5194 -0.664 0.577 0.476 26 22 18 0 0
-0.1606 0.1125 -0.5215 -0.768 0.469 0.436 30 24 19 0 0
-0.1599 0.0595 -0.6122 0.220 0.956 -0.194 59 48 35 0 0
-0.1599 0.0566 -0.6178 0.096 0.936 -0.337 41 31 21 0 0
-0.1598 0.0544 -0.6250 -0.255 0.949 -0.186 72 63 53 0 0
-0.1599 0.0558 -0.6261 -0.675 0.701 0.229 89 85 74 0 0
-0.1609 0.0745 -0.7002 -0.882 0.378 0.281 55 47 40 0 0
-0.1610 0.0785 -0.7015 -0.714 0.697 0.072 70 64 62 0 0
-0.1610 0.0776 -0.7042 -0.464 0.560 0.687 107 99 97 0 0
-0.1614 0.0896 -0.7101 -0.059 0.688 0.724 108 99 80 0 0
-0.1614 0.0911 -0.7111 -0.296 0.722 0.625 104 93 75 0 0
-0.1615 0.0921 -0.7125 -0.186 0.681 0.709 99 87 69 0 0
-0.1618 0.0825 -0.7911 -0.387 0.078 0.919 78 70 52 0 0
-0.1619 0.0865 -0.7923 -0.153 0.166 0.974 122 109 80 0 0
-0.1628 0.1114 -0.8242 -0.228 0.570 0.790 188 173 136 0 0
-0.1635 0.1256 -0.8716 -0.713 0.512 0.478 177 177 179 0 0
-0.1635 0.1254 -0.8740 -0.829 0.482 0.284 181 181 182 0 0
-0.1552 0.0181 -0.3336 -0.502 0.497 0.708 129 115 87 0 0
-0.1555 0.0278 -0.3387 -0.610 0.577 0.543 102 87 59 0 0
-0.1555 0.0260 -0.3409 0.015 0.527 0.850 102 88 59 0 0
-0.1558 0.0309 -0.3723 -0.021 0.991 -0.136 82 72 62 0 0
-0.1558 0.0319 -0.3736 -0.173 0.856 0.487 97 87 77 0 0
-0.1559 0.0353 -0.3740 -0.206 0.794 0.572 107 93 78 0 0
-0.1562 0.0428 -0.3797 0.078 0.337 0.938 146 128 87 0 0
-0.1562 0.0415 -0.3818 -0.177 0.327 0.928 154 136 95 0 0
-0.1561 0.0338 -0.4099 0.095 0.775 -0.625 201 184 131 0 0
-0.1568 0.0573 -0.4177 -0.898 0.414 0.149 79 67 43 0 0
-0.1577 0.0774 -0.4673 -0.061 0.966 0.252 99 89 76 0 0
-0.1566 0.0219 -0.5203 -0.396 0.819 0.415 53 49 45 0 0
-0.1566 0.0228 -0.5217 -0.553 0.696 0.458 41 40 37 0 0
-0.1566 0.0235 -0.5232 -0.375 0.903 0.209 41 40 37 0 0
-0.1566 0.0227 -0.5255 -0.152 0.971 -0.182 39 38 35 0 0
-0.1566 0.0224 -0.5275 -0.320 0.867 -0.382 33 32 28 0 0
-0.1566 0.0214 -0.5298 -0.310 0.874 -0.374 35 33 29 0 0
-0.1567 0.0229 -0.5310 -0.539 0.781 -0.316 42 38 35 0 0
-0.1567 0.0238 -0.5324 -0.748 0.660 -0.070 38 34 31 0 0
-0.1590 0.1134 -0.5176 -0.247 0.945 0.215 43 36 30 0 0
-0.1590 0.1139 -0.5191 -0.200 0.909 0.366 50 42 34 0 0
-0.1591 0.1152 -0.5219 -0.727 0.512 0.457 83 75 60 0 0
-0.1591 0.1171 -0.5227 -0.696 0.696 0.176 115 107 88 0 0
-0.1582 0.0551 -0.6246 -0.366 0.916 -0.162 91 82 73 0 0
-0.1582 0.0560 -0.6260 -0.487 0.862 0.142 92 86 76 0 0
-0.1580 0.0421 -0.6544 -0.340 0.825 0.451 52 48 43 0 0
-0.1581 0.0427 -0.6560 -0.064 0.730 0.680 87 78 71 0 0
-0.1582 0.0464 -0.6578 -0.086 0.760 0.644 50 44 34 0 0
-0.1596 0.0869 -0.7080 0.180 0.567 0.804 62 53 42 0 0
-0.1596 0.0884 -0.7090 0.009 0.747 0.664 79 69 54 0 0
-0.1597 0.0914 -0.7110 -0.064 0.581 0.811 107 96 78 0 0
-0.1600 0.1027 -0.7131 -0.619 0.626 0.475 89 77 60 0 0
-0.1601 0.1033 -0.7148 -0.615 0.590 0.522 99 87 72 0 0
-0.1600 0.0828 -0.7909 -0.341 0.109 0.934 85 77 59 0 0
-0.1615 0.1256 -0.8319 -0.674 0.629 0.388 157 144 102 0 0
-0.1530 -0.0007 -0.3163 -0.876 0.056 0.479 179 180 176 0 0
-0.1534 0.0130 -0.3253 -0.830 0.463 0.311 141 127 106 0 0
-0.1535 0.0156 -0.3278 -0.565 0.447 0.693 155 139 111 0 0
-0.1536 0.0185 -0.3286 -0.284 0.554 0.783 164 148 116 0 0
-0.1537 0.0197 -0.3298 0.000 0.903 0.430 156 139 102 0 0
-0.1537 0.0202 -0.3313 -0.107 0.923 0.370 156 138 97 0 0
-0.1537 0.0207 -0.3328 -0.364 0.879 0.307 157 136 94 0 0
-0.1537 0.0212 -0.3343 -0.338 0.939 0.068 155 135 91 0 0
-0.1538 0.0225 -0.3371 0.462 0.840 0.285 121 105 72 0 0
-0.1543 0.0320 -0.3719 -0.417 0.811 0.411 75 65 54 0 0
-0.1553 0.0591 -0.4171 -0.845 0.513 0.153 74 62 40 0 0
-0.1553 0.0584 -0.4190 -0.795 0.540 0.276 82 69 50 0 0
-0.1554 0.0615 -0.4212 -0.324 0.465 0.824 65 52 35 0 0
-0.1560 0.0753 -0.4596 -0.087 0.943 0.321 45 34 27 0 0
-0.1561 0.0775 -0.4673 -0.046 0.991 0.128 91 82 68 0 0
-0.1548 0.0178 -0.5129 -0.459 0.809 0.368 43 38 34 0 0
-0.1548 0.0193 -0.5141 -0.526 0.449 0.723 26 22 19 0 0
-0.1549 0.0212 -0.5169 -0.542 0.729 0.418 29 25 22 0 0
-0.1549 0.0225 -0.5182 -0.641 0.688 0.340 49 45 41 0 0
-0.1552 0.0289 -0.5280 -0.872 0.478 -0.108 30 25 22 0 0
-0.1552 0.0300 -0.5312 -0.893 0.422 0.156 33 31 29 0 0
-0.1575 0.1145 -0.5153 -0.180 0.937 0.298 33 26 21 0 0
-0.1575 0.1151 -0.5168 -0.461 0.791 0.401 49 41 32 0 0
-0.1565 0.0589 -0.6146 -0.352 0.866 -0.355 46 38 30 0 0
-0.1565 0.0592 -0.6164 -0.386 0.896 -0.220 67 60 51 0 0
-0.1565 0.0569 -0.6255 -0.331 0.935 -0.125 97 88 79 0 0
-0.1563 0.0460 -0.6420 -0.471 0.835 -0.285 49 39 27 0 0
-0.1563 0.0417 -0.6507 -0.439 0.810 0.388 26 23 19 0 0
-0.1563 0.0427 -0.6541 -0.340 0.825 0.451 32 26 20 0 0
-0.1564 0.0455 -0.6564 -0.086 0.760 0.644 67 58 48 0 0
-0.1588 0.1149 -0.7206 -0.607 0.613 0.505 116 102 78 0 0
-0.1585 0.0983 -0.7473 -0.151 0.877 -0.457 84 69 50 0 0
-0.1588 0.0996 -0.7972 -0.436 0.678 0.592 48 36 24 0 0
-0.1589 0.1040 -0.8002 -0.257 0.766 0.589 70 58 38 0 0
-0.1520 0.0177 -0.3272 0.163 0.779 0.605 176 154 113 0 0
-0.1521 0.0187 -0.3285 0.306 0.768 0.562 177 155 109 0 0
-0.1521 0.0199 -0.3298 -0.520 0.477 0.709 166 143 95 0 0
-0.1523 0.0241 -0.3366 -0.720 0.456 0.523 113 96 61 0 0
-0.1528 0.0353 -0.3724 -0.577 0.441 0.688 114 102 81 0 0
-0.1532 0.0469 -0.3766 -0.420 0.597 0.683 159 144 103 0 0
-0.1538 0.0621 -0.4092 -0.409 0.499 0.764 91 78 50 0 0
-0.1538 0.0605 -0.4115 -0.645 0.524 0.556 90 78 51 0 0
-0.1537 0.0599 -0.4134 -0.518 0.815 0.261 80 68 42 0 0
-0.1544 0.0740 -0.4585 0.000 0.960 0.279 44 36 27 0 0
-0.1544 0.0745 -0.4600 0.049 0.843 0.535 60 51 40 0 0
-0.1546 0.0775 -0.4673 -0.046 0.991 0.128 74 66 56 0 0
-0.1558 0.1092 -0.5146 -0.633 0.744 0.213 38 30 23 0 0
-0.1546 0.0421 -0.6505 -0.061 0.997 0.042 39 35 30 0 0
-0.1547 0.0443 -0.6552 0.160 0.826 0.540 43 35 28 0 0
-0.1547 0.0456 -0.6564 0.027 0.831 0.555 48 40 30 0 0
-0.1562 0.0863 -0.7065 -0.841 0.460 0.284 23 19 17 0 0
-0.1570 0.0989 -0.7936 -0.622 0.573 0.534 51 39 23 0 0
-0.1571 0.1004 -0.7945 -0.253 0.909 0.331 40 27 18 0 0
-0.1571 0.1010 -0.7962 -0.253 0.909 0.331 39 28 20 0 0
-0.1572 0.1031 -0.7988 -0.083 0.743 0.664 44 35 19 0 0
-0.1572 0.1043 -0.8000 -0.064 0.810 0.583 48 39 21 0 0
-0.1573 0.1074 -0.8018 -0.111 0.584 0.804 69 61 45 0 0
-0.1583 0.1287 -0.8691 -0.847 0.521 -0.102 150 146 144 0 0
-0.1515 0.0431 -0.3746 -0.534 0.497 0.684 140 120 84 0 0
-0.1522 0.0615 -0.4111 -0.408 0.474 0.780 69 58 35 0 0
-0.1522 0.0616 -0.4127 -0.187 0.766 0.615 71 60 38 0 0
-0.1526 0.0710 -0.4359 -0.048 0.997 0.059 81 67 44 0 0
-0.1527 0.0703 -0.4430 0.115 0.991 0.063 92 77 57 0 0
-0.1529 0.0750 -0.4615 0.039 0.857 0.513 65 55 44 0 0
-0.1530 0.0779 -0.4672 -0.159 0.968 0.196 51 45 36 0 0
-0.1545 0.1180 -0.5171 -0.615 0.656 0.438 148 134 112 0 0
-0.1545 0.1189 -0.5183 -0.539 0.632 0.557 151 142 113 0 0
-0.1546 0.1217 -0.5204 -0.371 0.784 0.497 145 136 106 0 0
-0.1547 0.1228 -0.5215 -0.449 0.709 0.544 97 88 59 0 0
-0.1547 0.1237 -0.5228 -0.449 0.709 0.544 93 83 55 0 0
-0.1547 0.1249 -0.5239 -0.416 0.811 0.410 99 88 56 0 0
-0.1548 0.1254 -0.5254 -0.344 0.845 0.409 122 110 75 0 0
-0.1548 0.1281 -0.5274 -0.153 0.954 0.259 95 79 49 0 0
-0.1548 0.1261 -0.5356 -0.313 0.908 0.277 109 93 66 0 0
-0.1549 0.1269 -0.5369 -0.206 0.974 0.090 124 108 81 0 0
-0.1529 0.0430 -0.6520 -0.189 0.981 0.054 45 38 35 0 0
-0.1529 0.0444 -0.6532 -0.414 0.837 0.358 46 37 34 0 0
-0.1542 0.0852 -0.6671 -0.744 0.668 0.006 118 107 88 0 0
-0.1552 0.0966 -0.7912 -0.304 0.436 0.847 44 33 17 0 0
-0.1553 0.0986 -0.7917 -0.447 0.543 0.710 43 33 21 0 0
-0.1553 0.1002 -0.7926 0.019 0.743 0.670 36 26 17 0 0
-0.1554 0.1013 -0.7960 0.108 0.930 0.351 38 28 19 0 0
-0.1554 0.1026 -0.7972 0.065 0.735 0.675 40 31 18 0 0
-0.1555 0.1037 -0.7984 0.065 0.735 0.675 53 44 29 0 0
-0.1555 0.1048 -0.7997 -0.087 0.851 0.519 75 67 50 0 0
-0.1556 0.1060 -0.8009 0.065 0.735 0.675 93 86 69 0 0
-0.1567 0.1316 -0.8711 -0.844 0.535 -0.047 158 158 159 0 0
-0.1571 0.1473 -0.8635 -0.581 0.535 0.613 181 181 182 0 0
-0.1572 0.1492 -0.8640 -0.320 0.404 0.857 184 184 184 0 0
-0.1488 0.0174 -0.3127 -0.714 0.456 0.531 136 121 98 0 0
-0.1489 0.0182 -0.3141 -0.632 0.466 0.619 154 138 112 0 0
-0.1489 0.0198 -0.3153 -0.335 0.474 0.814 152 138 113 0 0
-0.1495 0.0372 -0.3326 -0.606 0.419 0.676 86 71 37 0 0
-0.1499 0.0414 -0.3852 -0.727 0.588 0.355 188 169 120 0 0
-0.1504 0.0531 -0.4060 0.257 0.309 0.916 71 55 33 0 0
-0.1511 0.0709 -0.4309 0.388 0.872 0.299 122 107 86 0 0
-0.1511 0.0712 -0.4341 0.050 0.998 -0.039 77 61 39 0 0
-0.1511 0.0712 -0.4359 -0.079 0.985 0.150 80 64 43 0 0
-0.1513 0.0732 -0.4589 0.156 0.919 0.362 45 35 24 0 0
-0.1513 0.0742 -0.4602 0.186 0.872 0.452 55 46 34 0 0
-0.1531 0.1239 -0.5210 -0.144 0.947 0.289 104 92 65 0 0
-0.1532 0.1255 -0.5219 0.080 0.747 0.660 73 61 36 0 0
-0.1513 0.0468 -0.6578 -0.251 0.785 0.567 37 32 26 0 0
-0.1526 0.0870 -0.6660 -0.744 0.668 0.006 110 98 75 0 0
-0.1533 0.1026 -0.7074 -0.623 0.693 0.363 92 83 70 0 0
-0.1534 0.1049 -0.7078 -0.345 0.521 0.781 101 93 76 0 0
-0.1536 0.1116 -0.7091 -0.687 0.517 0.511 117 107 88 0 0
-0.1536 0.1126 -0.7104 -0.627 0.630 0.458 102 92 75 0 0
-0.1537 0.1136 -0.7117 -0.627 0.630 0.458 92 85 72 0 0
-0.1535 0.0977 -0.7904 -0.437 0.552 0.710 30 21 12 0 0
-0.1536 0.1005 -0.7925 -0.108 0.831 0.546 33 23 14 0 0
-0.1536 0.1014 -0.7939 -0.108 0.831 0.546 43 33 22 0 0
-0.1537 0.1020 -0.7956 -0.283 0.921 0.268 56 47 32 0 0
-0.1537 0.1027 -0.7972 -0.320 0.889 0.329 81 73 55 0 0
-0.1537 0.1033 -0.7989 -0.355 0.853 0.383 96 88 70 0 0
-0.1542 0.1179 -0.8020 -0.827 0.268 0.494 128 111 80 0 0
-0.1549 0.1353 -0.8392 -0.506 0.860 0.061 150 137 97 0 0
-0.1554 0.1470 -0.8639 -0.396 0.171 0.902 177 177 179 0 0
-0.1555 0.1498 -0.8636 -0.543 0.348 0.764 182 182 184 0 0
-0.1471 0.0133 -0.3091 -0.621 0.239 0.747 97 83 66 0 0
-0.1472 0.0159 -0.3099 -0.696 0.326 0.640 109 96 77 0 0
-0.1479 0.0343 -0.3270 -0.721 0.655 0.227 91 73 41 0 0
-0.1479 0.0348 -0.3285 -0.704 0.710 -0.004 99 80 47 0 0
-0.1478 0.0273 -0.3569 -0.735 0.645 0.208 64 57 44 0 0
-0.1485 0.0471 -0.3882 -0.364 0.882 -0.299 108 85 52 0 0
-0.1485 0.0464 -0.3901 -0.390 0.869 -0.303 143 121 81 0 0
-0.1491 0.0607 -0.4148 0.077 0.841 0.535 48 38 23 0 0
-0.1495 0.0716 -0.4357 -0.069 0.966 0.250 77 60 41 0 0
-0.1497 0.0739 -0.4604 0.186 0.872 0.452 72 60 45 0 0
-0.1516 0.1229 -0.5198 -0.256 0.851 0.460 111 97 74 0 0
-0.1516 0.1240 -0.5210 -0.018 0.859 0.511 71 58 38 0 0
-0.1496 0.0474 -0.6574 -0.139 0.841 0.523 34 27 20 0 0
-0.1511 0.0921 -0.6706 -0.364 0.784 0.503 134 119 97 0 0
-0.1517 0.1042 -0.7064 -0.705 0.680 0.199 62 55 44 0 0
-0.1517 0.1065 -0.7067 -0.525 0.619 0.584 77 69 57 0 0
-0.1518 0.0988 -0.7896 -0.396 0.506 0.766 31 21 10 0 0
-0.1519 0.1017 -0.7938 -0.247 0.893 0.377 80 71 55 0 0
-0.1520 0.1025 -0.7953 -0.216 0.955 0.203 98 88 69 0 0
-0.1520 0.1034 -0.7967 -0.249 0.922 0.297 95 86 66 0 0
-0.1525 0.1188 -0.8014 -0.298 0.454 0.840 124 111 77 0 0
-0.1525 0.1185 -0.8038 0.079 0.604 0.793 114 100 68 0 0
-0.1526 0.1198 -0.8049 0.079 0.604 0.793 130 111 77 0 0
-0.1527 0.1237 -0.8081 -0.393 0.430 0.813 150 135 93 0 0
-0.1527 0.1244 -0.8097 -0.201 0.656 0.728 147 132 91 0 0
-0.1528 0.1267 -0.8099 -0.568 0.460 0.682 145 128 89 0 0
-0.1530 0.1308 -0.8108 -0.835 0.540 0.108 142 128 94 0 0
-0.1454 0.0087 -0.3055 -0.044 0.985 0.165 147 141 135 0 0
-0.1456 0.0153 -0.3085 -0.492 0.278 0.825 109 96 79 0 0
-0.1466 0.0408 -0.3395 -0.135 0.957 0.259 77 62 41 0 0
-0.1478 0.0678 -0.4204 -0.184 0.895 0.407 36 23 14 0 0
-0.1480 0.0719 -0.4356 0.028 0.864 0.502 76 60 37 0 0
-0.1479 0.0695 -0.4469 -0.136 0.878 0.458 89 74 47 0 0
-0.1480 0.0701 -0.4500 0.222 0.817 0.532 86 69 45 0 0
-0.1480 0.0708 -0.4514 -0.086 0.916 0.393 85 69 48 0 0
-0.1481 0.0741 -0.4569 -0.120 0.901 0.418 66 57 43 0 0
-0.1481 0.0731 -0.4590 0.049 0.907 0.419 67 56 40 0 0
-0.1481 0.0741 -0.4603 -0.377 0.693 0.614 59 49 34 0 0
-0.1497 0.1146 -0.5068 -0.064 0.930 0.362 181 168 133 0 0
-0.1504 0.1321 -0.5342 -0.045 0.857 0.513 77 58 38 0 0
-0.1482 0.0617 -0.6190 -0.060 0.981 0.184 92 77 54 0 0
-0.1485 0.0640 -0.6611 -0.542 0.400 0.739 122 110 88 0 0
-0.1498 0.1022 -0.6679 -0.605 0.156 0.781 132 116 91 0 0
-0.1500 0.1054 -0.7056 -0.730 0.630 0.264 60 52 47 0 0
-0.1509 0.1210 -0.8018 -0.130 0.474 0.871 102 88 60 0 0
-0.1509 0.1216 -0.8035 -0.364 0.598 0.714 135 119 85 0 0
-0.1510 0.1239 -0.8038 0.003 0.879 0.477 132 115 79 0 0
-0.1512 0.1292 -0.8101 -0.669 0.546 0.503 145 129 91 0 0
-0.1513 0.1314 -0.8104 -0.733 0.529 0.428 140 126 93 0 0
-0.1514 0.1351 -0.8180 -0.744 0.668 0.005 157 141 106 0 0
-0.1438 0.0091 -0.3054 -0.576 0.604 0.551 118 107 93 0 0
-0.1450 0.0387 -0.3630 -0.018 0.881 0.473 114 97 72 0 0
-0.1451 0.0397 -0.3643 -0.166 0.934 0.317 117 99 72 0 0
-0.1453 0.0434 -0.3829 0.046 0.929 0.367 127 109 73 0 0
-0.1462 0.0673 -0.4189 -0.303 0.879 0.368 37 24 14 0 0
-0.1479 0.1095 -0.5024 -0.374 0.412 0.831 56 49 41 0 0
-0.1481 0.1135 -0.5038 -0.061 0.938 0.341 123 110 86 0 0
-0.1489 0.1329 -0.5338 -0.234 0.864 0.446 64 46 29 0 0
-0.1482 0.1054 -0.6658 -0.696 0.147 0.702 129 113 87 0 0
-0.1487 0.1076 -0.7935 -0.360 0.557 0.748 111 100 75 0 0
-0.1488 0.1112 -0.7992 -0.163 0.700 0.696 176 162 117 0 0
-0.1492 0.1222 -0.8031 -0.364 0.598 0.714 153 141 107 0 0
-0.1499 0.1402 -0.8180 -0.690 0.715 0.110 103 92 63 0 0
-0.1424 0.0127 -0.3044 -0.819 0.340 0.462 107 94 75 0 0
-0.1434 0.0385 -0.3274 -0.046 0.815 0.578 52 45 36 0 0
-0.1435 0.0418 -0.3312 -0.260 0.811 0.523 25 19 15 0 0
-0.1433 0.0351 -0.3577 -0.479 0.842 0.248 95 84 65 0 0
-0.1437 0.0427 -0.3815 -0.608 0.511 0.607 110 96 57 0 0
-0.1465 0.1110 -0.5017 -0.461 0.476 0.749 94 84 68 0 0
-0.1465 0.1129 -0.5025 -0.302 0.737 0.605 143 129 103 0 0
-0.1466 0.1137 -0.5038 -0.174 0.959 0.223 146 133 102 0 0
-0.1470 0.1156 -0.6945 -0.865 0.501 -0.034 96 84 67 0 0
-0.1473 0.1227 -0.7074 -0.538 0.723 0.433 172 156 122 0 0
-0.1476 0.1279 -0.7278 -0.256 0.967 0.006 94 84 69 0 0
-0.1475 0.1273 -0.7303 -0.522 0.670 0.529 109 97 79 0 0
-0.1475 0.1266 -0.7328 -0.732 0.635 0.247 117 103 83 0 0
-0.1475 0.1271 -0.7345 -0.753 0.627 0.199 129 114 91 0 0
-0.1476 0.1286 -0.7354 -0.704 0.709 -0.042 121 107 83 0 0
-0.1475 0.1262 -0.7433 -0.734 0.663 -0.151 127 115 88 0 0
-0.1470 0.1087 -0.7927 0.029 0.842 0.538 150 136 105 0 0
-0.1471 0.1103 -0.7936 -0.124 0.862 0.491 160 146 107 0 0
-0.1482 0.1407 -0.8134 -0.147 0.872 0.466 120 105 72 0 0
-0.1485 0.1466 -0.8428 -0.128 0.763 0.633 147 132 98 0 0
-0.1409 0.0154 -0.3037 -0.792 0.391 0.469 120 106 87 0 0
-0.1412 0.0222 -0.3082 -0.161 0.466 0.870 186 167 128 0 0
-0.1412 0.0234 -0.3094 -0.386 0.542 0.747 179 160 123 0 0
-0.1416 0.0309 -0.3558 -0.260 0.910 -0.324 76 68 51 0 0
-0.1421 0.0428 -0.3798 -0.332 0.884 0.329 94 76 44 0 0
-0.1422 0.0451 -0.3806 0.062 0.827 0.559 97 85 52 0 0
-0.1422 0.0466 -0.3818 0.222 0.728 0.649 93 81 54 0 0
-0.1456 0.1275 -0.5192 -0.303 0.895 0.328 40 31 19 0 0
-0.1456 0.1281 -0.5207 -0.303 0.895 0.328 42 32 21 0 0
-0.1456 0.1276 -0.5510 0.143 0.660 0.738 146 130 93 0 0
-0.1457 0.1297 -0.5534 0.153 0.547 0.823 145 130 98 0 0
-0.1429 0.0530 -0.6562 -0.502 0.690 0.521 58 53 48 0 0
-0.1459 0.1277 -0.7079 -0.594 0.327 0.735 129 110 77 0 0
-0.1461 0.1337 -0.7215 0.300 0.797 0.524 97 84 67 0 0
-0.1462 0.1354 -0.7222 -0.173 0.970 -0.173 89 76 60 0 0
-0.1459 0.1282 -0.7297 -0.458 0.564 0.687 114 101 82 0 0
-0.1460 0.1290 -0.7311 -0.673 0.533 0.512 140 126 101 0 0
-0.1460 0.1297 -0.7326 -0.790 0.486 0.373 128 115 88 0 0
-0.1447 0.0946 -0.7804 -0.327 0.944 -0.036 105 94 73 0 0
-0.1453 0.1099 -0.7983 0.003 0.828 0.560 211 196 150 0 0
-0.1462 0.1329 -0.8073 -0.023 0.982 0.188 117 104 72 0 0
-0.1468 0.1468 -0.8427 -0.128 0.763 0.633 132 120 85 0 0
-0.1470 0.1507 -0.8699 -0.584 0.594 0.553 177 175 180 0 0
-0.1473 0.1588 -0.8735 -0.257 0.546 0.798 196 195 193 0 0
-0.1402 0.0354 -0.3203 0.098 0.858 0.504 19 14 12 0 0
-0.1406 0.0435 -0.3796 -0.008 0.979 0.205 81 68 39 0 0
-0.1407 0.0470 -0.3850 0.325 0.946 0.007 105 93 68 0 0
-0.1407 0.0470 -0.3866 0.325 0.946 0.007 100 87 61 0 0
-0.1412 0.0599 -0.3968 0.065 0.950 0.305 50 34 18 0 0
-0.1434 0.1124 -0.4993 -0.866 0.475 0.158 86 73 55 0 0
-0.1438 0.1223 -0.5081 -0.130 0.813 0.568 128 117 96 0 0
-0.1439 0.1235 -0.5093 0.078 0.965 0.249 91 80 65 0 0
-0.1439 0.1247 -0.5103 -0.131 0.889 0.438 78 68 58 0 0
-0.1439 0.1250 -0.5119 0.072 0.834 0.546 70 61 52 0 0
-0.1441 0.1285 -0.5258 -0.247 0.960 0.133 62 48 37 0 0
-0.1443 0.1349 -0.5310 -0.283 0.915 0.287 77 64 47 0 0
-0.1443 0.1354 -0.5325 -0.283 0.915 0.287 77 62 45 0 0
-0.1442 0.1301 -0.5532 0.451 0.635 0.628 148 132 95 0 0
-0.1412 0.0528 -0.6544 -0.221 0.867 0.447 44 37 31 0 0
-0.1412 0.0531 -0.6562 -0.293 0.768 0.569 57 52 48 0 0
-0.1442 0.1267 -0.7067 -0.197 0.345 0.918 147 128 91 0 0
-0.1442 0.1270 -0.7084 -0.564 0.363 0.742 131 112 79 0 0
-0.1446 0.1360 -0.7219 0.103 0.985 -0.138 99 87 69 0 0
-0.1445 0.1345 -0.7250 0.038 0.968 -0.250 112 98 76 0 0
-0.1446 0.1363 -0.7257 -0.085 0.983 -0.160 108 93 61 0 0
-0.1444 0.1314 -0.7314 -0.681 0.400 0.613 140 125 93 0 0
-0.1451 0.1470 -0.8427 -0.128 0.763 0.633 143 130 95 0 0
-0.1388 0.0397 -0.3270 -0.433 0.756 0.490 19 14 12 0 0
-0.1388 0.0392 -0.3352 -0.041 0.912 0.408 36 29 24 0 0
-0.1389 0.0405 -0.3364 0.155 0.933 0.326 35 31 22 0 0
-0.1393 0.0508 -0.3852 -0.415 0.644 0.643 83 68 44 0 0
-0.1397 0.0602 -0.3967 -0.201 0.915 0.351 72 57 37 0 0
-0.1423 0.1242 -0.5106 -0.414 0.881 0.226 108 98 85 0 0
-0.1425 0.1287 -0.5274 -0.249 0.945 0.213 80 67 51 0 0
-0.1429 0.1369 -0.5335 -0.335 0.878 0.341 72 53 36 0 0
-0.1426 0.1313 -0.5490 -0.008 0.972 0.235 84 63 37 0 0
-0.1426 0.1306 -0.5512 0.067 0.979 0.194 124 105 71 0 0
-0.1426 0.1296 -0.5535 0.138 0.771 0.622 148 133 94 0 0
-0.1425 0.1286 -0.5559 -0.182 0.872 0.454 140 126 90 0 0
-0.1394 0.0513 -0.6434 -0.314 0.941 -0.129 48 39 30 0 0
-0.1396 0.0546 -0.6554 -0.226 0.480 0.848 56 51 46 0 0
-0.1396 0.0563 -0.6563 -0.226 0.480 0.848 37 31 28 0 0
-0.1425 0.1260 -0.7052 -0.473 0.602 0.643 131 115 84 0 0
-0.1425 0.1272 -0.7064 -0.428 0.447 0.785 129 111 81 0 0
-0.1429 0.1355 -0.7083 -0.248 0.967 0.062 197 182 146 0 0
-0.1429 0.1363 -0.7097 -0.638 0.767 0.071 161 141 106 0 0
-0.1429 0.1369 -0.7132 -0.674 0.727 0.133 146 131 99 0 0
-0.1427 0.1306 -0.7220 -0.643 0.753 0.138 129 116 92 0 0
-0.1427 0.1309 -0.7237 -0.643 0.753 0.138 132 120 98 0 0
-0.1429 0.1361 -0.7259 -0.257 0.921 -0.293 104 89 62 0 0
-0.1429 0.1346 -0.8082 -0.096 0.884 0.457 75 67 41 0 0
-0.1435 0.1487 -0.8435 -0.045 0.871 0.489 141 126 86 0 0
-0.1436 0.1504 -0.8727 -0.524 0.810 0.261 171 171 173 0 0
-0.1373 0.0398 -0.3366 -0.737 0.638 0.222 37 33 24 0 0
-0.1384 0.0668 -0.4025 -0.542 0.468 0.698 36 25 13 0 0
-0.1385 0.0697 -0.4384 -0.170 0.822 0.544 85 69 41 0 0
-0.1385 0.0702 -0.4399 -0.155 0.888 0.433 93 77 50 0 0
-0.1409 0.1275 -0.4731 -0.879 0.446 0.169 47 40 34 0 0
-0.1380 0.0586 -0.6271 -0.332 0.942 -0.040 45 35 22 0 0
-0.1409 0.1282 -0.7077 -0.184 0.403 0.896 102 86 62 0 0
-0.1413 0.1357 -0.7103 -0.085 0.982 -0.171 174 155 113 0 0
-0.1399 0.1038 -0.7842 0.008 0.841 0.541 96 82 57 0 0
-0.1399 0.1044 -0.7859 0.109 0.867 0.487 108 94 68 0 0
-0.1418 0.1480 -0.8312 -0.523 0.850 -0.059 119 112 75 0 0
-0.1418 0.1482 -0.8440 -0.677 0.690 0.255 141 127 86 0 0
-0.1419 0.1504 -0.8442 -0.248 0.924 0.291 131 114 74 0 0
-0.1358 0.0414 -0.3361 -0.769 0.599 0.222 38 32 20 0 0
-0.1368 0.0662 -0.3994 0.400 0.495 0.771 170 159 124 0 0
-0.1369 0.0682 -0.4288 -0.163 0.973 0.164 80 60 33 0 0
-0.1369 0.0680 -0.4306 -0.300 0.944 0.138 79 59 33 0 0
-0.1369 0.0687 -0.4320 -0.179 0.973 0.147 82 62 36 0 0
-0.1370 0.0707 -0.4346 -0.292 0.699 0.652 92 75 48 0 0
-0.1395 0.1294 -0.4705 -0.850 0.496 0.179 91 78 59 0 0
-0.1395 0.1301 -0.5059 -0.903 0.429 0.017 73 66 55 0 0
-0.1395 0.1302 -0.5076 -0.862 0.496 -0.101 85 78 59 0 0
-0.1396 0.1322 -0.5135 -0.800 0.579 0.161 95 83 61 0 0
-0.1396 0.1320 -0.5170 -0.712 0.702 -0.011 104 88 68 0 0
-0.1363 0.0574 -0.6557 -0.137 0.825 0.548 50 45 42 0 0
-0.1363 0.0592 -0.6566 -0.152 0.617 0.772 47 41 35 0 0
-0.1384 0.1079 -0.7853 -0.441 0.582 0.684 105 93 69 0 0
-0.1385 0.1107 -0.7873 -0.526 0.622 0.581 78 67 47 0 0
-0.1385 0.1118 -0.7886 -0.526 0.622 0.581 60 46 29 0 0
-0.1349 0.0563 -0.3701 -0.012 0.903 0.430 123 110 73 0 0
-0.1351 0.0611 -0.3964 0.158 0.789 0.593 68 55 34 0 0
-0.1353 0.0666 -0.4160 0.093 0.914 0.394 54 37 19 0 0
-0.1353 0.0668 -0.4176 -0.190 0.936 0.296 58 40 21 0 0
-0.1353 0.0669 -0.4192 -0.056 0.936 0.348 61 42 22 0 0
-0.1354 0.0688 -0.4201 0.287 0.762 0.581 69 48 27 0 0
-0.1354 0.0694 -0.4267 0.074 0.995 0.071 87 70 42 0 0
-0.1354 0.0690 -0.4319 -0.194 0.966 0.172 88 69 41 0 0
-0.1381 0.1316 -0.4678 -0.843 0.536 -0.046 106 93 69 0 0
-0.1381 0.1318 -0.4694 -0.886 0.444 0.132 116 101 77 0 0
-0.1349 0.0641 -0.6142 -0.015 0.853 0.522 56 43 27 0 0
-0.1346 0.0577 -0.6556 -0.137 0.825 0.548 55 51 48 0 0
-0.1346 0.0597 -0.6564 -0.243 0.740 0.627 47 42 35 0 0
-0.1348 0.0633 -0.6561 0.395 0.709 0.584 61 52 42 0 0
-0.1380 0.1371 -0.7074 -0.202 0.757 0.622 153 134 95 0 0
-0.1381 0.1381 -0.7086 -0.202 0.757 0.622 153 133 94 0 0
-0.1381 0.1391 -0.7099 -0.202 0.757 0.622 166 145 100 0 0
-0.1381 0.1395 -0.7116 -0.311 0.926 0.216 174 153 110 0 0
-0.1367 0.1090 -0.7845 -0.283 0.749 0.599 80 67 48 0 0
-0.1367 0.1103 -0.7856 -0.341 0.820 0.459 56 45 25 0 0
-0.1368 0.1114 -0.7869 -0.300 0.741 0.600 54 44 27 0 0
-0.1369 0.1142 -0.7889 -0.339 0.462 0.820 57 45 28 0 0
-0.1376 0.1305 -0.8012 -0.467 0.393 0.792 72 62 44 0 0
-0.1379 0.1365 -0.8047 -0.415 0.687 0.597 95 79 61 0 0
-0.1379 0.1376 -0.8060 -0.368 0.711 0.599 90 74 53 0 0
-0.1383 0.1455 -0.8164 0.113 0.722 0.682 164 153 112 0 0
-0.1326 0.0383 -0.3131 -0.261 0.917 0.301 49 38 27 0 0
-0.1326 0.0387 -0.3146 -0.261 0.917 0.301 84 72 58 0 0
-0.1328 0.0447 -0.3496 -0.485 0.857 0.175 25 20 16 0 0
-0.1329 0.0454 -0.3543 0.269 0.957 0.108 54 45 36 0 0
-0.1329 0.0462 -0.3589 -0.191 0.948 -0.256 73 61 40 0 0
-0.1337 0.0654 -0.4148 0.270 0.938 0.217 53 36 18 0 0
-0.1337 0.0664 -0.4178 0.270 0.850 0.452 60 42 22 0 0
-0.1337 0.0671 -0.4192 0.229 0.739 0.633 67 48 27 0 0
-0.1338 0.0693 -0.4267 -0.122 0.977 0.175 82 65 37 0 0
-0.1338 0.0696 -0.4283 -0.122 0.977 0.175 80 63 35 0 0
-0.1338 0.0686 -0.4304 -0.384 0.894 0.232 85 68 40 0 0
-0.1338 0.0689 -0.4320 -0.024 0.991 0.134 89 72 42 0 0
-0.1326 0.0446 -0.4738 0.605 0.494 -0.624 27 26 22 0 0
-0.1319 0.0305 -0.4873 -0.657 0.325 0.680 32 31 28 0 0
-0.1332 0.0634 -0.6147 -0.369 0.920 0.134 47 34 18 0 0
-0.1332 0.0635 -0.6165 -0.273 0.895 0.353 43 31 17 0 0
-0.1328 0.0576 -0.6557 -0.190 0.925 0.330 51 47 43 0 0
-0.1330 0.0600 -0.6562 -0.296 0.746 0.596 51 45 39 0 0
-0.1331 0.0630 -0.6563 0.185 0.682 0.708 52 43 36 0 0
-0.1360 0.1256 -0.6567 0.525 0.744 0.412 141 125 89 0 0
-0.1360 0.1269 -0.6578 -0.016 0.967 0.253 135 119 85 0 0
-0.1365 0.1399 -0.7114 -0.257 0.931 0.260 171 151 108 0 0
-0.1368 0.1457 -0.7230 -0.142 0.798 0.585 121 106 73 0 0
-0.1368 0.1474 -0.7237 0.172 0.914 0.366 141 124 87 0 0
-0.1368 0.1461 -0.7287 -0.199 0.936 -0.291 149 132 92 0 0
-0.1349 0.1080 -0.7812 -0.182 0.936 0.300 122 109 85 0 0
-0.1350 0.1100 -0.7838 -0.144 0.838 0.526 51 40 23 0 0
-0.1350 0.1109 -0.7852 -0.222 0.851 0.475 43 33 19 0 0
-0.1351 0.1122 -0.7864 -0.143 0.650 0.746 47 37 25 0 0
-0.1352 0.1147 -0.7887 -0.088 0.419 0.904 56 43 27 0 0
-0.1365 0.1432 -0.8120 -0.201 0.878 0.434 226 210 164 0 0
-0.1366 0.1469 -0.8153 -0.238 0.874 0.424 193 185 146 0 0
-0.1367 0.1488 -0.8179 -0.177 0.846 0.502 162 151 112 0 0
-0.1282 -0.0230 -0.2880 -0.802 -0.001 0.597 177 178 175 0 0
-0.1311 0.0379 -0.3132 -0.017 0.946 0.324 59 47 35 0 0
-0.1311 0.0390 -0.3145 -0.166 0.931 0.324 101 89 74 0 0
-0.1315 0.0489 -0.3402 -0.639 0.757 -0.134 85 73 47 0 0
-0.1320 0.0613 -0.3864 0.219 0.935 0.280 69 55 32 0 0
-0.1323 0.0698 -0.4283 -0.122 0.977 0.175 86 69 43 0 0
-0.1354 0.1383 -0.4797 -0.863 0.505 0.004 156 142 109 0 0
-0.1355 0.1408 -0.4919 -0.818 0.545 -0.186 118 102 79 0 0
-0.1317 0.0668 -0.6127 -0.045 0.962 -0.271 45 34 22 0 0
-0.1316 0.0656 -0.6154 0.193 0.893 0.406 38 28 18 0 0
-0.1312 0.0575 -0.6221 0.452 0.876 -0.168 34 24 15 0 0
-0.1310 0.0552 -0.6453 -0.345 0.938 -0.026 35 27 23 0 0
-0.1313 0.0605 -0.6560 -0.416 0.717 0.559 40 33 28 0 0
-0.1314 0.0633 -0.6562 -0.348 0.792 0.501 59 53 47 0 0
-0.1344 0.1274 -0.6575 0.242 0.414 0.878 143 125 88 0 0
-0.1349 0.1394 -0.7138 0.005 0.998 0.067 120 103 69 0 0
-0.1348 0.1389 -0.7162 -0.041 0.992 -0.118 110 95 68 0 0
-0.1349 0.1415 -0.7183 -0.471 0.791 0.392 162 144 101 0 0
-0.1351 0.1450 -0.7216 -0.057 0.280 0.958 123 108 74 0 0
-0.1332 0.1083 -0.7810 0.066 0.973 0.222 101 88 63 0 0
-0.1333 0.1097 -0.7842 -0.118 0.828 0.548 72 60 43 0 0
-0.1333 0.1110 -0.7853 -0.070 0.826 0.559 74 62 48 0 0
-0.1345 0.1356 -0.7993 -0.481 0.572 0.665 177 162 121 0 0
-0.1348 0.1436 -0.8118 -0.258 0.857 0.447 209 193 145 0 0
-0.1348 0.1444 -0.8133 -0.300 0.752 0.587 233 222 176 0 0
-0.1269 -0.0173 -0.2866 -0.743 -0.017 0.669 167 166 157 0 0
-0.1288 0.0225 -0.2969 -0.466 0.701 0.540 135 121 92 0 0
-0.1290 0.0259 -0.3023 -0.074 0.920 0.385 182 162 124 0 0
-0.1300 0.0494 -0.3433 -0.398 0.916 0.054 93 82 57 0 0
-0.1298 0.0471 -0.3586 -0.138 0.938 0.317 59 48 35 0 0
-0.1303 0.0586 -0.3825 0.008 0.983 0.183 52 39 20 0 0
-0.1305 0.0627 -0.3925 -0.294 0.912 0.287 68 50 25 0 0
-0.1305 0.0637 -0.3938 -0.279 0.781 0.559 67 52 32 0 0
-0.1306 0.0681 -0.4358 -0.006 1.000 -0.031 93 78 50 0 0
-0.1340 0.1416 -0.4814 -0.831 0.349 0.432 112 95 68 0 0
-0.1341 0.1426 -0.4826 -0.836 0.404 0.372 117 104 73 0 0
-0.1300 0.0667 -0.6128 -0.053 0.955 -0.292 43 33 21 0 0
-0.1299 0.0656 -0.6154 0.166 0.986 0.027 33 23 14 0 0
-0.1296 0.0584 -0.6236 0.331 0.929 -0.164 42 32 21 0 0
-0.1297 0.0639 -0.6559 -0.403 0.756 0.516 53 46 39 0 0
-0.1305 0.0791 -0.6542 -0.293 -0.170 0.941 81 77 68 0 0
-0.1320 0.1095 -0.6520 -0.278 0.438 0.855 100 86 61 0 0
-0.1323 0.1164 -0.6552 -0.530 0.476 0.702 137 121 89 0 0
-0.1332 0.1355 -0.6694 -0.395 0.643 0.656 131 113 78 0 0
-0.1333 0.1404 -0.7132 -0.250 0.827 0.504 139 121 84 0 0
-0.1333 0.1415 -0.7143 -0.390 0.793 0.468 122 107 74 0 0
-0.1336 0.1468 -0.7203 0.015 0.860 0.511 116 103 70 0 0
-0.1336 0.1479 -0.7215 -0.155 0.605 0.781 122 108 79 0 0
-0.1337 0.1493 -0.7224 -0.167 0.666 0.727 130 113 82 0 0
-0.1321 0.1209 -0.7859 0.025 0.602 0.798 82 70 53 0 0
-0.1321 0.1218 -0.7874 0.056 0.820 0.569 103 90 70 0 0
-0.1328 0.1363 -0.7988 -0.602 0.482 0.636 198 180 137 0 0
-0.1333 0.1471 -0.8153 -0.419 0.615 0.668 232 218 176 0 0
-0.1335 0.1528 -0.8211 -0.212 0.882 0.422 95 86 54 0 0
-0.1254 -0.0166 -0.2848 -0.712 -0.021 0.701 161 159 153 0 0
-0.1273 0.0221 -0.2955 -0.545 0.602 0.584 119 107 85 0 0
-0.1273 0.0232 -0.2967 -0.454 0.741 0.494 130 117 91 0 0
-0.1275 0.0272 -0.3020 0.160 0.848 0.505 110 93 68 0 0
-0.1284 0.0471 -0.3248 -0.460 0.829 0.319 114 92 64 0 0
-0.1284 0.0477 -0.3262 -0.460 0.829 0.319 165 144 104 0 0
-0.1288 0.0586 -0.3809 -0.256 0.920 0.298 97 85 66 0 0
-0.1289 0.0624 -0.3910 -0.350 0.741 0.573 124 106 67 0 0
-0.1290 0.0645 -0.3919 0.198 0.883 0.426 76 56 30 0 0
-0.1290 0.0642 -0.3936 -0.087 0.791 0.606 69 53 33 0 0
-0.1291 0.0679 -0.4206 0.049 0.938 0.343 81 63 39 0 0
-0.1292 0.0695 -0.4233 -0.400 0.750 0.526 81 65 39 0 0
-0.1289 0.0667 -0.4450 0.357 0.931 -0.084 56 47 34 0 0
-0.1325 0.1402 -0.4688 -0.354 0.815 0.458 102 87 66 0 0
-0.1325 0.1409 -0.4701 -0.391 0.865 0.315 116 103 82 0 0
-0.1326 0.1414 -0.4715 -0.335 0.942 0.029 119 107 83 0 0
-0.1326 0.1436 -0.4805 -0.765 0.436 0.474 120 104 73 0 0
-0.1327 0.1448 -0.4816 -0.833 0.425 0.355 117 104 72 0 0
-0.1327 0.1457 -0.4828 -0.833 0.425 0.355 131 119 85 0 0
-0.1281 0.0648 -0.6554 -0.534 0.709 0.461 55 46 38 0 0
-0.1300 0.1029 -0.6506 -0.327 0.078 0.942 93 83 71 0 0
-0.1303 0.1100 -0.6518 -0.278 0.438 0.855 98 85 61 0 0
-0.1306 0.1159 -0.6537 -0.455 0.593 0.665 138 121 89 0 0
-0.1313 0.1329 -0.7068 -0.502 0.538 0.677 89 79 60 0 0
-0.1314 0.1347 -0.7074 -0.203 0.891 0.405 100 88 64 0 0
-0.1317 0.1426 -0.7136 0.189 0.822 0.537 180 161 120 0 0
-0.1304 0.1210 -0.7859 0.004 0.926 0.376 103 91 66 0 0
-0.1317 0.1488 -0.8182 0.217 0.771 0.599 226 209 160 0 0
-0.1319 0.1543 -0.8242 -0.183 0.942 0.283 87 76 47 0 0
-0.1319 0.1548 -0.8259 -0.183 0.942 0.283 94 82 49 0 0
-0.1321 0.1578 -0.8318 -0.312 0.815 0.488 110 90 47 0 0
-0.1321 0.1585 -0.8334 -0.231 0.965 0.125 121 104 59 0 0
-0.1321 0.1594 -0.8347 -0.408 0.909 0.088 138 123 83 0 0
-0.1322 0.1636 -0.8701 -0.453 0.837 0.306 167 165 165 0 0
-0.1258 0.0250 -0.2978 -0.458 0.771 0.443 112 101 78 0 0
-0.1268 0.0455 -0.3173 0.041 0.851 0.523 96 86 68 0 0
-0.1269 0.0480 -0.3245 -0.149 0.989 -0.019 153 131 91 0 0
-0.1269 0.0484 -0.3276 -0.533 0.817 0.220 145 129 90 0 0
-0.1269 0.0489 -0.3306 -0.354 0.875 0.331 78 62 33 0 0
-0.1268 0.0487 -0.3598 0.037 0.963 0.268 46 33 24 0 0
-0.1274 0.0629 -0.3909 -0.296 0.749 0.593 110 91 58 0 0
-0.1274 0.0635 -0.3923 -0.290 0.848 0.444 84 66 39 0 0
-0.1275 0.0644 -0.3936 -0.087 0.791 0.606 74 57 37 0 0
-0.1275 0.0687 -0.4237 0.091 0.915 0.393 82 65 39 0 0
-0.1273 0.0656 -0.4386 0.201 0.967 0.160 72 59 39 0 0
-0.1273 0.0659 -0.4402 0.201 0.967 0.160 75 63 47 0 0
-0.1258 0.0405 -0.4847 -0.380 0.422 0.823 17 14 13 0 0
-0.1315 0.1521 -0.4896 -0.357 0.933 0.047 150 135 101 0 0
-0.1268 0.0690 -0.6116 -0.411 0.820 -0.398 37 27 17 0 0
-0.1257 0.0507 -0.6363 -0.347 0.867 0.357 31 22 15 0 0
-0.1271 0.0787 -0.6526 -0.461 -0.186 0.868 76 73 61 0 0
-0.1288 0.1115 -0.6509 -0.248 0.748 0.616 90 77 56 0 0
-0.1297 0.1349 -0.7074 -0.111 0.927 0.358 96 86 66 0 0
-0.1298 0.1356 -0.7089 -0.019 0.958 0.285 121 108 83 0 0
-0.1298 0.1360 -0.7105 -0.019 0.958 0.285 129 114 86 0 0
-0.1288 0.1225 -0.7870 -0.074 0.914 0.399 119 107 79 0 0
-0.1300 0.1496 -0.8176 -0.112 0.730 0.675 220 202 156 0 0
-0.1303 0.1564 -0.8246 -0.137 0.963 0.234 79 68 38 0 0
-0.1304 0.1578 -0.8298 -0.293 0.849 0.439 140 119 77 0 0
-0.1305 0.1601 -0.8342 -0.400 0.911 0.097 151 135 91 0 0
-0.1307 0.1669 -0.8628 -0.408 0.489 0.771 96 93 82 0 0
-0.1305 0.1637 -0.8723 -0.335 0.942 0.033 176 175 175 0 0
-0.1243 0.0251 -0.2978 -0.113 0.845 0.522 89 82 65 0 0
-0.1256 0.0534 -0.3324 -0.318 0.741 0.592 79 63 35 0 0
-0.1257 0.0544 -0.3353 -0.347 0.871 0.348 89 74 48 0 0
-0.1257 0.0546 -0.3368 -0.311 0.909 0.278 63 46 25 0 0
-0.1255 0.0523 -0.3456 -0.124 0.699 0.705 91 77 48 0 0
-0.1252 0.0483 -0.3582 0.078 0.996 0.042 44 34 27 0 0
-0.1259 0.0647 -0.3918 -0.381 0.826 0.416 74 59 31 0 0
-0.1259 0.0651 -0.3933 -0.288 0.879 0.379 76 60 36 0 0
-0.1259 0.0651 -0.4083 -0.248 0.953 0.174 71 52 30 0 0
-0.1259 0.0666 -0.4212 -0.092 0.995 0.035 85 68 42 0 0
-0.1260 0.0682 -0.4239 -0.183 0.773 0.607 80 63 37 0 0
-0.1260 0.0686 -0.4254 0.037 0.835 0.549 87 68 44 0 0
-0.1257 0.0652 -0.4353 -0.015 1.000 -0.009 56 45 31 0 0
-0.1293 0.1338 -0.4520 -0.165 0.774 0.612 151 135 104 0 0
-0.1295 0.1383 -0.4615 -0.084 0.876 0.475 113 90 58 0 0
-0.1301 0.1536 -0.4889 -0.336 0.942 -0.007 127 112 84 0 0
-0.1302 0.1558 -0.4962 -0.696 0.699 0.165 98 85 66 0 0
-0.1240 0.0516 -0.6398 -0.064 0.869 0.490 27 19 16 0 0
-0.1244 0.0597 -0.6547 -0.300 0.652 0.697 68 65 60 0 0
-0.1269 0.1066 -0.6464 -0.330 0.088 0.940 85 75 62 0 0
-0.1277 0.1224 -0.6495 -0.418 0.615 0.668 145 130 97 0 0
-0.1285 0.1535 -0.8208 -0.089 0.881 0.466 213 199 157 0 0
-0.1287 0.1568 -0.8244 -0.323 0.885 0.335 73 64 36 0 0
-0.1287 0.1574 -0.8260 -0.323 0.885 0.335 102 88 55 0 0
-0.1287 0.1583 -0.8273 -0.192 0.898 0.395 131 113 73 0 0
-0.1288 0.1590 -0.8288 0.013 0.890 0.456 142 123 81 0 0
-0.1289 0.1654 -0.8599 -0.199 0.959 0.203 30 25 24 0 0
-0.1288 0.1636 -0.8726 -0.235 0.968 -0.092 170 170 168 0 0
-0.1238 0.0470 -0.3185 -0.020 0.843 0.538 106 93 77 0 0
-0.1241 0.0541 -0.3322 -0.303 0.857 0.416 87 71 43 0 0
-0.1242 0.0549 -0.3351 -0.130 0.983 0.131 84 69 45 0 0
-0.1241 0.0548 -0.3367 -0.375 0.915 0.147 56 40 24 0 0
-0.1241 0.0548 -0.3400 -0.369 0.825 0.428 64 47 25 0 0
-0.1241 0.0551 -0.3415 -0.454 0.751 0.480 72 54 28 0 0
-0.1243 0.0628 -0.3893 -0.064 0.820 0.568 54 38 19 0 0
-0.1243 0.0637 -0.3906 -0.064 0.820 0.568 66 50 25 0 0
-0.1244 0.0647 -0.3935 -0.099 0.817 0.568 90 74 47 0 0
-0.1244 0.0656 -0.3948 -0.099 0.817 0.568 119 103 78 0 0
-0.1242 0.0646 -0.4203 -0.141 0.942 0.305 81 63 38 0 0
-0.1242 0.0651 -0.4218 -0.141 0.942 0.305 91 73 49 0 0
-0.1243 0.0663 -0.4247 -0.190 0.814 0.548 83 66 41 0 0
-0.1242 0.0654 -0.4353 -0.359 0.927 0.108 25 18 12 0 0
-0.1225 0.0381 -0.4805 -0.390 0.921 0.020 19 17 15 0 0
-0.1226 0.0402 -0.4831 0.015 0.849 0.529 14 11 10 0 0
-0.1278 0.1350 -0.4531 -0.167 0.827 0.537 166 147 109 0 0
-0.1287 0.1543 -0.4886 -0.634 0.756 0.166 97 81 61 0 0
-0.1287 0.1547 -0.4901 -0.654 0.725 0.215 109 94 69 0 0
-0.1287 0.1550 -0.4916 -0.400 0.656 0.640 133 120 89 0 0
-0.1287 0.1556 -0.4930 -0.346 0.688 0.638 142 128 93 0 0
-0.1287 0.1558 -0.4945 -0.588 0.730 0.348 116 102 75 0 0
-0.1288 0.1567 -0.4957 -0.495 0.867 -0.058 92 79 58 0 0
-0.1287 0.1566 -0.4975 -0.495 0.867 -0.058 113 102 80 0 0
-0.1226 0.0571 -0.6384 -0.247 0.963 0.106 26 17 14 0 0
-0.1242 0.0868 -0.6514 0.058 -0.088 0.994 66 58 51 0 0
-0.1271 0.1437 -0.6717 0.044 0.576 0.816 143 123 89 0 0
-0.1272 0.1493 -0.7148 -0.108 0.942 0.318 94 74 47 0 0
-0.1254 0.1233 -0.7865 -0.391 0.853 0.347 89 75 55 0 0
-0.1254 0.1243 -0.7879 -0.313 0.788 0.530 126 111 84 0 0
-0.1266 0.1484 -0.8061 -0.452 0.780 0.432 85 70 44 0 0
-0.1267 0.1500 -0.8175 -0.080 0.626 0.776 198 184 135 0 0
-0.1271 0.1592 -0.8288 -0.322 0.858 0.400 143 124 83 0 0
-0.1272 0.1625 -0.8453 -0.289 0.830 0.476 139 126 87 0 0
-0.1272 0.1635 -0.8465 -0.293 0.898 0.328 115 103 69 0 0
-0.1273 0.1651 -0.8515 -0.416 0.860 0.296 77 63 37 0 0
-0.1273 0.1651 -0.8538 -0.316 0.941 0.122 79 66 42 0 0
-0.1274 0.1685 -0.8637 -0.341 0.877 0.339 105 101 91 0 0
-0.1212 0.0257 -0.2992 0.032 0.990 0.136 27 21 18 0 0
-0.1213 0.0279 -0.3018 -0.028 0.782 0.623 46 33 26 0 0
-0.1226 0.0549 -0.3351 -0.023 0.992 0.122 60 45 25 0 0
-0.1226 0.0548 -0.3383 -0.434 0.895 0.101 55 41 21 0 0
-0.1226 0.0552 -0.3398 -0.399 0.854 0.334 57 42 20 0 0
-0.1226 0.0559 -0.3412 -0.297 0.707 0.642 59 43 20 0 0
-0.1226 0.0551 -0.3431 -0.752 0.513 0.414 65 49 24 0 0
-0.1226 0.0563 -0.3459 -0.600 0.799 0.024 69 55 29 0 0
-0.1226 0.0565 -0.3474 -0.504 0.835 0.222 87 74 48 0 0
-0.1227 0.0580 -0.3485 -0.250 0.945 0.210 97 86 58 0 0
-0.1227 0.0583 -0.3500 -0.250 0.945 0.210 87 73 49 0 0
-0.1228 0.0638 -0.3906 -0.024 0.785 0.619 72 58 32 0 0
-0.1209 0.0392 -0.4800 -0.201 0.975 -0.094 15 11 10 0 0
-0.1209 0.0399 -0.4833 -0.063 0.961 0.269 11 8 7 0 0
-0.1267 0.1436 -0.4690 -0.448 0.671 0.591 135 122 100 0 0
-0.1271 0.1522 -0.4813 -0.191 0.759 0.623 93 75 51 0 0
-0.1272 0.1552 -0.4865 -0.423 0.891 0.168 98 81 60 0 0
-0.1272 0.1555 -0.4880 -0.423 0.891 0.168 93 77 57 0 0
-0.1272 0.1557 -0.4896 -0.423 0.891 0.168 87 74 52 0 0
-0.1272 0.1557 -0.4912 -0.188 0.814 0.550 99 87 63 0 0
-0.1272 0.1556 -0.4930 -0.070 0.742 0.667 110 97 74 0 0
-0.1273 0.1563 -0.4943 -0.183 0.937 0.298 103 90 72 0 0
-0.1271 0.1564 -0.5146 -0.074 0.915 0.397 118 103 74 0 0
-0.1209 0.0566 -0.6388 -0.282 0.907 0.314 28 19 16 0 0
-0.1210 0.0588 -0.6454 -0.193 0.896 0.399 39 30 24 0 0
-0.1210 0.0595 -0.6470 -0.193 0.896 0.399 42 33 26 0 0
-0.1222 0.0819 -0.6507 -0.041 -0.118 0.992 71 66 57 0 0
-0.1248 0.1291 -0.6509 -0.645 0.534 0.547 200 180 136 0 0
-0.1258 0.1500 -0.6829 -0.346 0.938 0.022 177 159 114 0 0
-0.1235 0.1198 -0.7788 -0.609 0.788 0.089 113 98 75 0 0
-0.1236 0.1214 -0.7797 -0.327 0.791 0.518 109 94 74 0 0
-0.1237 0.1227 -0.7807 -0.299 0.764 0.572 114 100 81 0 0
-0.1237 0.1232 -0.7825 -0.143 0.495 0.857 94 81 62 0 0
-0.1243 0.1349 -0.7899 -0.495 0.575 0.651 77 63 37 0 0
-0.1244 0.1363 -0.7909 -0.424 0.579 0.697 78 66 39 0 0
-0.1245 0.1397 -0.7923 -0.228 0.673 0.703 129 112 88 0 0
-0.1250 0.1499 -0.8071 -0.100 0.838 0.536 62 48 25 0 0
-0.1257 0.1690 -0.8633 -0.341 0.877 0.339 92 88 79 0 0
-0.1258 0.1698 -0.8649 -0.105 0.919 0.381 128 126 120 0 0
-0.1181 -0.0053 -0.2691 0.552 0.387 0.739 178 179 179 0 0
-0.1190 0.0109 -0.2747 -0.326 0.803 0.499 82 70 54 0 0
-0.1191 0.0119 -0.2760 -0.069 0.802 0.594 64 51 39 0 0
-0.1191 0.0122 -0.2775 -0.200 0.957 0.209 78 70 59 0 0
-0.1191 0.0125 -0.2790 -0.470 0.807 0.358 78 69 58 0 0
-0.1199 0.0290 -0.2983 -0.056 0.887 0.458 27 22 16 0 0
-0.1199 0.0297 -0.2997 -0.056 0.887 0.458 34 26 19 0 0
-0.1211 0.0563 -0.3395 -0.450 0.798 0.400 56 40 21 0 0
-0.1212 0.0578 -0.3438 -0.364 0.930 0.048 58 41 21 0 0
-0.1212 0.0578 -0.3454 -0.310 0.951 -0.008 62 46 21 0 0
-0.1212 0.0577 -0.3470 -0.310 0.951 -0.008 74 60 33 0 0
-0.1212 0.0591 -0.3498 0.081 0.987 0.136 92 78 50 0 0
-0.1207 0.0513 -0.3589 -0.234 0.936 -0.263 34 26 20 0 0
-0.1205 0.0477 -0.3618 0.249 0.606 0.755 29 19 12 0 0
-0.1212 0.0639 -0.3905 -0.058 0.781 0.621 95 81 56 0 0
-0.1213 0.0650 -0.3918 -0.058 0.781 0.621 109 96 69 0 0
-0.1213 0.0660 -0.3930 -0.199 0.817 0.541 93 77 52 0 0
-0.1212 0.0648 -0.4051 0.089 0.920 0.383 71 53 31 0 0
-0.1211 0.0654 -0.4234 0.091 0.995 0.051 79 63 39 0 0
-0.1211 0.0658 -0.4250 0.297 0.921 0.251 85 69 43 0 0
-0.1206 0.0584 -0.4452 0.634 0.645 -0.427 10 9 7 0 0
-0.1193 0.0403 -0.4850 0.275 0.439 0.856 14 8 8 0 0
-0.1252 0.1428 -0.4677 -0.205 0.645 0.736 126 113 89 0 0
-0.1253 0.1445 -0.4685 -0.375 0.703 0.605 122 106 82 0 0
-0.1258 0.1560 -0.4911 -0.188 0.814 0.550 83 69 52 0 0
-0.1258 0.1566 -0.4942 -0.183 0.937 0.298 93 81 64 0 0
-0.1192 0.0586 -0.6496 -0.473 0.813 0.340 50 42 34 0 0
-0.1218 0.1045 -0.6479 -0.417 0.131 0.899 85 75 63 0 0
-0.1244 0.1535 -0.6784 -0.118 0.936 0.332 152 133 91 0 0
-0.1219 0.1214 -0.7777 -0.643 0.759 -0.104 82 68 42 0 0
-0.1219 0.1208 -0.7803 -0.712 0.654 0.257 100 85 64 0 0
-0.1226 0.1355 -0.7895 0.095 0.723 0.684 79 63 41 0 0
-0.1228 0.1392 -0.7949 -0.194 0.838 0.510 60 49 29 0 0
-0.1231 0.1436 -0.7955 -0.232 0.861 0.453 38 26 16 0 0
-0.1237 0.1598 -0.8306 -0.346 0.842 0.415 146 128 81 0 0
-0.1238 0.1618 -0.8331 -0.248 0.741 0.624 165 145 101 0 0
-0.1179 0.0202 -0.2833 -0.476 0.624 0.620 166 151 111 0 0
-0.1184 0.0294 -0.2982 -0.258 0.898 0.358 28 22 15 0 0
-0.1184 0.0308 -0.3010 -0.281 0.872 0.401 61 49 36 0 0
-0.1187 0.0370 -0.3072 -0.051 0.527 0.848 116 105 89 0 0
-0.1193 0.0541 -0.3694 -0.137 0.974 0.179 132 112 79 0 0
-0.1197 0.0655 -0.4049 -0.204 0.964 0.169 72 54 32 0 0
-0.1196 0.0652 -0.4067 -0.101 0.970 0.222 73 55 33 0 0
-0.1197 0.0656 -0.4082 -0.108 0.955 0.276 76 58 36 0 0
-0.1195 0.0649 -0.4253 0.284 0.919 0.274 80 64 40 0 0
-0.1195 0.0656 -0.4301 0.028 0.834 0.551 89 76 52 0 0
-0.1195 0.0661 -0.4334 -0.404 0.684 0.607 57 47 33 0 0
-0.1195 0.0666 -0.4349 -0.529 0.797 0.290 31 27 21 0 0
-0.1178 0.0409 -0.4651 -0.146 0.914 -0.378 29 25 24 0 0
-0.1178 0.0402 -0.4671 -0.207 0.978 0.028 27 23 22 0 0
-0.1178 0.0406 -0.4687 -0.138 0.976 0.170 30 26 25 0 0
-0.1237 0.1431 -0.4676 -0.138 0.618 0.774 109 96 73 0 0
-0.1238 0.1451 -0.4683 -0.213 0.666 0.715 92 76 50 0 0
-0.1238 0.1458 -0.4696 -0.368 0.864 0.344 89 74 45 0 0
-0.1242 0.1538 -0.4806 -0.198 0.647 0.736 116 104 73 0 0
-0.1243 0.1550 -0.4817 -0.198 0.647 0.736 134 121 85 0 0
-0.1243 0.1548 -0.4834 -0.191 0.918 0.348 126 112 80 0 0
-0.1243 0.1621 -0.5287 -0.089 0.986 -0.142 125 108 83 0 0
-0.1236 0.1518 -0.5503 -0.153 0.885 -0.439 146 131 90 0 0
-0.1172 0.0532 -0.6470 -0.141 0.969 0.201 31 26 20 0 0
-0.1177 0.0615 -0.6459 -0.342 0.618 0.708 43 36 29 0 0
-0.1211 0.1212 -0.6467 -0.091 0.754 0.651 81 72 57 0 0
-0.1217 0.1315 -0.6533 -0.180 0.735 0.654 178 162 121 0 0
-0.1218 0.1339 -0.6556 -0.078 0.997 0.018 208 190 147 0 0
-0.1217 0.1336 -0.6635 -0.359 0.917 0.171 210 194 146 0 0
-0.1221 0.1446 -0.7027 -0.158 0.757 0.634 23 14 13 0 0
-0.1221 0.1456 -0.7039 -0.022 0.919 0.394 23 16 11 0 0
-0.1226 0.1538 -0.7116 -0.010 0.802 0.597 179 158 113 0 0
-0.1225 0.1537 -0.7157 -0.325 0.815 0.480 144 126 89 0 0
-0.1228 0.1582 -0.7162 -0.151 0.825 0.544 104 87 54 0 0
-0.1228 0.1587 -0.7179 -0.076 0.761 0.645 100 81 48 0 0
-0.1228 0.1592 -0.7195 -0.401 0.812 0.423 128 109 75 0 0
-0.1228 0.1599 -0.7209 -0.251 0.964 0.092 117 97 62 0 0
-0.1206 0.1271 -0.7732 -0.521 0.746 -0.416 74 63 37 0 0
-0.1208 0.1323 -0.7880 -0.153 0.534 0.832 79 62 42 0 0
-0.1208 0.1337 -0.7890 0.070 0.813 0.578 70 54 37 0 0
-0.1209 0.1346 -0.7903 0.076 0.880 0.468 62 47 31 0 0
-0.1224 0.1714 -0.8768 -0.457 0.444 0.771 196 194 195 0 0
-0.1175 0.0422 -0.3104 -0.111 0.783 0.612 172 155 130 0 0
-0.1182 0.0591 -0.3466 -0.260 0.966 0.001 72 58 31 0 0
-0.1181 0.0653 -0.4083 0.166 0.953 0.253 76 59 37 0 0
-0.1179 0.0649 -0.4254 0.171 0.970 0.174 74 59 38 0 0
-0.1179 0.0651 -0.4270 0.015 0.970 0.244 84 69 48 0 0
-0.1179 0.0653 -0.4286 -0.057 0.969 0.239 87 74 49 0 0
-0.1179 0.0656 -0.4302 0.028 0.834 0.551 85 73 48 0 0
-0.1179 0.0661 -0.4317 0.327 0.724 0.607 80 66 48 0 0
-0.1162 0.0412 -0.4649 0.093 0.975 -0.204 34 30 29 0 0
-0.1215 0.1293 -0.4559 0.754 -0.024 0.656 76 68 59 0 0
-0.1224 0.1462 -0.4694 0.123 0.818 0.562 82 67 38 0 0
-0.1228 0.1571 -0.5024 0.111 0.860 0.499 108 89 56 0 0
-0.1229 0.1625 -0.5268 -0.087 0.989 -0.117 137 118 84 0 0
-0.1229 0.1623 -0.5286 -0.087 0.989 -0.117 126 108 76 0 0
-0.1214 0.1417 -0.5633 -0.156 0.706 -0.690 78 62 41 0 0
-0.1158 0.0543 -0.6206 0.298 0.901 -0.316 29 20 11 0 0
-0.1155 0.0531 -0.6452 -0.141 0.969 0.201 27 20 14 0 0
-0.1195 0.1209 -0.6470 0.195 0.795 0.574 101 92 77 0 0
-0.1191 0.1327 -0.7877 0.034 0.646 0.763 75 59 39 0 0
-0.1192 0.1341 -0.7888 -0.219 0.681 0.699 59 43 27 0 0
-0.1193 0.1361 -0.7892 -0.330 0.854 0.403 46 32 18 0 0
-0.1194 0.1379 -0.7920 -0.182 0.660 0.729 42 28 14 0 0
-0.1202 0.1538 -0.8125 -0.083 0.835 0.545 107 94 62 0 0
-0.1202 0.1550 -0.8136 -0.142 0.930 0.337 94 82 49 0 0
-0.1204 0.1596 -0.8224 0.022 0.958 0.286 98 88 62 0 0
-0.1132 -0.0102 -0.2623 0.438 0.856 -0.275 179 179 179 0 0
-0.1155 0.0333 -0.3019 -0.701 0.689 0.187 104 86 69 0 0
-0.1167 0.0600 -0.3527 -0.182 0.982 0.043 88 76 48 0 0
-0.1153 0.0511 -0.4484 -0.340 0.845 -0.412 16 14 12 0 0
-0.1140 0.0535 -0.6212 0.113 0.935 -0.337 29 20 11 0 0
-0.1136 0.0488 -0.6339 -0.043 0.976 0.216 23 16 9 0 0
-0.1138 0.0531 -0.6452 0.055 0.879 0.474 34 27 22 0 0
-0.1144 0.0628 -0.6492 -0.217 0.662 0.718 72 68 61 0 0
-0.1144 0.0642 -0.6503 -0.299 0.599 0.743 54 49 45 0 0
-0.1176 0.1172 -0.6475 -0.083 0.577 0.813 84 75 60 0 0
-0.1179 0.1212 -0.6468 -0.348 0.725 0.594 103 92 80 0 0
-0.1185 0.1324 -0.6529 -0.303 0.724 0.620 204 187 144 0 0
-0.1186 0.1336 -0.6539 -0.342 0.937 0.069 203 185 143 0 0
-0.1186 0.1344 -0.6553 -0.461 0.799 0.387 194 174 137 0 0
-0.1192 0.1453 -0.6594 -0.211 0.897 0.390 184 162 120 0 0
-0.1193 0.1459 -0.6609 -0.211 0.897 0.390 177 155 117 0 0
-0.1189 0.1455 -0.7061 -0.215 0.969 0.119 46 42 33 0 0
-0.1194 0.1545 -0.7113 -0.230 0.690 0.687 119 101 72 0 0
-0.1194 0.1556 -0.7125 -0.230 0.690 0.687 141 122 89 0 0
-0.1195 0.1568 -0.7135 -0.273 0.754 0.597 165 149 114 0 0
-0.1195 0.1577 -0.7148 -0.212 0.880 0.424 161 145 117 0 0
-0.1197 0.1616 -0.7197 -0.056 0.933 0.356 96 80 48 0 0
-0.1196 0.1611 -0.7281 -0.461 0.879 -0.124 135 112 74 0 0
-0.1174 0.1306 -0.7706 -0.380 0.775 -0.506 51 44 26 0 0
-0.1176 0.1355 -0.7877 -0.088 0.764 0.640 89 74 57 0 0
-0.1181 0.1465 -0.8039 -0.100 0.949 0.298 52 39 23 0 0
-0.1181 0.1474 -0.8053 0.044 0.938 0.343 56 44 28 0 0
-0.1185 0.1547 -0.8118 0.077 0.981 0.179 101 86 58 0 0
-0.1185 0.1551 -0.8136 -0.061 0.990 0.124 94 80 46 0 0
-0.1190 0.1674 -0.8523 -0.119 0.891 0.438 126 111 79 0 0
-0.1189 0.1675 -0.8543 -0.191 0.915 0.356 127 113 82 0 0
-0.1115 -0.0122 -0.2612 0.367 0.924 0.104 179 179 181 0 0
-0.1152 0.0601 -0.3399 -0.256 0.893 0.370 73 57 34 0 0
-0.1147 0.0643 -0.4257 0.295 0.912 0.285 71 56 35 0 0
-0.1147 0.0644 -0.4273 0.377 0.740 0.557 71 56 37 0 0
-0.1138 0.0518 -0.4481 -0.249 0.845 -0.474 17 13 12 0 0
-0.1136 0.0494 -0.4544 -0.220 0.975 0.029 24 20 19 0 0
-0.1135 0.0495 -0.4561 -0.349 0.935 -0.061 21 17 16 0 0
-0.1135 0.0493 -0.4579 0.328 0.759 0.562 20 16 15 0 0
-0.1135 0.0489 -0.4616 0.422 0.902 0.088 30 26 25 0 0
-0.1130 0.0440 -0.4762 -0.384 0.896 0.223 16 12 11 0 0
-0.1195 0.1496 -0.4761 0.099 0.861 0.499 65 49 30 0 0
-0.1190 0.1524 -0.5501 -0.329 0.901 -0.282 128 110 75 0 0
-0.1123 0.0539 -0.6309 0.146 0.927 0.345 19 12 6 0 0
-0.1120 0.0505 -0.6369 -0.062 0.956 0.285 23 17 11 0 0
-0.1163 0.1216 -0.6467 -0.158 0.695 0.702 71 61 47 0 0
-0.1178 0.1500 -0.6735 -0.288 0.950 0.123 88 72 44 0 0
-0.1172 0.1457 -0.7060 -0.014 0.942 0.336 34 30 23 0 0
-0.1158 0.1321 -0.7695 -0.380 0.775 -0.506 44 36 23 0 0
-0.1159 0.1360 -0.7874 0.074 0.871 0.485 103 89 71 0 0
-0.1160 0.1368 -0.7888 0.074 0.871 0.485 93 78 56 0 0
-0.1160 0.1377 -0.7902 -0.248 0.668 0.701 84 68 48 0 0
-0.1174 0.1673 -0.8351 -0.208 0.962 0.177 149 135 92 0 0
-0.1173 0.1674 -0.8458 -0.324 0.918 0.230 146 130 88 0 0
-0.1175 0.1735 -0.8729 -0.255 0.349 0.901 188 188 188 0 0
-0.1098 -0.0137 -0.2616 0.123 0.901 0.416 179 179 181 0 0
-0.1116 0.0171 -0.2747 -0.335 0.748 0.573 185 163 114 0 0
-0.1122 0.0291 -0.2936 -0.406 0.868 0.284 65 54 41 0 0
-0.1127 0.0384 -0.3067 0.169 0.930 0.325 118 101 75 0 0
-0.1137 0.0605 -0.3430 -0.038 0.971 0.236 67 53 28 0 0
-0.1130 0.0533 -0.3648 -0.224 0.903 0.368 39 27 14 0 0
-0.1122 0.0524 -0.4479 -0.275 0.872 -0.406 16 12 11 0 0
-0.1120 0.0495 -0.4544 0.236 0.939 0.250 21 17 16 0 0
-0.1120 0.0497 -0.4560 0.291 0.941 0.170 20 16 15 0 0
-0.1119 0.0497 -0.4578 0.292 0.919 0.264 20 16 15 0 0
-0.1122 0.0536 -0.4596 0.557 0.636 0.534 27 23 22 0 0
-0.1122 0.0581 -0.4823 -0.066 0.926 0.371 25 21 18 0 0
-0.1175 0.1393 -0.4646 0.552 0.658 0.512 125 115 97 0 0
-0.1177 0.1545 -0.5472 -0.171 0.973 -0.152 138 120 78 0 0
-0.1175 0.1528 -0.5499 -0.402 0.898 -0.180 127 109 72 0 0
-0.1105 0.0529 -0.6276 -0.079 0.969 0.234 33 24 17 0 0
-0.1105 0.0533 -0.6293 -0.079 0.969 0.234 24 17 11 0 0
-0.1105 0.0537 -0.6311 -0.079 0.969 0.234 22 15 9 0 0
-0.1103 0.0508 -0.6368 -0.149 0.909 0.390 21 16 10 0 0
-0.1103 0.0511 -0.6386 -0.303 0.884 0.356 21 15 9 0 0
-0.1164 0.1555 -0.6832 -0.064 0.942 0.329 125 109 68 0 0
-0.1165 0.1562 -0.6847 -0.183 0.748 0.638 122 107 73 0 0
-0.1165 0.1565 -0.6864 -0.124 0.969 0.215 116 101 68 0 0
-0.1165 0.1621 -0.7196 -0.263 0.941 0.214 93 73 43 0 0
