ply
format ascii 1.0
element vertex 659
property float x
property float y
property float z
property uchar diffuse_red
property uchar diffuse_green
property uchar diffuse_blue
end_header
0.010689822942303057 -0.06157031820660593 -0.27488855671395157 97 82 53
0.011158800132666707 -0.06153023988513408 -0.276390889017736 96 81 53
0.011691947340869493 -0.061469604649596755 -0.27787603980689496 91 76 48
0.012221308010128495 -0.06141020253336134 -0.2793625014546015 83 67 39
0.01307069968979653 -0.061248072527882315 -0.2807602348843786 90 75 46
0.012868665592892958 -0.0614235671861153 -0.28245130396619744 92 77 47
0.012778774419723402 -0.061563208552921946 -0.2841134075343348 96 81 49
0.011673161792419465 -0.06202942391924947 -0.28606500950382907 98 82 49
0.011054382140226957 -0.062339500904780035 -0.2878835862443439 99 83 50
0.012403831342789912 -0.062016890817549006 -0.2891431988507286 102 85 55
0.010715901876864997 -0.06267122233701551 -0.29127392470462504 102 85 57
0.010124873510303833 -0.06297306691434999 -0.2930947909219719 105 89 61
0.011558729821001937 -0.0626233504017091 -0.29433082016338574 100 83 53
0.012127137548086378 -0.06255214481212261 -0.2958172494408208 108 91 58
0.01118124077178781 -0.06296873777733622 -0.2977488850541341 121 105 69
0.011093277141684607 -0.06310921826019071 -0.2994319978881542 130 116 80
0.009760236808291481 -0.06365118300779674 -0.3014872418380652 128 115 83
0.008269203951243129 -0.06424451260571158 -0.30359589855401414 118 105 77
0.007897586938291137 -0.06447723046945175 -0.3053751873936495 99 85 58
0.007271889700246351 -0.06479214466861238 -0.3072343511727142 83 64 39
0.006849497933132859 -0.06504170926028632 -0.3090358207747242 68 49 26
0.005642920332713491 -0.06554469462832185 -0.31107985942732685 90 76 53
0.0023327311273397405 -0.0667275082848194 -0.3137748415163945 114 99 71
0.0004212577194982886 -0.06745926334587368 -0.31605129579577595 117 104 78
-0.0038536230335212973 -0.0689554243694576 -0.3190682319980074 108 98 82
-0.009706284631921955 -0.0709627634558328 -0.32259236582644557 140 134 128
-0.12311593487221209 -0.10904835710875349 -0.3788886946286804 148 146 138
-0.11924474439677782 -0.10792163194218427 -0.3795281829353802 117 111 96
-0.11544033109687465 -0.10681589347500135 -0.3801795596309928 92 84 72
-0.11455250575997661 -0.10665691083518301 -0.3817954608824955 73 64 54
-0.11355206076746488 -0.10646129184875593 -0.3833729540576646 60 52 41
-0.11333495185059714 -0.10652024475220417 -0.38521382244211255 56 49 39
-0.1131176824703295 -0.10657925435789761 -0.3870562454385413 72 66 57
-0.1129178134190357 -0.10664403314875835 -0.3889062086863832 81 76 67
-0.11115984547769864 -0.10620191872348989 -0.39022438890672945 109 105 98
-0.11117926679434245 -0.10633813199440925 -0.39215057349926385 126 123 118
-0.11113342115484451 -0.10645325504990588 -0.39405659485261424 140 139 136
-0.11077748496355183 -0.10646751862993846 -0.39585710172818767 151 151 149
-0.11059339284762665 -0.10653785598343167 -0.39771874328665935 174 175 175
-0.11065870560439181 -0.10668960662513849 -0.39966956970203316 182 182 182
-0.11026441939627976 -0.1066916689166254 -0.4014610521871762 183 183 182
-0.11076708331153834 -0.10698637226684655 -0.40357105058524145 182 182 184
-0.11273306617258522 -0.10789016279551125 -0.40814634642039044 181 181 186
-0.11039028058822842 -0.10937849564927418 -0.44060418297674275 185 185 188
-0.15156370497732558 -0.12656125669642182 -0.5106333244897284 194 195 200
-0.1407614494736929 -0.1236934818437138 -0.5165003279480269 197 197 200
-0.13830984608629385 -0.12302222924166378 -0.5175303548568762 197 197 202
-0.13702248076014656 -0.12273734676197591 -0.5190702106400773 197 198 202
-0.13749386594870625 -0.12303682936531217 -0.5213905363181499 197 198 203
-0.13768620243110927 -0.12324383416296292 -0.523590567114811 197 199 203
-0.1378221952426667 -0.12343232720465046 -0.5257686843099219 198 200 203
-0.14045629421000164 -0.12445214163610367 -0.5290745358685892 199 200 202
-0.13708482638284794 -0.12347402556998285 -0.5296782142037891 200 201 205
-0.13799451350558375 -0.123920629753346 -0.5322150719615897 201 202 206
-0.06130499912027548 -0.10363173686981096 -0.574910325174308 206 207 206
-0.06053818240649772 -0.10351421811650315 -0.5765985069306012 194 196 194
-0.05998666298172514 -0.10346943479901081 -0.5783999695854662 169 168 164
-0.059108621689983404 -0.10331432523951532 -0.5800294076394608 137 135 130
-0.05885135241414749 -0.10336908628586448 -0.5819876986056328 103 101 95
-0.05775585779698064 -0.10314041851632157 -0.5835013265432648 74 70 65
-0.05661876075760219 -0.10289757745258526 -0.5849913145419565 64 58 50
-0.05478802410243741 -0.10241981506616703 -0.5861077059406079 54 46 38
-0.05346149453968346 -0.10211252106266001 -0.5874912895426203 49 40 30
-0.05199701661720171 -0.10175833758210423 -0.5887980727949502 46 37 26
-0.05036852488040175 -0.10134837736583349 -0.5900131385021341 45 35 23
-0.04899402398436867 -0.10102429685931395 -0.5913629103698536 56 47 31
-0.04749612115210039 -0.10065819407264642 -0.5926428392190682 59 51 33
-0.04624999971270638 -0.10037731947986374 -0.5940577143776231 59 51 32
-0.045004566414722225 -0.10009654259127623 -0.5954709599284389 65 57 38
-0.04516639846207682 -0.10029347347476636 -0.5976583633112317 66 57 40
-0.04410033255925283 -0.10007353460647414 -0.5991695468994394 64 54 36
-0.04351033250125713 -0.1000152795620565 -0.6009437943110817 47 36 18
-0.04246423650036682 -0.0998020112395291 -0.6024643617140354 66 53 33
-0.04111100495505618 -0.099484209509804 -0.6038119241829812 66 54 31
-0.04015298366416806 -0.09930069457995619 -0.6053788105184494 61 49 27
-0.03927882932627785 -0.09914565998911559 -0.6069919960801378 71 58 36
-0.03886141381544708 -0.09914608763857738 -0.6088626249804361 75 63 40
-0.038539652431496485 -0.09917917298837096 -0.6107886398953792 66 53 32
-0.038063791723677715 -0.09915985654945339 -0.6126285301658566 68 56 32
-0.041177830258834175 -0.10036424016926254 -0.6165183385842924 76 64 38
-0.04122799403709995 -0.10052488837110946 -0.6186683110728708 66 54 31
-0.04095332855756756 -0.10057493399792425 -0.6206346156529364 63 51 29
-0.039679652102020735 -0.10028418567301337 -0.6220266486044385 73 60 38
-0.03910439986199096 -0.10023172062939495 -0.6238205908257813 66 54 32
-0.039834890135629436 -0.10062522107888687 -0.6263730442217373 83 70 49
-0.03869248858327018 -0.10037924230762527 -0.6278403555745729 70 57 38
-0.038304842138293244 -0.10039110993913965 -0.6297470836955713 64 51 32
-0.03811484421940767 -0.10047064378678189 -0.6317710059661851 64 51 32
-0.0372785102885386 -0.10032924550929771 -0.6334167877672714 67 54 32
-0.03645721563373139 -0.10019296324713929 -0.6350710026423237 68 56 33
-0.03624333084150655 -0.10026457491055801 -0.6370845391205603 65 53 32
-0.034570065551944 -0.09983657328743187 -0.63823296613679 68 54 35
-0.033999759769710536 -0.09978616180509098 -0.6400351629438973 65 51 34
-0.033976220884802205 -0.09992317081710975 -0.6421649806003911 64 49 31
-0.03320401589138805 -0.09980369474200709 -0.6438483032899518 65 51 30
-0.03222672615306266 -0.09961386718796689 -0.6454079621710802 70 57 36
-0.03115265249928556 -0.09939076448279024 -0.6469081564927606 65 53 32
-0.030969939846217653 -0.09947351855745909 -0.6489471281958672 59 47 26
-0.030512698145682804 -0.09946215133821448 -0.6508213317317022 72 59 38
-0.029986078904542995 -0.09942702378303792 -0.6526542728077748 69 56 37
-0.0294593942969259 -0.09939192668958882 -0.6544879559870708 69 56 37
-0.02998886266267281 -0.0997199645890845 -0.6569708470571647 59 45 26
-0.029830366793387075 -0.09981174086947656 -0.6590349869166049 60 46 27
-0.029923949604219208 -0.09999039713025842 -0.6612571550027608 67 53 34
-0.029495184792618506 -0.09998949157349546 -0.6631587716618971 61 46 27
-0.02933020692073654 -0.10007949305474782 -0.6652256346410174 65 51 31
-0.029116191371252986 -0.10015275534370241 -0.6672641476617402 58 48 26
-0.028749860911404662 -0.10017367048665282 -0.6692093737815351 49 37 20
-0.02802373447934059 -0.10007065255968184 -0.6709301095733449 60 46 29
-0.027537870406036752 -0.10005049208389119 -0.67280220505628 70 55 35
-0.02634498392606094 -0.09978647571327245 -0.6742284427842227 89 75 50
-0.026067000812456942 -0.09983809703922081 -0.6762328502588258 70 55 32
-0.025759774148327252 -0.09987974398955712 -0.6782204697682304 66 51 31
-0.025487832825742907 -0.09993369362309784 -0.6802322998589377 76 61 39
-0.025249444925642628 -0.0999993622248232 -0.682267449829802 97 80 55
-0.023463810442009958 -0.09953030864081297 -0.6833110972646554 102 86 60
-0.022967491912540938 -0.09950683565144683 -0.6851809341298335 105 89 62
-0.022653135734177876 -0.0995463774113445 -0.6871692863083353 124 104 75
-0.022172816890794533 -0.09952859396796124 -0.6890517422490796 150 130 98
-0.021898902994712643 -0.0995823430154107 -0.6910694182625318 143 125 93
-0.02129255364031124 -0.099521071157106 -0.6928721050479065 149 132 100
-0.021201750636969385 -0.09963847493855409 -0.695012624163292 131 113 81
-0.021968373650278206 -0.10005328086680695 -0.697718544498375 128 110 75
-0.022147615162751266 -0.10026480509834003 -0.7000438486426019 154 138 101
-0.02241705803890165 -0.10050787501958056 -0.7024324595398413 146 132 93
-0.022469749340536416 -0.10067599601834677 -0.7046815744728462 145 130 89
-0.021572362345650797 -0.1005144635090871 -0.7063024997565872 152 136 96
-0.023368684771090276 -0.10128852925356055 -0.7097185115113344 146 127 91
-0.022951178662489857 -0.10129403109740526 -0.7116645302500045 143 127 89
-0.02200457526426336 -0.10111569427724137 -0.7132569415140211 153 135 95
-0.021546882977370507 -0.10110732326566467 -0.7151774347326331 148 130 89
-0.021617633119094593 -0.10128287678101576 -0.7174557291026802 157 139 97
-0.02148053368686692 -0.10138631513843649 -0.7195966450463762 162 143 100
-0.021198550541522254 -0.10143947488879271 -0.7216416523817792 159 140 98
-0.02024433911742496 -0.10125860725405757 -0.7232306437295957 156 137 95
-0.021043470249053953 -0.10168865992939954 -0.7260166852541041 163 146 103
-0.02045507162985749 -0.10163544112086595 -0.7278582043942443 166 151 106
-0.020287795883450865 -0.10172913035009051 -0.7299898270402075 163 148 104
-0.01956905467521286 -0.101630578864244 -0.7317435820668615 163 148 104
-0.02031148364630414 -0.10204202914163969 -0.7345079716327513 140 124 88
-0.02014786237754823 -0.1021375288793178 -0.7366500274798932 128 109 75
-0.020099615281168715 -0.10227349379562331 -0.7388747704041242 153 131 94
-0.020443104180716598 -0.10254655086608283 -0.7413758111655868 155 135 94
-0.020186919591980823 -0.1026102689136481 -0.7434616219447177 151 135 94
-0.02031054585705 -0.10280696165021218 -0.7458161451131925 147 130 92
-0.020434324294004602 -0.10300395419102387 -0.748174419067723 133 116 81
-0.020872584969867103 -0.10331127248803987 -0.7507584832167868 129 112 79
-0.02110954779430252 -0.10354843916716322 -0.7532049235953536 147 127 92
-0.02134192031246579 -0.1037842784772253 -0.7556522501937022 157 139 99
-0.02168122841086695 -0.10405787461132092 -0.7581799298806947 162 142 105
-0.022046571379693958 -0.10434091005859578 -0.7607308214878724 157 137 100
-0.02241257325156859 -0.10462449609906363 -0.7632869067575934 153 135 94
-0.02277941972441405 -0.10490869884126075 -0.7658483332401531 156 138 96
-0.023259838052965442 -0.10523309099292714 -0.7684964212649844 157 138 96
-0.022313950509102454 -0.10505694230022955 -0.7701179709089196 151 132 92
-0.02192372210514043 -0.10507595469679898 -0.7721418144581225 134 115 81
-0.02168249269583017 -0.10514743957618568 -0.7742756070293788 126 107 75
-0.021541703524603217 -0.10525438793218159 -0.7764848724082487 139 121 83
-0.021374025029320898 -0.10535205385580845 -0.7786770604722246 143 124 87
-0.021442565453722362 -0.10553301656937841 -0.7810451599408453 139 120 84
-0.021622820571461143 -0.10575354732369223 -0.7834990331894391 150 131 92
-0.021594489149726392 -0.10590088458906172 -0.785802884220652 159 140 99
-0.024558985433687952 -0.10710295328780893 -0.7903263861188206 161 143 101
-0.024077718574640083 -0.10709149342129722 -0.7923065244644498 150 131 90
-0.023931980453506363 -0.10719843460805101 -0.7945377874677442 154 135 95
-0.023445201742369526 -0.10718523833042018 -0.7965168832239422 141 123 81
-0.023780489961242546 -0.10746225784619956 -0.7991131068545597 162 145 101
-0.023791482238477657 -0.10762509418590761 -0.8014703673745984 168 151 107
-0.024145781763393825 -0.10790942312483816 -0.8040896973846052 167 150 106
-0.02405118587438848 -0.10803544906015633 -0.8063745727979017 167 152 109
-0.024183927001455774 -0.10824204023088949 -0.8088346627531859 171 156 113
-0.025363842282210836 -0.10881925480899224 -0.8120947247891174 169 151 108
-0.025279492818941596 -0.10894971625766833 -0.8143993833649982 165 148 105
-0.02720851325838991 -0.1097930562362647 -0.8182464416181828 168 151 108
-0.0271265783795841 -0.10992507266469964 -0.8205632950085304 169 152 109
-0.02534924797020649 -0.10945666159019501 -0.8215793486790017 168 151 108
-0.02608404438412676 -0.10987829521425208 -0.8245283146498585 164 147 103
-0.026300016880239196 -0.11011641615047363 -0.8270826062262628 165 148 104
-0.026516297332581262 -0.11035493849490557 -0.8296414542851986 165 148 106
-0.02671393370712999 -0.11058713750825523 -0.8321901280344285 152 135 96
-0.025971763782279444 -0.11048597491678204 -0.8340099368134007 154 137 100
-0.028160763668774236 -0.11142588118676802 -0.8381228779070862 145 127 94
-0.02949322934995069 -0.11206233195150123 -0.8415769796240415 132 116 87
-0.0313316910200499 -0.11287928178057385 -0.845438514719046 104 92 66
-0.03384667942374542 -0.11393760567827657 -0.8498454350354574 69 61 41
-0.0358281535522742 -0.11480711195741772 -0.8538448977571222 28 25 16
-0.03683446841437238 -0.11533036807862537 -0.8570829291221611 11 11 11
-0.0371905017532172 -0.11562261351837913 -0.8598115034805346 11 10 9
-0.04006292015173846 -0.11681160874769328 -0.8645530577042391 22 21 17
-0.04441033900192776 -0.11852737353281967 -0.87049126643935 55 52 46
-0.04711391232220974 -0.11965861443463946 -0.8751334566986128 90 87 81
-0.04126434532582751 -0.11774014209850406 -0.8729087524436201 114 112 108
-0.03943389024669364 -0.11725429232148821 -0.8739043727601077 133 131 128
-0.027694616055878807 -0.11356245187536623 -0.8717785576914068 167 163 162
-0.005734541608668653 -0.10669663069141225 -0.8683977482510784 183 179 175
0.0005456301688960274 -0.10461019170169822 -0.8656140906208094 184 180 177
-0.0002765789563580201 -0.10523231845675786 -0.8711354821992201 185 181 178
0.0032628414087182422 -0.10412630980395127 -0.8705993242101926 187 183 180
-0.013498695501627994 -0.0624337189119833 -0.15561323859778653 177 177 174
-0.010469638092525255 -0.061585762669075256 -0.1566656082051121 172 170 165
-0.007487501521241932 -0.06075208409172117 -0.15771841254571634 138 132 119
-0.003605015319925381 -0.05963480996376943 -0.15862188359598925 127 117 100
-0.001003862932964894 -0.058919958154719385 -0.1597206375492153 129 117 98
-0.002823508038820699 -0.05959577787005019 -0.16152614791546346 153 135 108
-0.0014511451159539834 -0.05926735037012608 -0.16281956390130264 193 173 132
-0.0004645422295024154 -0.059060231449457254 -0.1641740392451038 204 184 134
0.00145732952041841 -0.05855846647656959 -0.16537263508349304 207 185 135
0.005078411418785081 -0.057521095549385316 -0.16628379812779 204 185 135
0.00653130362538705 -0.05716644375801162 -0.167551277303153 180 162 113
-0.00019213752584951171 -0.059389233484820045 -0.1702046133636966 176 158 110
0.0013687674375790632 -0.0590009880681365 -0.17146045583896607 167 149 105
0.0020352695052254233 -0.0588946922140771 -0.17286797220382433 165 148 104
0.0016668684380374693 -0.059114945403306814 -0.17445550733772217 147 129 89
0.004294956733554803 -0.058389555304713056 -0.17551970945388776 124 106 72
0.007128454313809818 -0.05759890614521925 -0.17654166213725236 125 109 74
0.00824071316712785 -0.05735145984108359 -0.1778643429437101 121 105 69
0.010795098622987068 -0.056648278509995736 -0.17892602803661353 107 91 59
0.012284973055224663 -0.05628114095019426 -0.18017511402824912 100 85 54
0.01322388934130124 -0.05608800759292791 -0.18152233966292558 90 76 47
0.011877092245914003 -0.05661764793189483 -0.18328985048779606 84 70 42
0.011690098004546137 -0.05678077975590085 -0.1848475732756445 80 65 39
0.011680335378338305 -0.0568879842632988 -0.18637440280597728 76 61 34
0.00986162408536978 -0.05756792016173963 -0.1882443573500702 80 64 38
0.005499495224782672 -0.05905369521482166 -0.19060506479630462 79 63 38
0.00926094771651044 -0.05796737419784685 -0.19142358184976369 75 59 34
0.00703103863992624 -0.05877874383844483 -0.193389759919591 82 66 40
0.009820179074466598 -0.05799992404301916 -0.1943876891978843 83 67 42
0.010836806230662369 -0.057782629993275186 -0.19572666837834185 79 63 40
0.011698721966219752 -0.05761431804706786 -0.19709497752954983 83 69 44
0.012139642234303319 -0.05757951235116211 -0.19854628875584537 85 71 45
0.013715702417408326 -0.05718450564213427 -0.1997705040444572 81 67 41
0.012798390267377224 -0.05758081722543405 -0.20149537198566114 79 65 39
0.012057249995612945 -0.057921492245984696 -0.20318889193172826 76 62 36
0.012397488457700306 -0.05791893868657899 -0.2046647972332277 74 60 34
0.011433396612421862 -0.05833089074949513 -0.20641068916284258 69 55 30
0.01260469782574021 -0.058064419487584104 -0.20771731438203547 70 55 32
0.0121849864034492 -0.058303702098258955 -0.20935536078831907 66 51 28
0.012279003395403804 -0.05837979790080657 -0.21088812278294652 66 51 28
0.012869706591940547 -0.0582979724678406 -0.2123169264383931 73 57 34
0.0132520251671146 -0.058282469865721546 -0.21379032717364208 69 53 30
0.013083850385854023 -0.05844226828653349 -0.21538292969443962 70 54 31
0.009992264170940054 -0.05953322571250126 -0.21761174527563834 71 55 32
0.010527037228184974 -0.0594697027766759 -0.2190598649465271 72 56 33
0.011094672762161542 -0.05939572198356514 -0.22050097100013194 78 62 38
0.011911184486419785 -0.059242414283683736 -0.22188710381748186 78 62 37
0.013007409429413114 -0.058999869936105426 -0.22321026941971006 75 59 35
0.012650638361751176 -0.05922069645727514 -0.22485793004321997 64 48 26
0.013246598249911645 -0.05913772383767951 -0.22629331120562207 70 54 33
0.01226628932822603 -0.05955787060532387 -0.22808710296485651 76 60 38
0.013080666025654428 -0.05940532699366771 -0.22947493143334302 79 63 41
0.01353488180769151 -0.05936777178591195 -0.2309451054657378 78 61 39
0.012918050488764918 -0.05967243919597256 -0.232664112454247 78 62 40
0.009418185502544335 -0.060898764889978654 -0.23505976470210632 79 63 38
0.009009099708786106 -0.06113782149198739 -0.23674176122601576 78 64 38
0.009198767435758148 -0.061185606142250895 -0.2382852766125603 79 65 39
0.01185754216051152 -0.06044359378811305 -0.2392424950129978 80 66 40
0.01242038279699359 -0.06037187705510693 -0.24069543665019938 84 70 43
0.012781774740791979 -0.0603646566337292 -0.24219707140485452 82 68 41
0.013316955024957083 -0.06030183745041094 -0.24365731037544258 82 68 41
0.013768725758528347 -0.0602657517134926 -0.24513813306701082 81 67 41
0.013614425628523427 -0.06042390083522563 -0.24676828936824935 83 68 42
0.013572142599254752 -0.06054630451649938 -0.24837310125280065 88 72 47
0.01352243451284496 -0.06067122544695887 -0.24998175885786322 92 76 50
0.013159917996588166 -0.06089661545699905 -0.2516707075331253 90 75 46
0.013148468812876665 -0.061009570800552824 -0.2532742695717311 85 70 41
0.013788702752467352 -0.06091349796777459 -0.25471469010435627 84 69 40
0.014081738092884002 -0.060928889639592795 -0.25624349436529403 88 73 44
0.014870869512341955 -0.060785020926941255 -0.25764610068048105 89 74 45
0.01450483101141968 -0.061012233727763515 -0.2593460831997812 90 75 46
0.014456778070763704 -0.061137460772844085 -0.2609665862777517 89 74 45
0.014593730266899987 -0.061203352039053346 -0.26254084644931014 88 73 44
0.01259534590486626 -0.06195603589666619 -0.26467721140290124 88 73 44
0.010764199702977914 -0.062655473941391 -0.2667775110127056 89 74 45
0.009131543236456555 -0.06329155728429713 -0.2688326781439286 89 74 45
0.008907730206138317 -0.06347460705762566 -0.2705183820851261 87 72 43
0.006721704014001281 -0.06428968660131912 -0.27273408173384256 89 74 45
0.007758481996086683 -0.06406724676723921 -0.2740873158714304 94 79 50
0.008794543751326808 -0.06384494870772203 -0.2754394409931172 96 81 50
0.009787105744056598 -0.06363658286967419 -0.2768021572524999 88 72 46
0.011065541142583415 -0.06333596131819434 -0.2780850844703293 74 58 33
0.011872240654797597 -0.06318735360742564 -0.2794964165987768 80 65 38
0.01230987505973792 -0.06315778429111849 -0.2810098115881573 94 77 49
0.012043847759118459 -0.06335536538128159 -0.2827205993632796 95 78 50
0.010693268531508954 -0.06390329936304606 -0.2847392396975654 103 86 58
0.010313936070213026 -0.06413797117483869 -0.28648934754859073 101 82 51
0.010071689122798738 -0.06432856842068488 -0.28820361111169096 99 81 50
0.01132225227412488 -0.06403689454566715 -0.28949362741934204 102 85 55
0.010948968764435754 -0.06427006618727064 -0.291248666340632 100 83 53
0.011508787234784004 -0.06420168454692182 -0.29273701597688573 98 83 52
0.010620294238569153 -0.06460186072821442 -0.2946466710992677 101 86 54
0.010787987835255294 -0.06466056141466665 -0.29625234020265073 111 95 61
0.010753653338867478 -0.06478476258017565 -0.2979188336693887 123 106 69
0.009679204184305831 -0.06524593271236792 -0.29989478942381687 145 130 88
0.008986875512154435 -0.0655836856008972 -0.3017626117199483 156 145 105
0.0077499280121969966 -0.06609821018720248 -0.3037973057963296 137 122 92
0.007179768866600794 -0.0663969924850726 -0.3056376999023467 104 89 62
0.006613458293926566 -0.06669478744212792 -0.3074807498065839 86 68 44
0.005946278828322035 -0.06702556254641187 -0.30935822502109084 79 62 38
0.004976360863289647 -0.06745485589870599 -0.31133220587857025 92 80 55
0.0011214932968067332 -0.06882095025394694 -0.3141961095749608 105 91 67
-0.0007890762468881624 -0.06955669670065001 -0.3164749695124854 117 103 81
-0.008204932733558712 -0.07208121725461752 -0.32046811814217985 123 113 100
-0.01407153532518024 -0.07410410923349442 -0.3240045359136169 159 157 153
-0.02339238944359917 -0.07725119316959109 -0.32864350610650106 179 181 183
-0.12176497713660897 -0.11065852122574214 -0.38042887424485183 160 160 156
-0.12019194272093414 -0.11027630964281812 -0.3818270450234508 150 149 144
-0.11945377679146499 -0.11016647244840731 -0.3835014360132581 142 138 137
-0.1189863971456013 -0.11014506538237423 -0.38526668602401065 129 125 123
-0.11842096746457012 -0.11009167963904264 -0.3869996418318752 133 129 128
-0.11850171428213102 -0.11024950634778465 -0.38895222507573723 156 154 153
-0.1186312397038155 -0.1104234577602841 -0.39092403414249444 171 171 171
-0.11894266062310191 -0.11065708504965406 -0.3929608986275518 179 179 180
-0.11790750234567399 -0.1104504072399972 -0.39453779903372893 182 181 185
-0.11535677261764207 -0.10974766479368013 -0.39558965268740903 180 181 183
-0.11561275378084324 -0.10996335983226183 -0.39761044312957705 180 181 183
-0.11493164484720098 -0.10987238595636604 -0.39930735261077205 180 181 183
-0.1574492950821696 -0.13027474499177813 -0.5090364613280038 193 194 196
-0.15393949214406852 -0.12954078731860755 -0.5138968502193182 195 196 200
-0.14180759561063094 -0.1262185661539782 -0.5191955162679301 197 198 202
-0.13924164456876484 -0.12550630736470855 -0.5201756827827599 197 198 202
-0.14144697880784698 -0.126387398892483 -0.5232723986367873 198 199 203
-0.14185308494860008 -0.1266679790026147 -0.5255758533730434 199 200 204
-0.14210087572362556 -0.12689591881766368 -0.5278124252565468 199 200 204
-0.05980158179630746 -0.1047924394764534 -0.570106821563791 183 183 182
-0.05870640212618389 -0.10470542420701073 -0.5737034118617186 110 108 103
-0.05804611029234047 -0.1046237190282858 -0.5754434922916548 79 76 68
-0.057269138200727515 -0.10450239970367196 -0.5771223031209284 58 53 43
-0.056447249333833605 -0.10436580460870429 -0.5787771460811365 45 38 28
-0.05573961201107047 -0.10426801787294569 -0.580492258479167 51 44 33
-0.054086997980199586 -0.10384891454182898 -0.5817040195807446 58 50 39
-0.052977546354240485 -0.10361433254168367 -0.5832026411627461 55 46 34
-0.05142796382177656 -0.1032298792229319 -0.584463667705905 54 45 31
-0.05031132679450573 -0.1029925935456247 -0.5859546469716661 57 47 32
-0.048946712250165 -0.10267075751438595 -0.5873101467397619 54 42 28
-0.047760866319821405 -0.10240965649858355 -0.5887601231070249 48 36 23
-0.04614198589842211 -0.1020008541315097 -0.5899727251586061 59 47 31
-0.0452001084636707 -0.10182263198300592 -0.5915515296053446 66 55 34
-0.043694777703590426 -0.10145217757541647 -0.5928207793279128 63 52 30
-0.04208122076771342 -0.10104459200263356 -0.5940275263486244 62 51 31
-0.04248872961353814 -0.10132661383700588 -0.5963458594531708 60 48 29
-0.04165203520924235 -0.10118408871159436 -0.597979695618573 69 57 37
-0.04080274503518003 -0.10103722995164552 -0.5996060792308449 59 46 28
-0.04078775323745512 -0.10117543098105124 -0.6016970250639653 58 45 26
-0.04022775270966 -0.1011275057620524 -0.6034858148435936 71 59 34
-0.03927031880634596 -0.10094370791513944 -0.6050521424679359 77 62 39
-0.03820514516642942 -0.1007229882585202 -0.606556870295799 62 47 24
-0.03664824972438668 -0.10033388918803324 -0.6077823755934874 80 65 42
-0.03569322378667106 -0.10015063364425104 -0.6093459363531618 82 67 44
-0.037913672503466445 -0.10105493463663058 -0.6127153811553586 68 53 30
-0.0380840232567447 -0.10125756977472726 -0.6149257456783068 83 69 46
-0.03825469988915131 -0.10146055180243835 -0.6171397417407124 75 63 39
-0.037691853690436594 -0.10141224258867765 -0.6189355639875147 74 59 36
-0.037298459116681254 -0.101422102974479 -0.6208297265118374 65 50 27
-0.03678778313881567 -0.10139180291070367 -0.6226572913572459 62 47 24
-0.036104408415111866 -0.10130227097147032 -0.6243853990001257 77 62 40
-0.035507735289291825 -0.10124252522799018 -0.6261641624353897 80 65 46
-0.03435295834877178 -0.10099106626721584 -0.6276171802037105 62 47 27
-0.03498393601891672 -0.10135325678322529 -0.630115822765932 78 63 43
-0.03418963896332172 -0.10122574991990906 -0.631781060882393 72 57 37
-0.03347630433071214 -0.10112607203108846 -0.6334938134980392 66 51 30
-0.03331605124881021 -0.10121671287856122 -0.6355342244202387 66 51 30
-0.03236035038551088 -0.10103368216876984 -0.6371040803050816 77 62 41
-0.03235183186975013 -0.1011767704817787 -0.6392378196462993 62 47 28
-0.03174129130479883 -0.10111265083819784 -0.6410141968619558 61 45 27
-0.031541205859886595 -0.10119002046111275 -0.6430373866269786 67 52 30
-0.030670279480297824 -0.10103624179246007 -0.6446586457979268 69 56 32
-0.02927423929983508 -0.1007013060373049 -0.6459620450984563 75 63 39
-0.029008075023351454 -0.10075604626815364 -0.6479476809342508 66 54 30
-0.02866585159530541 -0.10078465577238488 -0.6498888682352364 73 61 38
-0.02715592648231116 -0.1004101420147581 -0.651119094327905 66 54 32
-0.02622504007301546 -0.10023544445536288 -0.652700638593811 63 49 29
-0.02645603421270612 -0.10046222196127949 -0.6549948936834323 60 45 26
-0.026839207093641432 -0.10074187074241331 -0.6573867092440463 59 45 23
-0.026348186050225847 -0.1007194718867753 -0.6592425841425509 55 42 22
-0.02733568604452047 -0.1012087001225637 -0.6620162453296566 65 52 33
-0.02734087042871866 -0.10135838360632124 -0.6641856382399821 60 48 26
-0.027417183258480554 -0.10153289650079081 -0.6664023497071249 74 60 36
-0.02672586413386055 -0.10144171551846576 -0.6681416383943806 82 67 44
-0.026312445871644552 -0.10144684899845892 -0.6700556258157465 111 95 72
-0.025903112308233306 -0.10145348433771445 -0.6719734434836226 89 73 49
-0.025507736254795355 -0.1014650474823064 -0.6739013599457023 88 72 47
-0.02519453544608924 -0.10150521304194807 -0.675882725315072 92 76 52
-0.024925236660450323 -0.10156073074962005 -0.677893690677586 98 83 59
-0.024594783727350245 -0.10159513998109188 -0.6798674754092443 112 95 69
-0.024417871637779254 -0.10168299466862826 -0.6819411724446338 136 119 93
-0.02434436038631055 -0.10180693466225728 -0.6840835152887935 131 113 85
-0.023257797304191696 -0.10157886918177433 -0.6855757826374789 144 125 93
-0.022786186704597422 -0.10156457731715227 -0.6874640691851264 153 134 98
-0.022792335419512366 -0.10171658222750363 -0.6896631754825839 149 131 93
-0.022178991657578473 -0.10165316685318974 -0.6914623363296126 150 133 95
-0.022083476451389583 -0.10177009464136003 -0.6935998385082618 146 128 90
-0.022194740754495457 -0.1019592299771181 -0.6958752719003334 135 117 83
-0.022223150188423857 -0.10211972652697442 -0.6980997464762481 142 126 89
-0.02279597848307624 -0.10247023376334174 -0.7006858970683345 144 129 87
-0.02195967008468619 -0.10232964733198278 -0.702346412905394 156 141 100
-0.022036740000275057 -0.10250771483355858 -0.7046118222482975 163 148 107
-0.02211406794806209 -0.10268609955029603 -0.7068807302500646 157 142 101
-0.022747514202904884 -0.10305890173923907 -0.7095238249396797 144 128 88
-0.02227654281601521 -0.1030462838992553 -0.7114337882692561 160 141 101
-0.022411515432669393 -0.10324549926181041 -0.7137514168602457 153 134 94
-0.022489032140587728 -0.10342487276452718 -0.7160339682962791 139 120 80
-0.022435995451712876 -0.10355881443401686 -0.718231741746167 157 138 96
-0.021479787737562595 -0.10337693428314505 -0.7198207045234751 163 145 102
-0.020951770118197988 -0.10334487345340376 -0.721699610896896 162 144 101
-0.0208180482505696 -0.10345094534684866 -0.7238480390938952 161 145 102
-0.022682171748494684 -0.10425707612265855 -0.7273644182286885 169 153 110
-0.021123097322306716 -0.10386424060142263 -0.7285448864403745 168 150 108
-0.020599283250858635 -0.10383413941539443 -0.7304337997298007 166 149 106
-0.019642416138487273 -0.10365220572408473 -0.7320249111490411 164 147 103
-0.020260783399704385 -0.1040229471218076 -0.7347048890467233 166 148 105
-0.020897521411788578 -0.10440052557591935 -0.7374033018710073 161 142 100
-0.0205328779913162 -0.10442683364830624 -0.7394104988489172 163 143 101
-0.021103538190406446 -0.1047818429790535 -0.7420722359845149 164 144 102
-0.020868198854704867 -0.10485394662066921 -0.7441750953547847 157 139 98
-0.02162463323246938 -0.10527491436309364 -0.7469766582449802 126 107 70
-0.021625307399723792 -0.10543047091608311 -0.749252135970262 147 130 88
-0.021611785914634585 -0.10558124622387649 -0.7515207208112258 148 130 90
-0.02240717038533291 -0.10601700331530134 -0.754365665360933 151 134 94
-0.02264087942325871 -0.10625538945172046 -0.7568178797183147 151 137 94
-0.022875909220859525 -0.10649452427129444 -0.7592751857710685 150 133 94
-0.02299914540975806 -0.10669453835114426 -0.7616567144981239 152 133 94
-0.023122610722287606 -0.10689488558299895 -0.7640421038941515 161 143 98
-0.023246302198558777 -0.10709556554660532 -0.7664313609685518 168 150 105
-0.023796441329983764 -0.10744699987527415 -0.769132007463576 165 146 103
-0.023508119025364316 -0.10750278269315489 -0.7712314685075867 164 146 105
-0.022987368582303103 -0.10747660368616041 -0.7731642045838546 144 125 86
-0.02323667500228138 -0.10772259550740149 -0.7756584475149207 121 103 66
-0.024120459873857247 -0.10819316988040784 -0.7786201835344048 139 121 82
-0.02503436125033809 -0.10867487442222955 -0.7816109941842077 144 127 89
-0.026138499050254393 -0.10922437341904201 -0.7847486764699656 136 118 84
-0.02621313285274174 -0.10941003141336375 -0.7871361009951034 150 130 94
-0.023170754865948773 -0.10849222362525646 -0.7872245843887204 149 130 90
-0.02363672553551127 -0.10881653617618653 -0.7899023346502342 151 133 91
-0.02528137505560668 -0.10955891818566793 -0.7934611427675187 158 141 100
-0.023563652659212453 -0.10910992798990272 -0.7945247314731437 163 146 105
-0.02303043268111976 -0.10908077604267215 -0.7964693839656389 163 145 102
-0.024749897215698424 -0.10985101606203479 -0.8001034742294162 166 147 104
-0.024783838538235015 -0.11002366149589671 -0.8024812919322627 167 148 105
-0.024890018152116222 -0.11022219578062269 -0.8049170097237419 166 147 104
-0.02478424187049233 -0.11034568321747615 -0.8071962318096586 170 153 109
-0.024917643291943903 -0.11055437551589882 -0.8096596598237535 173 156 112
-0.02745499081626107 -0.11161812687514636 -0.8139551164419597 165 148 104
-0.026983854418465125 -0.11161266041349904 -0.8159705617566805 165 148 104
-0.027793147772321503 -0.11206295825910045 -0.8189666246815467 166 149 106
-0.026400289026365598 -0.11172969673568439 -0.8202803965384338 167 150 107
-0.02701781693865757 -0.11211230369389574 -0.823137905553975 165 148 105
-0.027193120721317687 -0.11233774769717789 -0.8256603272933885 165 150 105
-0.027368789880246602 -0.1125636043220675 -0.8281871676905945 168 152 108
-0.027795513285814977 -0.11287927811121308 -0.8309129472565299 165 148 107
-0.028154784419118173 -0.11317124568357588 -0.8335915091391095 158 142 103
-0.027876136824147635 -0.11323585752921378 -0.8357772601515239 154 138 100
-0.03033350044171851 -0.11427761059273457 -0.8401062534699777 149 131 99
-0.030057605030255785 -0.11434391588932513 -0.8423045677641108 121 107 79
-0.03310557551026355 -0.11559829066758326 -0.847120992206536 97 87 60
-0.037081974787642025 -0.11718578172414387 -0.8526872024625021 65 57 39
-0.037267358445288834 -0.11741868934507269 -0.8552741125733999 25 21 14
-0.03839019985733283 -0.11798735801276991 -0.85860938822182 10 9 7
-0.0384258989463519 -0.11816740778478828 -0.8610878409737195 13 10 8
-0.04194819973488073 -0.11959645075970438 -0.8663529549876476 33 30 25
-0.04419721528964704 -0.1205705834946339 -0.870618183843173 72 67 63
-0.0494243474947102 -0.12261318978449809 -0.8772875896822068 103 99 95
-0.04617553595930407 -0.12161803285689236 -0.8771612929027574 126 123 119
-0.036433060632390046 -0.1182923810132635 -0.8717820742770365 142 139 137
-0.02908464332661853 -0.1158232502081763 -0.8683002782871201 152 151 149
-0.026873148590660922 -0.11519665101088927 -0.8689585767038954 162 161 159
-0.0275079446645789 -0.1155920911745135 -0.871927251842475 168 167 165
-0.0006707554367776369 -0.10710121450011278 -0.866925307785411 185 181 178
0.004225996270130372 -0.10583087349307638 -0.8700980055543268 187 183 180
-0.015313585108009065 -0.06463132671132601 -0.15588396263343549 178 178 177
-0.012226107627361371 -0.06376144480690567 -0.15693038697829975 178 177 174
-0.00925730737097269 -0.0629285637861427 -0.15798833627834344 171 169 160
-0.006485041409184766 -0.06215732007029369 -0.159070632189529 138 133 120
-0.002502021488097611 -0.061002940844064615 -0.1599533217214366 110 102 85
-0.0043466874185355275 -0.061690544089559 -0.16176552254036142 114 101 80
-0.0016508321964817801 -0.060942518756897004 -0.1628464583074664 159 140 106
0.0005964753283519003 -0.06033599334688955 -0.16399495113066398 189 166 119
0.004667971334217577 -0.05915181171904596 -0.16483685206286475 197 176 125
0.00827793560059395 -0.05811305529798584 -0.16574578733647785 202 184 134
0.0038863257010785662 -0.05971209135921497 -0.1695091698550371 180 163 117
-0.00039466891813695615 -0.06117320361489885 -0.17176002180153602 185 167 124
0.0008163049554785334 -0.060894428770372266 -0.17307659665404815 167 150 105
0.0026123803798590722 -0.06043000674733438 -0.17428951745101434 163 146 102
0.004713725510864589 -0.05986851979256884 -0.17544537077256306 140 123 83
0.005602976215611816 -0.05969130860722087 -0.17681144814438435 133 118 78
0.009348693309026115 -0.058607447457942094 -0.17766683672465267 136 121 81
0.010043900533918612 -0.058491439079226756 -0.17906198548546692 110 94 59
0.013193137935568824 -0.05759605329206974 -0.1800116901115209 98 82 51
0.010506118450324148 -0.05855423536470904 -0.1820211476813926 93 77 47
0.010953533415815245 -0.0585170052006604 -0.1834624603404098 86 70 41
0.010523040252538113 -0.05875887836028354 -0.18506730503381813 93 76 50
0.006664491269663272 -0.06009102911769476 -0.18731702377784615 84 68 41
0.0034790097479034943 -0.06120998556232352 -0.18945278412359504 87 70 44
0.00546079769215406 -0.06079161302131583 -0.19215692139710655 79 63 36
0.005416544331427159 -0.06091188853993411 -0.19370717210977492 85 69 43
0.0076643202175574465 -0.06030230534325702 -0.19481334372528178 90 74 48
0.01110051005861655 -0.05931376910106691 -0.1956816773604935 79 63 38
0.012196977301392006 -0.059070311572270585 -0.19700380746411933 81 67 41
0.01190298053731613 -0.05927002635093014 -0.19860117703172694 82 68 42
0.012396924715465427 -0.05921865098945946 -0.2000432206618255 82 68 42
0.012086148594798812 -0.05942400218263162 -0.20164809972137476 87 73 47
0.012277147326238913 -0.059469422382328614 -0.2031535953194601 82 68 42
0.012899714659429323 -0.05937716819579816 -0.2045718665510397 76 62 36
0.012975718408094972 -0.05945943026968958 -0.20610288919705871 72 58 32
0.014347998545662474 -0.05912775900148762 -0.20736598084645586 74 60 35
0.012507469989176179 -0.059822455143992384 -0.2092994898535749 75 61 35
0.012881487427398669 -0.059809854776559146 -0.21077328183970861 76 62 36
0.014624703461626101 -0.059359547002338406 -0.21195698236608418 76 60 36
0.01403866493847078 -0.059653943287594255 -0.21363540869003597 67 51 28
0.011931945144043249 -0.060435082832375364 -0.21564487251163317 68 52 29
0.010533892494579658 -0.06098999002043852 -0.21750877050764894 69 53 30
0.010645178473823985 -0.06106212914232033 -0.21904910361398128 68 52 29
0.01065249223548799 -0.061167665435755816 -0.22061377640844948 73 57 34
0.01140095316319846 -0.061035910333300976 -0.22201619025612493 76 60 36
0.01217416482923793 -0.06089619454510084 -0.22341265842396676 75 59 34
0.012096886331391929 -0.06102906172087773 -0.22499943962994085 75 59 35
0.012218032040063748 -0.061098446767555326 -0.22654346081324492 76 60 37
0.0115852915684036 -0.061409741314972344 -0.22826036262521318 78 62 38
0.011456591050655315 -0.061559570579475774 -0.22986563813162308 79 63 38
0.010879178422415745 -0.06185357080410404 -0.23157652306897492 78 62 37
0.010222900360466414 -0.06217313886483861 -0.2333092862111177 78 62 38
0.008116286213187524 -0.06295877055213303 -0.235384439188706 79 64 39
0.007620272617720261 -0.06322753040100504 -0.23708942305313463 81 67 41
0.009150710538893839 -0.06284526918791702 -0.2383185727344851 80 66 40
0.010756980289097759 -0.062438436777441236 -0.2395268767956162 76 62 36
0.011132316540617207 -0.06242724586203334 -0.2410269743173205 82 68 41
0.011810690874198504 -0.0623186196793843 -0.24245474234635725 82 68 41
0.012385687378608873 -0.06224324564119542 -0.2439073773071681 83 68 42
0.010652995411985847 -0.0629107263347979 -0.24592341624124447 82 67 40
0.010521445347014616 -0.06306312280577586 -0.247553342619401 81 66 39
0.010409167237036401 -0.06320946832211323 -0.24918078195569096 83 67 40
0.013910638635623265 -0.062191552881535536 -0.24991172969689063 87 72 44
0.01431874411006255 -0.062170090532759806 -0.2514078503448035 92 77 48
0.014315122899276611 -0.06228142379778402 -0.25300825185420117 89 74 45
0.013515532663537055 -0.06264961546302497 -0.2548121674239676 87 72 43
0.01357580151871278 -0.06274068032559006 -0.2564012985059171 89 74 45
0.012906038323983585 -0.06306747864092696 -0.25817930401361033 90 75 46
0.01370297773942851 -0.06292101861803158 -0.2595829566913799 90 75 46
0.01364513439073925 -0.06305058063045092 -0.26120783973682943 90 75 46
0.011923261403251423 -0.06371787937978869 -0.26326916044668014 90 75 46
0.011497642042144054 -0.06396676108773597 -0.2649973507337161 91 76 47
0.008102491666675357 -0.06517585834529 -0.2675131182116502 93 78 49
0.008758802032273416 -0.06507561982946986 -0.2689649324715438 93 78 49
0.008041120118829834 -0.06541985297255354 -0.2707838140675579 90 75 46
0.007746893599426027 -0.06562734133936059 -0.27249303024205224 90 75 46
0.008979883799986224 -0.06534065045444931 -0.2737921953543716 94 79 50
0.010002847156798791 -0.06512183782336606 -0.27514655291398854 94 79 48
0.010736506002776605 -0.06499665108064723 -0.2765787655935854 77 61 34
0.011294392783260623 -0.06492839537294896 -0.27805896252279766 73 57 31
0.011223456540270182 -0.065063979898983 -0.27971329025233316 91 76 48
0.011775870704853184 -0.06499759262391673 -0.281196373528204 102 85 56
0.012244469737622901 -0.06495840568107918 -0.28270311210604515 106 89 60
0.008968189270289653 -0.06613433507492195 -0.2852638595535479 107 90 61
0.008397533891248365 -0.06643293402234338 -0.28707144481103397 100 82 52
0.007908941276821471 -0.06670514736266098 -0.28885944148696047 100 84 54
0.010226259447924643 -0.06606626720554566 -0.2898482944034096 106 91 61
0.00916240832520046 -0.0665255597785866 -0.29180433749214746 98 83 54
0.010017059498203543 -0.06636168928368699 -0.29321084664313607 98 83 52
0.009578748950789251 -0.06661813317038776 -0.2949926153260179 112 97 63
0.009797421057210765 -0.06666114008392 -0.2965856536725255 119 102 67
0.01132756095919217 -0.06627756702049481 -0.29779443657013777 124 106 69
0.010637766127145384 -0.0666162641903305 -0.29965646940975577 143 127 89
0.008753079833410768 -0.06734425261296631 -0.3018777475627319 142 129 93
0.007687185096756602 -0.06780613944368571 -0.3038624042154172 116 101 71
0.006929574226677643 -0.06816796653600425 -0.3057598633792281 98 83 55
0.006547837430561768 -0.06840760617877277 -0.30754824945202186 91 74 47
0.006078998612370268 -0.06867586277129943 -0.30936629911599767 84 68 43
0.0005211583531146285 -0.0706039127956793 -0.3127407204294049 101 88 62
-0.0038474114036757545 -0.07214536951814944 -0.3157701694117874 115 100 77
-0.0071035011120067215 -0.07332489982148405 -0.31847263463901515 110 97 76
-0.011607133856782914 -0.07491253558824164 -0.3215742839438571 131 121 111
-0.018975133143153022 -0.07743666340604549 -0.3255849034856477 166 164 161
-0.023813929321754523 -0.07913638117460861 -0.3288292360003162 179 181 183
-0.11961395765271005 -0.11306849452945952 -0.3971349930353677 181 182 184
-0.12049185698970283 -0.11349093586585525 -0.39937968120154244 181 182 184
-0.06253456851525804 -0.10710214896653078 -0.5633470261580529 183 183 181
-0.06108456382198635 -0.10675160012995079 -0.5646803216556338 150 149 148
-0.059362209134150246 -0.1063080944729432 -0.5658703749954415 135 133 130
-0.05811305059857702 -0.10602557561225798 -0.5673017322679414 119 115 110
-0.05713405989498116 -0.10583501655494314 -0.5688715220990225 65 62 54
-0.056206077914320834 -0.10566178534475984 -0.5704669473853438 52 50 39
-0.05573362129584486 -0.10564389921663754 -0.5723000388318259 47 43 32
-0.055195328569707075 -0.10560360893278693 -0.5740994710857705 49 43 31
-0.054330142982646795 -0.10545176416078486 -0.5757272439995685 41 34 23
-0.05351031984805049 -0.10531537435873428 -0.577378470706696 41 33 22
-0.05288385674511539 -0.10524502190749672 -0.5791319886805165 49 39 28
-0.05056697722243794 -0.104596926997492 -0.5799851100532005 56 45 33
-0.049460693233742914 -0.10436234305239668 -0.5814795592132154 55 44 31
-0.04808144401875353 -0.10403429049515782 -0.5828260607494512 57 45 31
-0.046928998058859944 -0.1037836732000198 -0.5842922001689692 63 51 35
-0.045896069512944976 -0.10357385455608144 -0.5858212824556734 71 59 43
-0.04479962847724234 -0.10334220420684181 -0.587314724302141 49 37 22
-0.04383225178894168 -0.10315466851442744 -0.588876965129027 61 49 33
-0.0428369066442533 -0.10295748238037244 -0.5904229799020181 70 59 38
-0.041588542495341524 -0.10267347960813716 -0.5918292735489554 74 62 39
-0.04062124212558671 -0.10248573242621922 -0.593388105712417 65 53 31
-0.03964432064329165 -0.10229461828371882 -0.594940670531785 68 56 36
-0.03938692804331728 -0.10235039866307324 -0.5968906812673158 69 57 35
-0.037928965588858 -0.10199407133944924 -0.5981753286632499 74 62 40
-0.038785486576117245 -0.10243255688263793 -0.6007476587137862 56 44 23
-0.038281776217027635 -0.10240404857421283 -0.6025649678763615 75 63 37
-0.03806637018977266 -0.10247470354989204 -0.6045449596830094 78 63 40
-0.03681935147106041 -0.10219073011429408 -0.605945719591094 65 50 27
-0.03772871607411327 -0.10264846136265043 -0.6085634025938188 74 59 36
-0.03422543156148539 -0.10158798602739189 -0.6086844567407574 78 63 40
-0.03552684612782511 -0.10218097409932173 -0.6115293141808011 65 50 27
-0.03560277306186027 -0.10235241484488125 -0.613682129895227 79 65 42
-0.036019278556926354 -0.10264141570338448 -0.6160331785516895 75 63 39
-0.03435907231053387 -0.10221489945797632 -0.6171946094664271 71 56 33
-0.034177797114997105 -0.10229810096633327 -0.6192055788558032 65 50 27
-0.03390151428191335 -0.10234867283362886 -0.6211636430662684 68 53 30
-0.03381112934327202 -0.10246351515807256 -0.62323139915783 73 58 35
-0.03486849810145659 -0.10297476037420908 -0.6259704540641042 85 70 49
-0.03420615161506069 -0.10289256249409592 -0.6277109367939722 74 59 38
-0.033623575701895114 -0.10283794062462814 -0.6294984449328204 68 53 32
-0.032555994180589354 -0.1026157236380475 -0.6310010140717042 69 54 33
-0.03166263834964056 -0.10245365406621834 -0.6326051156864935 79 64 43
-0.031489686388539856 -0.10254072544654148 -0.6346354032049949 75 60 39
-0.030753107228818244 -0.10243291010322285 -0.6363327660647705 81 66 45
-0.030220852373317175 -0.10239582161532074 -0.6381519398634726 76 61 39
-0.030003204186529547 -0.10246773473240542 -0.6401601303605414 82 67 44
-0.029968456052106324 -0.10260314907101031 -0.6422801233949265 76 62 36
-0.029131238255691555 -0.10246063126369748 -0.6439194287664546 73 59 35
-0.02811726627982733 -0.10225679858378328 -0.6454514515190084 78 64 41
-0.027740799620299045 -0.10227400588059324 -0.6473688684344304 57 43 21
-0.027452899363586858 -0.10232203897270518 -0.6493415324795563 56 42 21
-0.02649022267855347 -0.10213595884424699 -0.6509040875751757 58 42 21
-0.02603019987820454 -0.1021243654575367 -0.6527734665525696 54 39 20
-0.025763561575007032 -0.10218002557941973 -0.6547626857569461 66 53 35
-0.025600343899677303 -0.10227175330727795 -0.6568174598533298 74 64 43
-0.02556087454824743 -0.10240665900582294 -0.6589509809257448 71 61 41
-0.02574201819743352 -0.10261848486247706 -0.6612240812729048 86 75 55
-0.025460940220675576 -0.10266973006610428 -0.6632131620387317 87 76 52
-0.025406579636388565 -0.10280001525296029 -0.6653455598852669 96 81 55
-0.025338581148549255 -0.1029257366108317 -0.6674721057704749 98 81 54
-0.02505386000031487 -0.1029761411646038 -0.6694651188641833 118 97 68
-0.02518623956052851 -0.10317202907767271 -0.6717228209326224 126 104 74
-0.02498044705395741 -0.10325025390757989 -0.6737701353073251 129 108 78
-0.0242831330441996 -0.10315718951377945 -0.6755077387466446 128 109 76
-0.02556776985279602 -0.10375567788055359 -0.6785067729192931 139 121 85
-0.02572687519622735 -0.10396184825320434 -0.6807953817840178 150 132 95
-0.024306343121370033 -0.10361665628071025 -0.6820759023156383 133 114 85
-0.024380590250902112 -0.10379345708131932 -0.6843139812019466 151 132 100
-0.02381389833136338 -0.10374648690886971 -0.686142224687204 160 143 100
-0.023892350992727074 -0.10392511771786905 -0.6883882446769729 159 143 100
-0.023970880781646442 -0.10410400201446991 -0.6906376033982741 152 137 96
-0.024035487349115647 -0.104278241549069 -0.6928811989312911 131 115 76
-0.024227247545764607 -0.104497213753182 -0.6952110299972676 145 126 85
-0.02350504504498202 -0.10439639144055152 -0.6969462419041799 145 125 87
-0.023234514001430506 -0.10445380296033291 -0.6989781327261901 165 147 107
-0.023239749758551864 -0.1046079913092808 -0.7011935932365508 166 150 106
-0.022628318670030456 -0.10454618015881392 -0.7030045365683744 164 147 105
-0.022706134143755774 -0.10472615550769582 -0.7052729003297512 168 151 109
-0.022783914342735467 -0.10490634817359204 -0.7075445755575323 158 141 100
-0.024038470394004197 -0.10549985819329749 -0.7106045741584315 149 132 91
-0.02316940346382851 -0.10534816973666887 -0.7122518092843851 156 137 97
-0.023880472249264484 -0.10575157263851023 -0.7149590668525082 149 130 90
-0.02350006757758699 -0.1057717780123122 -0.7169374563893437 164 146 104
-0.023159868626987712 -0.10580622111563076 -0.7189444687663834 168 152 109
-0.022359430358845633 -0.10567888958715285 -0.7206413454741887 171 155 111
