ply
format ascii 1.0
element vertex 823
property float x
property float y
property float z
property float nx
property float ny
property float nz
property uchar diffuse_red
property uchar diffuse_green
property uchar diffuse_blue
property uchar class
property uchar detection
end_header
-0.0900 -0.1549 -0.8524 -0.266 -0.963 0.035 176 159 118 0 0
-0.0901 -0.1550 -0.8546 -0.247 -0.967 0.062 191 172 137 0 0
-0.1006 -0.1600 -0.8667 -0.185 -0.791 0.583 144 140 135 0 0
-0.1018 -0.1606 -0.8677 -0.194 -0.766 0.612 161 157 158 0 0
-0.0169 -0.1223 -0.2520 -0.842 -0.208 0.498 177 177 179 0 0
-0.0462 -0.1365 -0.2711 -0.860 -0.223 0.459 184 170 134 0 0
-0.0560 -0.1410 -0.3146 -0.705 -0.708 -0.036 30 22 13 0 0
-0.0715 -0.1481 -0.3774 -0.837 0.141 0.529 81 68 44 0 0
-0.0685 -0.1461 -0.4340 -0.996 0.066 0.053 197 197 199 0 0
-0.0776 -0.1501 -0.4884 -0.979 0.167 0.113 54 42 26 0 0
-0.0794 -0.1507 -0.5213 -0.984 -0.052 -0.170 69 59 44 0 0
-0.0771 -0.1494 -0.5429 -0.948 -0.272 0.164 56 47 31 0 0
-0.0620 -0.1416 -0.5788 -0.824 -0.567 0.002 36 30 18 0 0
-0.0617 -0.1414 -0.5810 -0.709 -0.357 0.608 39 33 21 0 0
-0.0712 -0.1460 -0.5957 -0.827 -0.175 0.534 86 74 52 0 0
-0.0731 -0.1469 -0.5982 -0.918 -0.175 0.356 73 59 40 0 0
-0.0725 -0.1459 -0.6838 -0.767 -0.177 0.617 52 40 24 0 0
-0.0818 -0.1503 -0.6989 -0.895 -0.158 0.417 64 56 38 0 0
-0.0823 -0.1505 -0.7006 -0.915 -0.202 0.350 88 78 53 0 0
-0.0833 -0.1510 -0.7039 -0.835 -0.415 0.361 114 101 69 0 0
-0.0838 -0.1512 -0.7055 -0.846 -0.406 0.346 128 113 79 0 0
-0.0922 -0.1541 -0.8488 -0.247 -0.967 0.062 137 122 87 0 0
-0.0924 -0.1542 -0.8509 -0.247 -0.967 0.062 150 134 96 0 0
-0.0926 -0.1542 -0.8529 -0.247 -0.967 0.062 170 151 116 0 0
-0.0927 -0.1543 -0.8551 -0.226 -0.970 0.090 160 141 105 0 0
-0.0723 -0.1468 -0.3773 -0.879 0.330 0.345 70 54 37 0 0
-0.0739 -0.1474 -0.3914 -0.902 -0.431 -0.021 165 163 161 0 0
-0.0656 -0.1431 -0.4171 -0.771 0.586 0.250 192 192 195 0 0
-0.0660 -0.1433 -0.4186 -0.800 0.566 0.200 192 193 196 0 0
-0.0697 -0.1437 -0.5685 -0.750 -0.293 -0.593 37 30 20 0 0
-0.0676 -0.1426 -0.5718 -0.698 -0.364 -0.617 37 30 21 0 0
-0.0742 -0.1449 -0.6790 -0.989 -0.057 0.134 35 26 17 0 0
-0.0751 -0.1453 -0.6803 -0.962 -0.264 0.070 42 34 23 0 0
-0.0736 -0.1445 -0.6835 -0.818 -0.174 0.548 52 42 27 0 0
-0.0745 -0.1449 -0.6849 -0.863 -0.173 0.475 55 44 27 0 0
-0.0772 -0.1462 -0.6971 -0.923 -0.023 0.385 21 18 14 0 0
-0.0835 -0.1492 -0.7023 -0.835 -0.415 0.361 92 83 57 0 0
-0.0840 -0.1495 -0.7039 -0.835 -0.415 0.361 105 91 63 0 0
-0.0843 -0.1496 -0.7057 -0.846 -0.312 0.432 106 89 57 0 0
-0.0849 -0.1499 -0.7073 -0.827 -0.509 0.238 126 112 75 0 0
-0.0386 -0.1262 -0.7937 -0.313 -0.825 0.471 150 132 94 0 0
-0.0721 -0.1426 -0.8149 -0.923 -0.341 0.177 154 136 98 0 0
-0.0725 -0.1427 -0.8169 -0.911 -0.376 0.168 151 133 95 0 0
-0.0801 -0.1465 -0.8208 -0.247 -0.579 0.777 141 123 87 0 0
-0.0868 -0.1497 -0.8257 -0.723 -0.421 0.549 151 133 95 0 0
-0.0151 -0.1181 -0.2497 -0.528 -0.444 0.724 179 174 170 0 0
-0.0453 -0.1329 -0.2671 -0.596 -0.361 0.717 185 166 139 0 0
-0.0472 -0.1338 -0.2696 -0.821 -0.350 0.451 190 172 139 0 0
-0.0714 -0.1446 -0.3780 -0.854 0.163 0.494 52 40 28 0 0
-0.0723 -0.1451 -0.3793 -0.880 0.336 0.335 50 39 30 0 0
-0.0729 -0.1454 -0.3806 -0.904 0.318 0.284 56 47 36 0 0
-0.0729 -0.1453 -0.3823 -0.954 0.287 0.090 58 51 39 0 0
-0.0736 -0.1457 -0.3836 -0.952 0.306 -0.007 71 65 56 0 0
-0.0738 -0.1457 -0.3852 -0.955 -0.192 0.228 101 98 93 0 0
-0.0742 -0.1459 -0.3866 -0.477 -0.791 0.384 151 150 147 0 0
-0.0744 -0.1460 -0.3882 -0.744 -0.660 0.104 182 182 183 0 0
-0.0745 -0.1461 -0.3898 -0.902 -0.431 -0.021 186 187 190 0 0
-0.0745 -0.1460 -0.3914 -0.902 -0.431 -0.021 185 186 190 0 0
-0.0649 -0.1410 -0.4211 -0.794 0.585 0.164 192 193 197 0 0
-0.0660 -0.1413 -0.4429 -0.887 0.461 0.002 200 201 206 0 0
-0.0644 -0.1404 -0.4576 -0.793 0.609 0.019 203 203 208 0 0
-0.0654 -0.1408 -0.4606 -0.724 0.675 0.145 203 204 208 0 0
-0.0667 -0.1415 -0.4616 -0.805 0.584 0.104 202 203 207 0 0
-0.0773 -0.1460 -0.5381 -0.990 0.104 -0.092 52 40 27 0 0
-0.0641 -0.1390 -0.5803 -0.855 -0.495 0.154 47 37 24 0 0
-0.0644 -0.1391 -0.5820 -0.855 -0.495 0.154 66 56 46 0 0
-0.0732 -0.1426 -0.6642 -0.985 -0.060 0.160 46 35 17 0 0
-0.0734 -0.1424 -0.7008 -0.999 0.015 -0.034 20 16 13 0 0
-0.0386 -0.1243 -0.7855 -0.252 -0.930 0.268 169 157 127 0 0
-0.0759 -0.1424 -0.8166 -0.842 -0.536 0.064 148 130 92 0 0
-0.0868 -0.1477 -0.8242 -0.723 -0.421 0.549 147 127 92 0 0
-0.0877 -0.1482 -0.8256 -0.723 -0.421 0.549 146 128 92 0 0
-0.1102 -0.1589 -0.8662 -0.140 -0.789 0.598 148 144 141 0 0
-0.0499 -0.1334 -0.2720 -0.652 -0.608 0.452 115 101 69 0 0
-0.0529 -0.1349 -0.2757 -0.509 -0.558 0.655 128 113 85 0 0
-0.0539 -0.1353 -0.2769 -0.509 -0.558 0.655 107 95 69 0 0
-0.0551 -0.1359 -0.2827 -0.936 -0.338 -0.098 116 100 66 0 0
-0.0550 -0.1358 -0.2843 -0.936 -0.338 -0.098 157 144 105 0 0
-0.0549 -0.1357 -0.2858 -0.936 -0.338 -0.098 120 108 70 0 0
-0.0616 -0.1388 -0.3132 -0.945 -0.233 0.228 58 45 28 0 0
-0.0621 -0.1390 -0.3146 -0.911 -0.403 0.088 61 47 30 0 0
-0.0627 -0.1392 -0.3175 -0.888 -0.213 0.408 52 36 20 0 0
-0.0712 -0.1428 -0.3784 -0.837 0.141 0.529 74 70 62 0 0
-0.0721 -0.1433 -0.3796 -0.837 0.141 0.529 130 127 123 0 0
-0.0732 -0.1438 -0.3808 -0.666 -0.544 0.511 149 146 142 0 0
-0.0644 -0.1385 -0.4667 -0.769 0.637 0.040 203 204 209 0 0
-0.0645 -0.1386 -0.4684 -0.769 0.637 0.040 203 204 209 0 0
-0.0654 -0.1390 -0.4698 -0.692 0.679 0.245 203 204 208 0 0
-0.0666 -0.1395 -0.4709 -0.710 0.656 0.256 203 204 208 0 0
-0.0767 -0.1438 -0.5407 -0.972 0.199 0.124 48 39 26 0 0
-0.0716 -0.1410 -0.5683 -0.889 -0.188 -0.418 52 46 34 0 0
-0.0704 -0.1404 -0.5709 -0.882 -0.226 -0.413 38 31 21 0 0
-0.0655 -0.1378 -0.5837 -0.852 -0.443 0.278 56 46 34 0 0
-0.0681 -0.1390 -0.5896 -0.893 -0.016 0.449 66 58 38 0 0
-0.0698 -0.1398 -0.5924 -0.800 0.128 0.586 45 35 18 0 0
-0.0741 -0.1412 -0.6600 -0.984 -0.179 0.006 53 40 25 0 0
-0.0732 -0.1408 -0.6647 -0.985 -0.127 0.117 59 47 30 0 0
-0.0890 -0.1469 -0.8251 -0.646 -0.508 0.570 145 128 92 0 0
-0.1008 -0.1526 -0.8360 -0.761 -0.649 -0.025 165 148 107 0 0
-0.0134 -0.1139 -0.2443 -0.819 -0.418 0.393 178 173 168 0 0
-0.0486 -0.1311 -0.2695 -0.679 -0.467 0.566 83 69 37 0 0
-0.0727 -0.1419 -0.3780 -0.472 -0.657 0.587 175 174 173 0 0
-0.0735 -0.1423 -0.3793 -0.556 -0.649 0.519 184 184 186 0 0
-0.0665 -0.1377 -0.4748 -0.734 0.630 0.255 203 204 209 0 0
-0.0671 -0.1380 -0.4763 -0.799 0.576 0.174 203 204 209 0 0
-0.0750 -0.1399 -0.6559 -0.851 -0.523 -0.040 51 40 26 0 0
-0.0749 -0.1398 -0.6580 -0.851 -0.523 -0.040 50 38 23 0 0
-0.0748 -0.1397 -0.6600 -0.851 -0.523 -0.040 45 34 18 0 0
-0.0738 -0.1392 -0.6628 -0.950 -0.293 -0.106 51 39 23 0 0
-0.0735 -0.1390 -0.6651 -0.985 -0.127 0.117 50 38 23 0 0
-0.0886 -0.1447 -0.8240 -0.710 -0.441 0.550 117 103 72 0 0
-0.0900 -0.1454 -0.8249 -0.646 -0.508 0.570 119 106 72 0 0
-0.1026 -0.1516 -0.8306 -0.894 -0.392 0.217 164 146 107 0 0
-0.1032 -0.1519 -0.8322 -0.970 -0.210 0.120 166 149 106 0 0
-0.1025 -0.1513 -0.8486 -0.867 -0.497 -0.037 159 144 105 0 0
-0.1028 -0.1515 -0.8505 -0.681 -0.708 0.186 158 143 103 0 0
-0.0115 -0.1113 -0.2403 -0.492 -0.553 0.673 178 178 174 0 0
-0.0580 -0.1337 -0.3070 -0.836 0.132 0.533 121 103 75 0 0
-0.0634 -0.1343 -0.4822 -0.733 0.677 0.063 202 203 208 0 0
-0.0639 -0.1345 -0.4838 -0.705 0.697 0.128 202 203 208 0 0
-0.0683 -0.1367 -0.4831 -0.902 0.428 0.047 201 202 208 0 0
-0.0676 -0.1363 -0.4853 -0.859 0.512 0.019 201 202 207 0 0
-0.0727 -0.1366 -0.6805 -0.993 -0.111 -0.033 29 24 15 0 0
-0.0725 -0.1362 -0.6992 -0.989 -0.132 0.064 13 11 10 0 0
-0.0730 -0.1365 -0.7009 -0.965 -0.032 0.259 12 10 9 0 0
-0.0929 -0.1449 -0.8251 -0.214 -0.747 0.629 117 103 71 0 0
-0.1021 -0.1494 -0.8296 -0.186 -0.799 0.572 198 181 137 0 0
-0.1039 -0.1502 -0.8391 -0.326 -0.940 -0.101 158 143 102 0 0
-0.1050 -0.1507 -0.8447 -0.600 -0.794 -0.096 166 151 110 0 0
-0.1038 -0.1501 -0.8481 -0.616 -0.776 0.135 165 150 108 0 0
-0.1037 -0.1500 -0.8505 -0.364 -0.876 0.315 162 147 105 0 0
-0.0308 -0.1191 -0.2552 -0.342 -0.475 0.811 207 191 151 0 0
-0.0488 -0.1279 -0.2683 -0.894 -0.297 0.334 78 64 35 0 0
-0.0489 -0.1277 -0.2853 -0.284 0.100 0.954 63 54 36 0 0
-0.0587 -0.1324 -0.3085 -0.882 -0.069 0.466 134 114 85 0 0
-0.0662 -0.1356 -0.3471 -0.964 0.235 0.124 69 55 39 0 0
-0.0640 -0.1328 -0.4823 -0.739 0.663 0.119 202 203 208 0 0
-0.0644 -0.1330 -0.4839 -0.739 0.663 0.119 202 203 208 0 0
-0.0673 -0.1344 -0.4840 -0.902 0.428 0.047 202 203 209 0 0
-0.0660 -0.1337 -0.4866 -0.863 0.505 0.008 203 204 210 0 0
-0.0665 -0.1338 -0.4989 -0.734 0.677 0.057 143 142 143 0 0
-0.0718 -0.1340 -0.6942 -0.956 0.148 0.255 13 12 10 0 0
-0.0727 -0.1344 -0.6955 -0.937 0.021 0.348 15 13 14 0 0
-0.0726 -0.1344 -0.6997 -0.925 -0.378 0.045 11 9 8 0 0
-0.0734 -0.1347 -0.7012 -0.950 -0.165 0.265 9 8 7 0 0
-0.1085 -0.1506 -0.8353 -0.620 -0.596 0.510 160 146 102 0 0
-0.1102 -0.1513 -0.8492 -0.692 -0.706 -0.149 158 143 102 0 0
-0.0300 -0.1169 -0.2540 -0.430 -0.661 0.616 200 186 147 0 0
-0.0316 -0.1177 -0.2551 -0.396 -0.563 0.725 224 209 168 0 0
-0.0493 -0.1265 -0.2683 -0.912 -0.257 0.321 76 58 32 0 0
-0.0474 -0.1254 -0.2797 -0.972 -0.026 -0.232 52 44 31 0 0
-0.0460 -0.1246 -0.2817 -0.816 0.549 0.181 75 68 52 0 0
-0.0612 -0.1295 -0.4950 -0.686 0.719 0.113 203 204 209 0 0
-0.0621 -0.1299 -0.4963 -0.698 0.711 0.086 203 204 209 0 0
-0.0625 -0.1300 -0.4979 -0.698 0.711 0.086 203 204 209 0 0
-0.0619 -0.1297 -0.5001 -0.692 0.717 0.085 203 204 209 0 0
-0.0652 -0.1314 -0.5018 -0.715 0.683 0.151 202 203 206 0 0
-0.0721 -0.1322 -0.6987 -0.992 0.027 0.125 10 9 9 0 0
-0.0944 -0.1432 -0.7157 -0.808 -0.384 0.446 59 49 38 0 0
-0.1097 -0.1493 -0.8349 -0.469 -0.238 0.851 167 154 110 0 0
-0.1127 -0.1506 -0.8497 -0.896 -0.392 -0.210 158 143 101 0 0
-0.1125 -0.1504 -0.8523 -0.738 -0.427 0.522 158 143 101 0 0
-0.1134 -0.1509 -0.8535 -0.496 -0.504 0.707 166 150 112 0 0
-0.2070 -0.1978 -0.8668 -0.817 -0.157 0.554 207 206 204 0 0
-0.0605 -0.1296 -0.3258 -0.902 0.246 0.353 146 132 109 0 0
-0.0588 -0.1263 -0.5040 -0.692 0.717 0.085 203 204 208 0 0
-0.0659 -0.1287 -0.5917 -0.881 0.081 0.466 25 21 16 0 0
-0.1106 -0.1478 -0.8348 -0.517 -0.259 0.816 184 170 126 0 0
-0.1116 -0.1483 -0.8360 -0.599 -0.775 -0.201 168 154 111 0 0
-0.1086 -0.1466 -0.8480 -0.781 -0.418 -0.464 161 146 103 0 0
-0.1312 -0.1577 -0.8698 -0.289 -0.193 0.938 179 180 177 0 0
-0.2115 -0.1983 -0.8625 -0.134 0.159 0.978 206 205 203 0 0
-0.0072 -0.1024 -0.2326 -0.566 -0.512 0.646 179 176 166 0 0
-0.0082 -0.1029 -0.2339 -0.566 -0.512 0.646 155 146 128 0 0
-0.0601 -0.1278 -0.3261 -0.911 0.183 0.368 126 114 93 0 0
-0.0660 -0.1268 -0.5921 -0.979 0.084 0.186 18 15 11 0 0
-0.0683 -0.1277 -0.6140 -0.988 -0.133 -0.081 34 27 20 0 0
-0.0679 -0.1275 -0.6162 -0.998 -0.010 -0.060 30 24 18 0 0
-0.0948 -0.1396 -0.7167 -0.787 -0.375 0.490 56 49 42 0 0
-0.0955 -0.1399 -0.7182 -0.752 -0.485 0.446 62 54 46 0 0
-0.0684 -0.1252 -0.7866 -0.373 -0.910 0.182 93 81 55 0 0
-0.0986 -0.1401 -0.8117 -0.611 -0.781 0.129 140 124 86 0 0
-0.0991 -0.1403 -0.8135 -0.486 -0.728 0.484 140 125 86 0 0
-0.1113 -0.1462 -0.8349 -0.527 -0.042 0.849 187 173 129 0 0
-0.1131 -0.1471 -0.8354 -0.711 -0.652 -0.266 185 171 128 0 0
-0.1337 -0.1571 -0.8679 -0.157 -0.595 0.788 177 177 175 0 0
-0.1296 -0.1549 -0.8746 -0.273 -0.585 0.764 180 180 178 0 0
-0.0013 -0.0977 -0.2296 -0.817 -0.359 0.452 176 177 176 0 0
-0.0275 -0.1108 -0.2428 -0.736 -0.485 0.472 134 116 91 0 0
-0.0282 -0.1111 -0.2442 -0.736 -0.485 0.472 136 117 91 0 0
-0.0553 -0.1230 -0.3624 -0.825 -0.354 0.440 179 180 184 0 0
-0.0598 -0.1231 -0.5098 -0.604 0.699 0.383 203 205 210 0 0
-0.0712 -0.1281 -0.5624 -0.974 -0.178 -0.143 31 26 22 0 0
-0.0680 -0.1256 -0.6147 -0.993 -0.029 -0.115 24 20 16 0 0
-0.0681 -0.1243 -0.7080 -0.910 0.130 0.394 8 6 7 0 0
-0.0962 -0.1384 -0.7182 -0.729 -0.568 0.382 72 64 55 0 0
-0.1293 -0.1529 -0.8667 -0.261 -0.777 0.573 145 141 137 0 0
-0.0280 -0.1093 -0.2444 -0.780 -0.515 0.355 128 108 79 0 0
-0.0287 -0.1089 -0.2929 -0.186 -0.933 0.308 56 52 42 0 0
-0.0302 -0.1096 -0.2940 -0.307 -0.821 0.481 61 57 45 0 0
-0.0569 -0.1221 -0.3653 -0.875 -0.205 0.439 182 183 187 0 0
-0.0581 -0.1202 -0.5223 -0.687 0.715 0.133 202 203 208 0 0
-0.0592 -0.1207 -0.5235 -0.694 0.705 0.146 202 202 206 0 0
-0.0671 -0.1237 -0.5866 -0.894 -0.238 -0.379 24 21 18 0 0
-0.1004 -0.1371 -0.8094 -0.865 -0.344 0.366 111 92 59 0 0
-0.1309 -0.1518 -0.8659 -0.261 -0.777 0.573 129 126 120 0 0
-0.1503 -0.1615 -0.8722 -0.139 0.301 0.943 189 188 186 0 0
-0.0309 -0.1091 -0.2468 -0.644 -0.487 0.591 170 153 115 0 0
-0.0435 -0.1151 -0.2663 -0.920 -0.092 0.382 59 45 27 0 0
-0.0440 -0.1154 -0.2677 -0.896 -0.193 0.400 63 50 30 0 0
-0.0354 -0.1105 -0.2973 -0.159 -0.625 0.764 42 37 31 0 0
-0.0494 -0.1176 -0.3020 -0.913 0.382 0.141 66 51 32 0 0
-0.0539 -0.1189 -0.3585 -0.687 -0.254 0.681 180 180 184 0 0
-0.0548 -0.1194 -0.3598 -0.875 -0.205 0.439 181 181 185 0 0
-0.0585 -0.1185 -0.5262 -0.630 0.734 0.253 203 205 210 0 0
-0.0596 -0.1191 -0.5274 -0.670 0.713 0.210 202 204 208 0 0
-0.0652 -0.1205 -0.6079 -0.969 0.239 -0.056 11 8 7 0 0
-0.0654 -0.1206 -0.6097 -0.960 0.268 0.084 13 10 9 0 0
-0.0646 -0.1194 -0.6562 -0.992 0.038 0.118 10 9 7 0 0
-0.0648 -0.1195 -0.6581 -0.958 0.131 0.255 9 8 6 0 0
-0.0653 -0.1198 -0.6597 -0.958 0.131 0.255 9 8 6 0 0
-0.0658 -0.1200 -0.6614 -0.958 0.131 0.255 10 9 7 0 0
-0.0640 -0.1183 -0.7083 -0.902 -0.214 0.375 9 7 6 0 0
-0.0436 -0.1135 -0.2649 -0.952 -0.056 0.300 54 41 24 0 0
-0.0441 -0.1138 -0.2663 -0.912 -0.223 0.345 58 45 28 0 0
-0.0441 -0.1138 -0.2678 -0.968 -0.158 0.193 63 52 32 0 0
-0.0411 -0.1122 -0.2703 -0.944 -0.260 -0.205 62 50 33 0 0
-0.0290 -0.1057 -0.2836 -0.097 -0.951 0.292 45 38 30 0 0
-0.0297 -0.1061 -0.2850 -0.101 -0.784 0.612 32 25 17 0 0
-0.0499 -0.1152 -0.3538 -0.828 -0.073 0.556 171 171 171 0 0
-0.0532 -0.1169 -0.3591 -0.749 0.021 0.662 179 183 184 0 0
-0.0537 -0.1171 -0.3605 -0.919 -0.045 0.392 180 183 186 0 0
-0.0554 -0.1150 -0.5285 -0.630 0.734 0.253 202 205 210 0 0
-0.0567 -0.1157 -0.5295 -0.670 0.713 0.210 202 205 210 0 0
-0.0576 -0.1161 -0.5309 -0.670 0.713 0.210 202 205 210 0 0
-0.0604 -0.1176 -0.5310 -0.698 0.664 0.266 201 204 209 0 0
-0.0658 -0.1195 -0.5788 -0.977 0.074 0.199 15 15 11 0 0
-0.0605 -0.1159 -0.6295 -0.944 0.244 0.220 13 9 9 0 0
-0.0638 -0.1175 -0.6371 -0.975 0.150 0.163 16 12 11 0 0
-0.0639 -0.1175 -0.6391 -0.991 0.136 -0.011 16 12 11 0 0
-0.0653 -0.1180 -0.6481 -0.983 0.185 -0.001 13 9 8 0 0
-0.0637 -0.1172 -0.6513 -0.994 -0.040 0.106 12 9 8 0 0
-0.1287 -0.1472 -0.8407 -0.299 -0.855 0.424 160 145 102 0 0
-0.1292 -0.1474 -0.8424 -0.522 -0.695 0.494 162 149 105 0 0
-0.1311 -0.1483 -0.8449 -0.734 -0.669 0.113 143 128 94 0 0
-0.1343 -0.1496 -0.8663 -0.242 -0.926 0.291 119 114 107 0 0
-0.0354 -0.1079 -0.2489 -0.454 -0.808 0.375 174 163 123 0 0
-0.0308 -0.1050 -0.2816 -0.090 -0.993 0.077 32 25 17 0 0
-0.0312 -0.1051 -0.2831 -0.202 -0.902 0.383 42 35 29 0 0
-0.0503 -0.1137 -0.3539 -0.860 -0.160 0.485 180 181 184 0 0
-0.0511 -0.1141 -0.3569 -0.673 -0.067 0.737 180 181 185 0 0
-0.0522 -0.1146 -0.3581 -0.619 -0.099 0.780 181 182 186 0 0
-0.0556 -0.1133 -0.5288 -0.677 0.662 0.323 202 205 210 0 0
-0.0576 -0.1143 -0.5313 -0.692 0.660 0.293 202 205 210 0 0
-0.0583 -0.1146 -0.5328 -0.698 0.664 0.266 205 206 211 0 0
-0.0567 -0.1137 -0.5356 -0.742 0.650 0.163 204 205 209 0 0
-0.0605 -0.1140 -0.6300 -0.960 0.236 0.153 12 8 7 0 0
-0.1167 -0.1411 -0.7261 -0.784 -0.617 -0.064 153 137 103 0 0
-0.1144 -0.1385 -0.8071 -0.865 -0.499 0.057 151 135 94 0 0
-0.1307 -0.1463 -0.8417 -0.210 -0.759 0.617 163 149 105 0 0
-0.1330 -0.1474 -0.8438 -0.428 -0.879 0.210 148 133 99 0 0
-0.1336 -0.1476 -0.8521 -0.334 -0.928 0.163 110 97 65 0 0
-0.0388 -0.1079 -0.2543 -0.765 -0.144 0.628 75 64 36 0 0
-0.0477 -0.1115 -0.3080 -0.772 -0.387 0.505 135 120 94 0 0
-0.0445 -0.1089 -0.3582 -0.823 0.306 -0.478 180 181 185 0 0
-0.0662 -0.1159 -0.5815 -0.997 0.052 0.062 15 14 12 0 0
-0.0619 -0.1126 -0.6397 -0.863 0.476 0.169 13 9 8 0 0
-0.0623 -0.1128 -0.6414 -0.863 0.476 0.169 14 10 9 0 0
-0.0625 -0.1129 -0.6432 -0.898 0.431 0.087 15 11 10 0 0
-0.0627 -0.1129 -0.6471 -0.890 0.431 0.147 14 10 9 0 0
-0.0651 -0.1128 -0.7199 -0.951 0.298 0.076 29 23 22 0 0
-0.1186 -0.1403 -0.7230 -0.366 -0.673 0.643 132 116 82 0 0
-0.1186 -0.1402 -0.7252 -0.605 -0.742 0.288 138 122 89 0 0
-0.1050 -0.1329 -0.7475 -0.205 -0.907 -0.368 126 112 81 0 0
-0.0977 -0.1282 -0.7908 -0.527 -0.780 0.336 78 63 37 0 0
-0.1356 -0.1468 -0.8442 -0.169 -0.957 0.236 131 117 82 0 0
-0.0436 -0.1085 -0.2639 -0.941 -0.136 0.309 97 83 57 0 0
-0.0439 -0.1086 -0.2668 -0.943 -0.274 0.190 65 50 32 0 0
-0.0443 -0.1082 -0.2966 -0.792 -0.159 0.590 84 75 59 0 0
-0.0594 -0.1097 -0.6259 -0.906 0.374 -0.197 35 33 31 0 0
-0.0593 -0.1096 -0.6280 -0.967 0.101 -0.233 33 29 28 0 0
-0.0596 -0.1096 -0.6338 -0.978 0.177 0.113 17 13 12 0 0
-0.0598 -0.1097 -0.6357 -0.922 0.330 0.201 16 12 11 0 0
-0.0601 -0.1098 -0.6375 -0.900 0.376 0.223 14 10 9 0 0
-0.0606 -0.1101 -0.6391 -0.875 0.428 0.226 12 8 7 0 0
-0.0613 -0.1104 -0.6407 -0.923 0.378 0.073 11 7 6 0 0
-0.0615 -0.1104 -0.6426 -0.923 0.378 0.073 12 8 7 0 0
-0.0616 -0.1104 -0.6445 -0.918 0.392 0.062 12 8 7 0 0
-0.0625 -0.1108 -0.6519 -0.890 0.431 0.147 12 8 7 0 0
-0.0626 -0.1106 -0.6641 -0.964 0.266 -0.015 20 16 15 0 0
-0.0625 -0.1105 -0.6662 -0.940 0.342 0.006 19 15 14 0 0
-0.0627 -0.1100 -0.6993 -0.983 0.082 -0.162 6 4 5 0 0
-0.0636 -0.1103 -0.7049 -0.853 -0.522 0.003 7 5 6 0 0
-0.0635 -0.1101 -0.7155 -0.946 0.100 0.308 8 6 7 0 0
-0.0641 -0.1103 -0.7172 -0.946 0.100 0.308 17 12 13 0 0
-0.0646 -0.1106 -0.7189 -0.848 0.037 0.529 30 25 24 0 0
-0.1153 -0.1352 -0.8055 -0.710 -0.606 0.359 110 90 57 0 0
-0.1165 -0.1356 -0.8110 -0.812 -0.532 0.240 140 121 83 0 0
-0.1389 -0.1464 -0.8549 -0.054 -0.953 0.299 140 121 83 0 0
-0.1480 -0.1509 -0.8677 -0.172 -0.732 0.659 167 167 165 0 0
-0.0203 -0.0953 -0.2319 -0.379 -0.430 0.820 151 134 101 0 0
-0.0434 -0.1066 -0.2672 -0.953 -0.247 0.177 79 67 44 0 0
-0.0355 -0.1022 -0.2838 -0.685 -0.721 0.104 32 25 18 0 0
-0.0358 -0.1023 -0.2853 -0.748 -0.508 0.426 23 17 10 0 0
-0.0462 -0.1064 -0.3480 -0.809 0.520 -0.273 179 179 183 0 0
-0.0444 -0.1055 -0.3504 -0.831 0.482 -0.277 179 180 183 0 0
-0.0417 -0.1040 -0.3548 -0.808 0.542 -0.231 180 181 185 0 0
-0.0564 -0.1076 -0.5542 -0.603 0.736 0.307 188 188 190 0 0
-0.0591 -0.1090 -0.5544 -0.622 0.731 0.282 142 143 142 0 0
-0.0597 -0.1081 -0.6182 -0.901 0.434 -0.012 12 11 9 0 0
-0.0595 -0.1079 -0.6204 -0.918 0.390 -0.073 11 9 8 0 0
-0.0571 -0.1065 -0.6281 -0.851 0.510 -0.125 18 16 14 0 0
-0.0584 -0.1072 -0.6312 -0.945 0.311 -0.106 17 13 12 0 0
-0.0577 -0.1067 -0.6337 -0.948 0.209 -0.242 14 10 9 0 0
-0.0595 -0.1076 -0.6344 -0.971 0.230 0.063 15 11 10 0 0
-0.0597 -0.1077 -0.6363 -0.937 0.342 0.070 17 13 12 0 0
-0.0599 -0.1078 -0.6382 -0.937 0.342 0.070 20 16 15 0 0
-0.0615 -0.1083 -0.6532 -0.890 0.431 0.147 13 8 7 0 0
-0.0622 -0.1085 -0.6629 -0.978 0.208 -0.032 12 8 7 0 0
-0.0621 -0.1084 -0.6650 -0.978 0.208 -0.032 12 8 7 0 0
-0.0621 -0.1083 -0.6671 -0.959 0.282 0.021 11 7 6 0 0
-0.0622 -0.1083 -0.6691 -0.959 0.282 0.021 10 8 6 0 0
-0.0609 -0.1072 -0.6908 -0.825 0.555 0.104 6 4 5 0 0
-0.0612 -0.1073 -0.6927 -0.831 0.550 0.089 6 5 6 0 0
-0.1171 -0.1341 -0.8068 -0.659 -0.667 0.349 141 120 84 0 0
-0.1350 -0.1430 -0.8287 -0.934 -0.350 -0.067 162 144 103 0 0
-0.1398 -0.1452 -0.8415 -0.779 -0.414 0.471 111 103 75 0 0
-0.1506 -0.1503 -0.8681 -0.207 -0.735 0.645 170 168 167 0 0
-0.1518 -0.1509 -0.8690 -0.110 -0.619 0.777 174 173 171 0 0
-0.0003 -0.0836 -0.2122 -0.787 -0.555 0.268 116 113 102 0 0
-0.0614 -0.1076 -0.5920 -0.902 0.429 0.054 22 19 17 0 0
-0.0588 -0.1061 -0.5976 -0.943 0.332 0.028 24 23 20 0 0
-0.0588 -0.1061 -0.5996 -0.943 0.326 0.068 19 18 14 0 0
-0.0590 -0.1061 -0.6015 -0.943 0.326 0.068 14 14 11 0 0
-0.0597 -0.1063 -0.6089 -0.959 0.194 0.205 17 15 14 0 0
-0.0601 -0.1065 -0.6106 -0.984 -0.178 0.003 15 14 12 0 0
-0.0606 -0.1068 -0.6122 -0.989 -0.115 0.095 18 17 15 0 0
-0.0608 -0.1068 -0.6140 -0.989 -0.115 0.095 15 13 11 0 0
-0.0601 -0.1064 -0.6165 -0.944 0.194 0.268 12 11 9 0 0
-0.0591 -0.1054 -0.6373 -0.911 0.402 0.089 13 9 8 0 0
-0.0601 -0.1057 -0.6508 -0.926 0.368 0.080 29 23 23 0 0
-0.0600 -0.1056 -0.6529 -0.890 0.436 0.136 25 19 19 0 0
-0.0605 -0.1058 -0.6546 -0.850 0.485 0.205 23 18 17 0 0
-0.0615 -0.1061 -0.6661 -0.985 0.115 -0.129 16 12 11 0 0
-0.0612 -0.1059 -0.6684 -0.985 0.115 -0.129 18 14 13 0 0
-0.0612 -0.1059 -0.6704 -0.992 0.092 -0.089 19 15 14 0 0
-0.0607 -0.1055 -0.6729 -0.984 0.158 -0.083 17 13 12 0 0
-0.0597 -0.1049 -0.6798 -0.936 0.352 0.011 10 9 7 0 0
-0.0584 -0.1035 -0.7124 -0.842 0.029 0.538 5 5 5 0 0
-0.0944 -0.1223 -0.7124 -0.202 -0.173 0.964 61 54 46 0 0
-0.0997 -0.1235 -0.7846 -0.596 -0.652 0.469 64 51 26 0 0
-0.1361 -0.1417 -0.8262 -0.829 -0.554 0.076 154 136 94 0 0
-0.1363 -0.1417 -0.8282 -0.920 -0.392 0.012 154 137 93 0 0
-0.1418 -0.1442 -0.8425 -0.466 -0.794 0.389 109 100 72 0 0
-0.1533 -0.1497 -0.8683 -0.186 -0.781 0.597 168 167 165 0 0
-0.0266 -0.0952 -0.2320 -0.283 -0.390 0.876 199 181 141 0 0
-0.0406 -0.1021 -0.2482 -0.524 -0.751 0.401 104 90 71 0 0
-0.0435 -0.1015 -0.3480 -0.836 0.530 -0.142 180 181 185 0 0
-0.0603 -0.1051 -0.5932 -0.889 0.454 0.055 22 19 18 0 0
-0.0580 -0.1038 -0.5987 -0.943 0.332 0.028 20 19 16 0 0
-0.0581 -0.1038 -0.6006 -0.950 0.307 0.052 19 18 14 0 0
-0.0583 -0.1039 -0.6024 -0.951 0.306 0.047 16 15 13 0 0
-0.0585 -0.1036 -0.6182 -1.000 0.011 -0.011 13 12 10 0 0
-0.0585 -0.1036 -0.6202 -1.000 0.011 -0.011 14 13 11 0 0
-0.0583 -0.1034 -0.6223 -0.989 0.146 -0.031 16 14 12 0 0
-0.0578 -0.1031 -0.6246 -0.979 0.098 -0.181 15 11 10 0 0
-0.0572 -0.1028 -0.6271 -0.954 0.196 -0.229 14 10 9 0 0
-0.0565 -0.1023 -0.6296 -0.963 0.156 -0.222 17 13 12 0 0
-0.0571 -0.1026 -0.6312 -0.985 0.094 -0.146 18 14 13 0 0
-0.0554 -0.1016 -0.6344 -0.986 0.118 0.118 13 9 8 0 0
-0.0595 -0.1035 -0.6497 -0.995 -0.056 0.078 13 10 8 0 0
-0.0597 -0.1035 -0.6517 -0.995 -0.056 0.078 15 11 10 0 0
-0.0599 -0.1034 -0.6597 -0.926 -0.268 0.267 20 16 15 0 0
-0.0606 -0.1038 -0.6612 -0.894 -0.130 0.429 17 13 12 0 0
-0.0609 -0.1039 -0.6630 -0.977 0.062 0.202 21 17 16 0 0
-0.0613 -0.1040 -0.6668 -0.989 0.120 0.088 21 17 16 0 0
-0.0601 -0.1033 -0.6739 -0.967 0.206 -0.152 18 14 13 0 0
-0.0589 -0.1026 -0.6769 -0.932 0.362 -0.032 18 14 13 0 0
-0.0930 -0.1196 -0.7122 -0.431 -0.234 0.872 59 51 46 0 0
-0.0944 -0.1203 -0.7131 -0.431 -0.234 0.872 62 55 47 0 0
-0.1374 -0.1404 -0.8257 -0.397 -0.396 0.828 139 119 83 0 0
-0.1380 -0.1407 -0.8273 -0.440 -0.836 0.328 143 124 82 0 0
-0.1385 -0.1409 -0.8290 -0.814 -0.571 0.106 143 125 84 0 0
-0.1398 -0.1416 -0.8299 -0.823 -0.556 -0.118 141 125 86 0 0
-0.0045 -0.0831 -0.1764 -0.931 -0.218 0.292 178 176 178 0 0
-0.0031 -0.0823 -0.1782 -0.804 -0.594 -0.032 180 175 176 0 0
-0.0423 -0.1013 -0.2494 -0.932 -0.300 0.203 84 71 47 0 0
-0.0423 -0.0991 -0.3470 -0.824 0.567 -0.007 178 181 184 0 0
-0.0587 -0.1018 -0.6185 -0.959 0.282 -0.033 17 16 14 0 0
-0.0579 -0.1013 -0.6231 -0.985 0.135 -0.103 16 13 12 0 0
-0.0578 -0.1012 -0.6252 -0.995 0.080 -0.053 16 12 11 0 0
-0.0572 -0.1007 -0.6297 -0.987 0.121 0.103 18 14 13 0 0
-0.0575 -0.1008 -0.6315 -0.975 0.188 0.118 15 11 10 0 0
-0.0577 -0.1009 -0.6333 -0.975 0.188 0.118 14 10 9 0 0
-0.0587 -0.1013 -0.6407 -0.901 0.324 -0.290 14 10 9 0 0
-0.0588 -0.1005 -0.6776 -0.980 0.062 -0.190 11 7 6 0 0
-0.0545 -0.0980 -0.6893 -0.833 -0.485 -0.265 7 6 4 0 0
-0.0510 -0.0961 -0.6941 -0.451 -0.770 -0.452 6 5 4 0 0
-0.0570 -0.0989 -0.7085 -0.578 0.552 0.601 5 5 5 0 0
-0.0551 -0.0979 -0.7121 -0.149 -0.400 0.904 4 5 5 0 0
-0.0973 -0.1199 -0.7134 -0.303 -0.313 0.900 63 56 47 0 0
-0.1315 -0.1358 -0.8082 -0.661 -0.561 0.498 148 129 89 0 0
-0.1403 -0.1398 -0.8345 -0.883 -0.468 0.043 146 129 86 0 0
-0.1424 -0.1408 -0.8369 -0.557 -0.787 0.267 154 137 92 0 0
-0.1434 -0.1414 -0.8380 -0.349 -0.813 0.466 155 136 92 0 0
-0.0247 -0.0908 -0.2282 -0.512 -0.274 0.814 162 146 111 0 0
-0.0395 -0.0982 -0.2427 -0.656 -0.447 0.609 84 71 44 0 0
-0.0413 -0.0991 -0.2452 -0.656 -0.447 0.609 79 65 41 0 0
-0.0503 -0.1023 -0.3164 -0.966 0.242 0.094 25 20 15 0 0
-0.0411 -0.0969 -0.3411 -0.849 0.522 -0.078 176 178 181 0 0
-0.0403 -0.0964 -0.3430 -0.860 0.472 -0.193 179 180 184 0 0
-0.0397 -0.0961 -0.3449 -0.860 0.472 -0.193 179 180 184 0 0
-0.0391 -0.0957 -0.3469 -0.862 0.432 -0.265 179 180 184 0 0
-0.0630 -0.1030 -0.5807 -0.304 -0.906 -0.294 210 211 214 0 0
-0.0621 -0.1024 -0.5833 -0.304 -0.906 -0.294 207 208 210 0 0
-0.0610 -0.1018 -0.5859 -0.317 -0.906 -0.280 196 197 200 0 0
-0.0605 -0.1015 -0.5882 -0.305 -0.912 -0.273 180 182 181 0 0
-0.0565 -0.0991 -0.6027 -0.857 0.512 0.062 53 54 50 0 0
-0.0567 -0.0991 -0.6045 -0.846 0.526 0.086 46 47 42 0 0
-0.0571 -0.0992 -0.6083 -0.923 0.378 0.079 28 29 24 0 0
-0.0574 -0.0994 -0.6100 -0.902 0.420 0.104 25 25 20 0 0
-0.0576 -0.0994 -0.6119 -0.958 0.282 0.058 28 26 23 0 0
-0.0580 -0.0996 -0.6136 -0.942 0.335 0.027 28 27 25 0 0
-0.0580 -0.0996 -0.6156 -0.910 0.413 0.029 25 24 21 0 0
-0.0579 -0.0995 -0.6177 -0.963 0.270 -0.018 21 20 18 0 0
-0.0584 -0.0997 -0.6193 -0.925 0.378 -0.019 17 15 15 0 0
-0.0582 -0.0995 -0.6214 -0.929 0.369 0.005 16 14 14 0 0
-0.0582 -0.0995 -0.6234 -0.925 0.378 -0.019 16 15 14 0 0
-0.0525 -0.0960 -0.6458 -0.907 0.408 -0.108 15 11 10 0 0
-0.0522 -0.0948 -0.6896 -0.853 0.522 -0.024 6 5 5 0 0
-0.0518 -0.0946 -0.6920 -0.872 0.477 -0.112 5 5 5 0 0
-0.0566 -0.0966 -0.7137 -0.046 0.095 0.994 3 4 4 0 0
-0.0854 -0.1118 -0.7115 0.011 -0.241 0.970 48 44 41 0 0
-0.0885 -0.1134 -0.7109 0.064 -0.458 0.887 52 47 44 0 0
-0.1309 -0.1336 -0.8052 -0.886 -0.448 0.117 140 123 86 0 0
-0.0107 -0.0821 -0.2103 -0.410 -0.905 0.114 82 75 55 0 0
-0.0259 -0.0897 -0.2280 -0.397 -0.351 0.848 171 156 119 0 0
-0.0377 -0.0956 -0.2418 -0.790 -0.060 0.610 86 73 48 0 0
-0.0421 -0.0976 -0.2575 -0.985 -0.041 0.169 55 40 22 0 0
-0.0485 -0.0997 -0.3140 -0.849 0.090 0.521 43 35 25 0 0
-0.0379 -0.0933 -0.3459 -0.855 0.485 -0.182 179 180 184 0 0
-0.0623 -0.1005 -0.5895 -0.305 -0.912 -0.273 214 215 217 0 0
-0.0609 -0.0997 -0.5943 -0.397 -0.864 -0.309 211 212 213 0 0
-0.0600 -0.0991 -0.5969 -0.397 -0.864 -0.309 204 205 206 0 0
-0.0590 -0.0985 -0.5996 -0.295 -0.907 -0.301 188 190 191 0 0
-0.0580 -0.0972 -0.6343 -0.926 0.368 0.087 12 12 9 0 0
-0.0548 -0.0939 -0.7051 -0.695 0.703 0.151 4 4 4 0 0
-0.0572 -0.0950 -0.7117 -0.532 0.566 0.629 4 4 4 0 0
-0.0584 -0.0956 -0.7129 -0.361 0.487 0.796 6 6 6 0 0
-0.0659 -0.0995 -0.7153 -0.723 0.226 0.653 29 25 22 0 0
-0.0685 -0.1008 -0.7154 -0.564 -0.144 0.813 31 27 24 0 0
-0.1532 -0.1424 -0.8472 -0.892 -0.400 0.210 158 143 101 0 0
-0.1540 -0.1428 -0.8485 -0.852 -0.353 0.388 153 137 97 0 0
-0.1655 -0.1484 -0.8697 -0.741 -0.367 0.562 182 181 179 0 0
-0.0316 -0.0909 -0.2313 -0.516 -0.318 0.795 180 161 127 0 0
-0.0408 -0.0954 -0.2488 -0.934 -0.187 0.305 70 58 38 0 0
-0.0430 -0.0963 -0.2574 -0.968 -0.250 -0.011 61 45 29 0 0
-0.0485 -0.0979 -0.3142 -0.849 0.090 0.521 39 31 22 0 0
-0.0371 -0.0911 -0.3448 -0.844 0.495 -0.206 179 180 184 0 0
-0.0590 -0.0964 -0.6080 -0.048 -0.976 -0.211 207 208 212 0 0
-0.0584 -0.0960 -0.6104 -0.084 -0.974 -0.209 198 199 203 0 0
-0.0576 -0.0955 -0.6130 -0.084 -0.974 -0.209 183 183 185 0 0
-0.0572 -0.0953 -0.6152 -0.094 -0.973 -0.210 164 165 166 0 0
-0.0564 -0.0948 -0.6178 -0.094 -0.973 -0.210 153 153 154 0 0
-0.0559 -0.0923 -0.7134 -0.435 0.415 0.799 6 6 6 0 0
-0.0600 -0.0944 -0.7144 -0.360 0.424 0.831 15 13 14 0 0
-0.0660 -0.0975 -0.7159 -0.719 0.165 0.675 28 24 21 0 0
-0.1168 -0.1246 -0.7072 -0.444 -0.890 0.104 76 69 56 0 0
-0.1295 -0.1312 -0.7148 -0.376 -0.407 0.833 141 120 82 0 0
-0.1380 -0.1354 -0.7238 -0.266 -0.927 0.263 142 124 89 0 0
-0.1326 -0.1306 -0.8052 -0.809 -0.496 0.316 96 82 54 0 0
-0.1406 -0.1344 -0.8235 -0.483 -0.330 0.811 134 118 79 0 0
-0.1520 -0.1400 -0.8405 -0.761 -0.584 0.283 118 107 74 0 0
-0.1546 -0.1412 -0.8466 -0.804 -0.432 0.409 153 135 95 0 0
-0.0067 -0.0774 -0.1733 -0.650 -0.414 0.637 175 167 151 0 0
-0.0147 -0.0809 -0.2049 -0.366 -0.930 -0.014 101 87 60 0 0
-0.0429 -0.0946 -0.2561 -0.976 -0.188 0.111 59 46 28 0 0
-0.0365 -0.0891 -0.3419 -0.840 0.537 -0.075 179 180 184 0 0
-0.0577 -0.0935 -0.6194 -0.739 -0.625 -0.252 212 213 216 0 0
-0.0563 -0.0927 -0.6224 -0.919 -0.326 -0.223 210 211 213 0 0
-0.0564 -0.0927 -0.6244 -0.975 -0.137 -0.174 208 209 211 0 0
-0.0550 -0.0919 -0.6274 -0.934 -0.351 -0.071 204 205 207 0 0
-0.0548 -0.0916 -0.6356 -0.886 -0.461 -0.057 171 173 175 0 0
-0.0554 -0.0918 -0.6372 -0.886 -0.463 -0.010 158 159 161 0 0
-0.0579 -0.0930 -0.6436 -0.820 -0.353 0.451 139 138 137 0 0
-0.0470 -0.0858 -0.6997 -0.805 -0.565 0.183 7 7 6 0 0
-0.0473 -0.0860 -0.7016 -0.805 -0.565 0.183 5 5 5 0 0
-0.0476 -0.0861 -0.7035 -0.661 -0.744 0.095 5 5 5 0 0
-0.1098 -0.1172 -0.7798 -0.916 -0.248 0.315 73 57 34 0 0
-0.1422 -0.1334 -0.8204 -0.403 -0.390 0.828 144 129 91 0 0
-0.0401 -0.0903 -0.2966 -0.726 -0.008 0.688 70 61 50 0 0
-0.0352 -0.0866 -0.3410 -0.852 0.519 -0.064 178 179 183 0 0
-0.0553 -0.0901 -0.6297 -0.957 -0.289 -0.008 213 214 218 0 0
-0.0553 -0.0900 -0.6317 -0.957 -0.289 -0.008 213 214 218 0 0
-0.0556 -0.0900 -0.6356 -0.968 -0.248 0.043 212 213 217 0 0
-0.0557 -0.0900 -0.6396 -0.962 -0.270 -0.030 208 209 213 0 0
-0.0882 -0.1071 -0.6480 -0.176 -0.948 -0.267 13 8 11 0 0
-0.0483 -0.0845 -0.7014 -0.805 -0.565 0.183 25 22 20 0 0
-0.1540 -0.1372 -0.8401 -0.761 -0.584 0.283 145 129 89 0 0
-0.1642 -0.1421 -0.8647 -0.367 -0.793 0.486 113 108 96 0 0
0.0021 -0.0695 -0.1647 -0.506 -0.826 0.248 177 177 177 0 0
-0.0057 -0.0735 -0.1707 -0.847 -0.129 0.516 177 173 162 0 0
-0.0239 -0.0819 -0.2229 -0.661 -0.411 0.628 91 78 62 0 0
-0.0325 -0.0835 -0.3372 -0.773 0.600 -0.206 178 179 183 0 0
-0.0330 -0.0837 -0.3387 -0.811 0.535 -0.236 178 179 183 0 0
-0.0323 -0.0833 -0.3407 -0.809 0.557 -0.186 178 179 183 0 0
-0.0568 -0.0890 -0.6272 -0.978 -0.132 -0.163 214 215 219 0 0
-0.0563 -0.0886 -0.6315 -0.866 -0.496 -0.058 214 215 219 0 0
-0.0563 -0.0885 -0.6336 -0.866 -0.496 -0.058 213 214 218 0 0
-0.0562 -0.0884 -0.6357 -0.906 -0.423 0.023 213 214 218 0 0
-0.0562 -0.0883 -0.6398 -0.962 -0.270 -0.030 209 210 213 0 0
-0.0588 -0.0877 -0.7173 -0.262 0.449 0.854 21 17 16 0 0
-0.0753 -0.0965 -0.7146 -0.084 -0.371 0.925 25 21 20 0 0
-0.1417 -0.1319 -0.7164 -0.722 -0.524 0.451 129 113 80 0 0
-0.1465 -0.1321 -0.8111 -0.845 -0.534 0.025 138 122 82 0 0
-0.1488 -0.1329 -0.8264 -0.818 -0.552 0.162 135 120 82 0 0
-0.1501 -0.1336 -0.8272 -0.584 -0.796 0.159 139 124 82 0 0
-0.0011 -0.0695 -0.1656 -0.679 -0.657 0.328 177 177 174 0 0
-0.0037 -0.0707 -0.1712 -0.580 -0.703 0.411 137 130 113 0 0
-0.0244 -0.0811 -0.1955 -0.686 -0.727 0.024 123 108 74 0 0
-0.0380 -0.0859 -0.2913 -0.954 -0.147 0.260 21 13 10 0 0
-0.0317 -0.0813 -0.3361 -0.794 0.567 -0.221 178 179 183 0 0
-0.0307 -0.0807 -0.3382 -0.794 0.567 -0.221 178 179 183 0 0
-0.0559 -0.0866 -0.6263 -0.920 0.351 0.177 214 215 219 0 0
-0.0563 -0.0867 -0.6280 -0.983 -0.111 0.145 214 215 219 0 0
-0.0563 -0.0867 -0.6301 -0.971 -0.238 -0.018 214 215 219 0 0
-0.0569 -0.0869 -0.6337 -0.906 -0.423 0.023 213 214 218 0 0
-0.0553 -0.0837 -0.7208 -0.043 -0.958 0.283 25 21 20 0 0
-0.0674 -0.0903 -0.7174 0.340 -0.077 0.937 25 21 20 0 0
-0.1279 -0.1207 -0.7910 -0.719 -0.282 0.635 66 54 30 0 0
-0.1483 -0.1310 -0.8145 -0.800 -0.559 0.217 130 116 78 0 0
-0.1497 -0.1315 -0.8262 -0.818 -0.552 0.162 131 116 79 0 0
-0.0028 -0.0686 -0.1669 -0.801 -0.595 0.067 166 158 147 0 0
-0.0041 -0.0692 -0.1712 -0.892 -0.444 0.090 128 121 102 0 0
-0.0252 -0.0792 -0.2213 -0.600 -0.741 0.302 94 82 61 0 0
-0.0306 -0.0789 -0.3351 -0.803 0.555 -0.218 178 179 183 0 0
-0.0304 -0.0788 -0.3368 -0.809 0.572 -0.135 178 179 183 0 0
-0.0444 -0.0760 -0.7150 -0.866 0.348 0.360 45 40 35 0 0
-0.0578 -0.0831 -0.7194 0.047 -0.881 0.470 29 25 22 0 0
-0.0591 -0.0837 -0.7205 0.109 -0.528 0.842 26 22 19 0 0
-0.0851 -0.0979 -0.7141 -0.017 -0.149 0.989 31 26 23 0 0
-0.1399 -0.1273 -0.7151 -0.669 -0.252 0.699 186 163 119 0 0
-0.1283 -0.1190 -0.7893 -0.736 -0.380 0.561 56 45 21 0 0
-0.1286 -0.1191 -0.7911 -0.711 -0.352 0.609 55 44 17 0 0
-0.1413 -0.1257 -0.8005 -0.758 -0.377 0.532 134 117 77 0 0
-0.1505 -0.1302 -0.8153 -0.856 -0.419 0.302 123 108 71 0 0
-0.1500 -0.1299 -0.8179 -0.795 -0.506 0.334 112 99 61 0 0
-0.1687 -0.1392 -0.8447 -0.803 -0.570 0.177 149 134 93 0 0
-0.1691 -0.1393 -0.8509 -0.645 -0.746 0.167 134 121 84 0 0
-0.0050 -0.0679 -0.1711 -0.873 -0.469 0.131 136 129 112 0 0
-0.0259 -0.0781 -0.2105 -0.793 -0.576 -0.196 75 66 40 0 0
-0.0272 -0.0788 -0.2117 -0.943 -0.099 0.317 81 74 48 0 0
-0.0417 -0.0851 -0.2651 -0.975 0.074 0.208 110 101 84 0 0
-0.0420 -0.0852 -0.2666 -0.975 0.074 0.208 121 112 96 0 0
-0.0436 -0.0856 -0.2819 -0.885 0.308 0.348 90 83 67 0 0
-0.0857 -0.0962 -0.7143 -0.052 -0.756 0.653 30 25 22 0 0
-0.0854 -0.0960 -0.7167 -0.514 -0.855 0.067 30 26 23 0 0
-0.1365 -0.1237 -0.7107 -0.342 -0.426 0.838 128 111 85 0 0
-0.1378 -0.1244 -0.7115 -0.524 -0.728 0.442 145 130 100 0 0
-0.1386 -0.1248 -0.7129 -0.616 -0.695 0.370 134 118 80 0 0
-0.1397 -0.1253 -0.7140 -0.734 -0.334 0.592 179 160 120 0 0
-0.1273 -0.1166 -0.7866 -0.816 -0.367 0.446 59 44 21 0 0
-0.1498 -0.1281 -0.8102 -0.762 -0.630 0.150 132 117 77 0 0
-0.1688 -0.1374 -0.8431 -0.739 -0.545 0.397 139 124 83 0 0
-0.1694 -0.1377 -0.8447 -0.861 -0.466 0.201 143 128 87 0 0
-0.1687 -0.1372 -0.8499 -0.593 -0.802 -0.072 145 131 89 0 0
-0.1705 -0.1381 -0.8503 -0.615 -0.764 0.195 143 130 88 0 0
-0.1732 -0.1391 -0.8652 -0.314 -0.758 0.572 132 129 121 0 0
-0.0279 -0.0780 -0.1920 -0.571 -0.677 0.465 122 105 75 0 0
-0.0299 -0.0788 -0.2021 -0.458 -0.795 0.399 110 97 68 0 0
-0.0274 -0.0771 -0.2118 -0.943 -0.099 0.317 81 74 47 0 0
-0.0276 -0.0772 -0.2133 -0.410 -0.472 0.780 96 85 60 0 0
-0.0278 -0.0769 -0.2271 -0.783 -0.564 0.262 48 36 17 0 0
-0.0389 -0.0822 -0.2520 -0.893 -0.371 0.254 69 56 34 0 0
-0.0386 -0.0819 -0.2552 -0.949 -0.085 0.305 64 51 33 0 0
-0.0419 -0.0832 -0.2747 -0.942 -0.321 -0.096 47 38 26 0 0
-0.0418 -0.0830 -0.2763 -0.942 -0.321 -0.096 39 31 23 0 0
-0.0418 -0.0830 -0.2794 -0.989 -0.120 0.092 69 61 48 0 0
-0.0420 -0.0830 -0.2810 -0.960 0.034 0.279 85 77 59 0 0
-0.0424 -0.0832 -0.2824 -0.960 0.034 0.279 90 82 67 0 0
-0.0417 -0.0828 -0.2843 -0.979 -0.183 -0.091 50 42 32 0 0
-0.0860 -0.0944 -0.7147 0.009 -1.000 -0.026 28 25 22 0 0
-0.1388 -0.1230 -0.7114 -0.610 -0.273 0.744 141 124 91 0 0
-0.1411 -0.1242 -0.7134 -0.470 -0.497 0.729 196 180 143 0 0
-0.1254 -0.1138 -0.7804 -0.771 -0.566 0.294 83 69 42 0 0
-0.1282 -0.1151 -0.7886 -0.830 -0.400 0.387 104 89 62 0 0
-0.1291 -0.1155 -0.7900 -0.794 -0.335 0.508 128 111 78 0 0
-0.1495 -0.1260 -0.8113 -0.722 -0.604 0.337 125 110 73 0 0
-0.1501 -0.1263 -0.8129 -0.765 -0.585 0.270 127 112 75 0 0
-0.1507 -0.1265 -0.8145 -0.803 -0.513 0.302 115 100 64 0 0
-0.1702 -0.1362 -0.8447 -0.861 -0.466 0.201 141 126 85 0 0
-0.1705 -0.1363 -0.8467 -0.885 -0.464 0.036 145 130 90 0 0
-0.1704 -0.1362 -0.8490 -0.479 -0.877 0.017 140 125 82 0 0
-0.1717 -0.1369 -0.8497 -0.671 -0.688 0.276 148 135 90 0 0
-0.1716 -0.1368 -0.8521 -0.557 -0.779 0.288 152 138 95 0 0
-0.0018 -0.0631 -0.1583 -0.703 -0.544 0.459 177 177 173 0 0
-0.0023 -0.0633 -0.1597 -0.726 -0.601 0.334 174 173 160 0 0
-0.0205 -0.0725 -0.1832 -0.624 -0.730 0.278 132 112 75 0 0
-0.0218 -0.0732 -0.1844 -0.447 -0.628 0.638 142 125 91 0 0
-0.0395 -0.0808 -0.2520 -0.893 -0.371 0.254 73 61 39 0 0
-0.0892 -0.0942 -0.7127 0.046 -0.996 -0.078 26 25 21 0 0
-0.0884 -0.0937 -0.7155 -0.091 -0.962 -0.258 27 24 21 0 0
-0.1264 -0.1125 -0.7781 -0.750 -0.614 0.246 102 87 60 0 0
-0.1279 -0.1131 -0.7854 -0.902 -0.390 0.184 144 124 90 0 0
-0.1282 -0.1132 -0.7873 -0.902 -0.390 0.184 139 120 86 0 0
-0.1700 -0.1343 -0.8413 -0.513 -0.760 0.398 138 123 85 0 0
-0.1703 -0.1343 -0.8433 -0.695 -0.712 0.100 148 133 92 0 0
-0.0286 -0.0749 -0.1906 -0.749 -0.363 0.554 112 97 64 0 0
-0.0297 -0.0755 -0.1918 -0.690 -0.630 0.356 116 101 69 0 0
-0.0299 -0.0749 -0.2145 -0.689 -0.674 0.267 101 89 65 0 0
-0.0664 -0.0798 -0.7130 -0.450 -0.068 0.890 32 28 24 0 0
-0.0963 -0.0962 -0.7096 -0.413 -0.244 0.877 25 23 20 0 0
-0.1316 -0.1155 -0.7087 -0.149 -0.242 0.959 73 64 52 0 0
-0.1333 -0.1164 -0.7092 -0.227 -0.256 0.940 73 63 50 0 0
-0.1269 -0.1109 -0.7762 -0.700 -0.607 0.376 95 79 52 0 0
-0.1276 -0.1112 -0.7778 -0.744 -0.607 0.280 108 93 65 0 0
-0.1715 -0.1332 -0.8406 -0.579 -0.812 0.074 146 130 91 0 0
-0.0032 -0.0605 -0.1552 -0.671 -0.724 0.161 177 178 175 0 0
-0.0035 -0.0606 -0.1567 -0.577 -0.647 0.498 175 174 166 0 0
-0.0295 -0.0738 -0.1889 -0.425 -0.720 0.548 92 78 50 0 0
-0.0277 -0.0727 -0.1908 -0.841 -0.147 0.521 74 58 35 0 0
-0.0326 -0.0738 -0.2433 -0.841 -0.356 0.408 30 23 17 0 0
-0.0331 -0.0725 -0.2941 -0.957 -0.258 -0.136 8 7 5 0 0
-0.0337 -0.0727 -0.2972 -0.951 0.205 0.229 8 7 5 0 0
-0.0343 -0.0730 -0.2986 -0.891 0.077 0.448 12 9 7 0 0
-0.1208 -0.1108 -0.6046 -0.012 -0.982 0.186 76 67 50 0 0
-0.1214 -0.1111 -0.6061 -0.012 -0.982 0.186 78 69 50 0 0
-0.0678 -0.0786 -0.7125 -0.444 -0.014 0.896 32 28 25 0 0
-0.1343 -0.1150 -0.7091 -0.279 -0.212 0.937 75 66 55 0 0
-0.1576 -0.1272 -0.7252 -0.560 -0.806 0.191 127 109 72 0 0
-0.1465 -0.1190 -0.7971 -0.866 -0.286 0.411 163 147 99 0 0
-0.1553 -0.1233 -0.8101 -0.853 -0.441 0.280 100 88 61 0 0
-0.1752 -0.1335 -0.8331 -0.894 -0.369 0.256 116 104 71 0 0
-0.1756 -0.1337 -0.8348 -0.894 -0.369 0.256 114 100 68 0 0
-0.0351 -0.0727 -0.2664 -0.686 0.214 0.695 33 26 16 0 0
-0.0365 -0.0734 -0.2675 -0.686 0.214 0.695 43 35 24 0 0
-0.0378 -0.0741 -0.2687 -0.606 0.151 0.781 51 43 31 0 0
-0.0351 -0.0716 -0.3001 -0.535 -0.068 0.842 24 20 18 0 0
-0.1005 -0.1041 -0.4055 -0.493 -0.810 -0.319 190 191 195 0 0
-0.1224 -0.1100 -0.6001 -0.040 -0.993 0.109 78 69 53 0 0
-0.0667 -0.0760 -0.7118 -0.276 -0.846 0.457 18 14 12 0 0
-0.0936 -0.0909 -0.7069 -0.150 0.148 0.978 30 26 23 0 0
-0.0983 -0.0934 -0.7072 -0.150 0.148 0.978 29 25 22 0 0
-0.1536 -0.1235 -0.7132 -0.091 -0.430 0.898 161 140 103 0 0
-0.1850 -0.1361 -0.8587 -0.202 -0.747 0.633 87 80 68 0 0
-0.0138 -0.0625 -0.1639 -0.675 -0.709 0.203 175 164 130 0 0
-0.0321 -0.0714 -0.1991 -0.774 -0.530 0.348 43 29 19 0 0
-0.0332 -0.0715 -0.2156 -0.829 -0.349 0.437 77 63 41 0 0
-0.0347 -0.0722 -0.2198 -0.739 -0.672 0.044 62 48 27 0 0
-0.1277 -0.1136 -0.5209 -0.732 0.631 0.255 84 76 63 0 0
-0.0975 -0.0911 -0.7064 0.346 -0.815 0.465 29 25 23 0 0
-0.0987 -0.0917 -0.7074 0.360 -0.746 0.561 27 23 21 0 0
-0.1548 -0.1223 -0.7128 -0.069 -0.561 0.825 152 134 96 0 0
-0.1567 -0.1203 -0.8081 -0.639 -0.619 0.456 183 163 123 0 0
-0.1827 -0.1336 -0.8399 -0.503 -0.356 0.788 150 134 92 0 0
-0.1830 -0.1337 -0.8418 -0.847 -0.441 0.296 153 136 95 0 0
-0.1827 -0.1334 -0.8443 -0.830 -0.519 0.206 154 137 97 0 0
-0.1846 -0.1343 -0.8489 -0.893 -0.344 0.291 122 109 76 0 0
-0.1846 -0.1343 -0.8510 -0.739 -0.618 0.267 111 101 69 0 0
-0.0173 -0.0626 -0.1678 -0.584 -0.704 0.405 103 94 76 0 0
-0.0189 -0.0634 -0.1705 -0.474 -0.552 0.686 118 109 89 0 0
-0.0359 -0.0711 -0.2212 -0.700 -0.694 0.170 56 43 26 0 0
-0.0333 -0.0689 -0.2451 -0.895 -0.062 0.442 44 34 22 0 0
-0.0233 -0.0609 -0.3195 -0.820 -0.562 -0.111 14 13 11 0 0
-0.1139 -0.1086 -0.3864 -0.972 0.149 -0.185 178 179 179 0 0
-0.1063 -0.1024 -0.4492 -0.918 0.213 0.335 201 200 203 0 0
-0.1073 -0.1029 -0.4504 -0.875 0.210 0.437 204 204 209 0 0
-0.1078 -0.1031 -0.4519 -0.865 -0.151 0.479 203 204 210 0 0
-0.0782 -0.0783 -0.7103 -0.511 0.218 0.831 27 22 21 0 0
-0.1543 -0.1202 -0.7118 -0.456 -0.359 0.815 128 112 78 0 0
-0.1837 -0.1321 -0.8441 -0.798 -0.384 0.464 146 128 88 0 0
-0.1843 -0.1322 -0.8501 -0.824 -0.374 0.426 138 123 85 0 0
-0.1857 -0.1329 -0.8508 -0.739 -0.618 0.267 122 109 73 0 0
-0.0139 -0.0592 -0.1596 -0.471 -0.665 0.579 136 115 77 0 0
-0.0156 -0.0601 -0.1622 -0.633 -0.608 0.479 143 125 85 0 0
-0.0306 -0.0678 -0.1786 -0.793 -0.004 0.609 114 98 71 0 0
-0.0336 -0.0682 -0.2173 -0.877 -0.431 0.212 56 42 25 0 0
-0.0341 -0.0684 -0.2187 -0.880 -0.422 0.217 48 35 20 0 0
-0.0354 -0.0690 -0.2214 -0.986 -0.092 0.137 47 34 19 0 0
-0.0357 -0.0692 -0.2229 -0.894 -0.117 0.433 51 38 24 0 0
-0.0355 -0.0690 -0.2245 -0.944 -0.215 0.252 44 32 20 0 0
-0.0334 -0.0672 -0.2452 -0.810 -0.540 0.229 58 43 29 0 0
-0.0222 -0.0584 -0.3202 -0.911 -0.403 0.087 14 13 11 0 0
-0.0147 -0.0540 -0.3296 -0.478 -0.689 -0.545 59 58 56 0 0
-0.0136 -0.0533 -0.3317 -0.718 -0.613 -0.329 104 103 104 0 0
-0.0139 -0.0535 -0.3333 -0.973 -0.213 0.087 175 176 178 0 0
-0.0141 -0.0535 -0.3349 -0.973 -0.213 0.087 178 179 181 0 0
-0.0153 -0.0541 -0.3362 -0.948 0.201 0.245 178 179 181 0 0
-0.1127 -0.1064 -0.3824 -0.871 -0.041 0.489 100 92 79 0 0
-0.1134 -0.1067 -0.3837 -0.957 -0.033 0.288 88 80 67 0 0
-0.1434 -0.1179 -0.5458 -0.093 -0.993 -0.079 106 97 80 0 0
-0.1429 -0.1175 -0.5480 -0.304 -0.952 -0.045 107 101 83 0 0
-0.1428 -0.1174 -0.5498 -0.304 -0.952 -0.045 103 97 81 0 0
-0.1427 -0.1173 -0.5518 -0.256 -0.966 -0.041 96 91 78 0 0
-0.1427 -0.1172 -0.5536 -0.475 -0.878 -0.063 94 90 80 0 0
-0.0839 -0.0801 -0.6936 -0.088 -0.959 -0.270 9 7 6 0 0
-0.0758 -0.0753 -0.7022 -0.036 -0.996 -0.083 8 7 5 0 0
-0.0763 -0.0755 -0.7039 -0.191 -0.979 -0.074 8 7 5 0 0
-0.0798 -0.0773 -0.7075 -0.125 -0.971 0.206 13 10 9 0 0
-0.0807 -0.0778 -0.7089 -0.290 -0.798 0.528 22 18 17 0 0
-0.1356 -0.1082 -0.7065 -0.121 -0.406 0.906 55 51 44 0 0
-0.1586 -0.1207 -0.7128 -0.251 -0.492 0.834 129 110 76 0 0
-0.1404 -0.1083 -0.7844 -0.533 -0.752 0.388 129 113 81 0 0
-0.0158 -0.0585 -0.1608 -0.619 -0.734 0.280 172 151 110 0 0
-0.0166 -0.0589 -0.1621 -0.715 -0.553 0.427 177 154 113 0 0
-0.0184 -0.0598 -0.1662 -0.904 -0.399 0.154 135 118 88 0 0
-0.0285 -0.0651 -0.1762 -0.654 -0.430 0.623 143 127 105 0 0
-0.0327 -0.0671 -0.1843 -0.759 -0.428 0.490 78 61 28 0 0
-0.0359 -0.0680 -0.2092 -0.736 -0.665 0.126 59 43 28 0 0
-0.0358 -0.0678 -0.2123 -0.897 -0.430 0.102 65 50 28 0 0
-0.0347 -0.0670 -0.2187 -0.867 -0.458 0.196 36 23 12 0 0
-0.0340 -0.0661 -0.2359 -0.767 -0.641 0.039 73 56 37 0 0
-0.0339 -0.0659 -0.2374 -0.788 -0.615 0.025 85 68 49 0 0
-0.0191 -0.0549 -0.3215 -0.982 -0.175 0.067 12 10 8 0 0
-0.0167 -0.0533 -0.3291 -0.530 -0.674 -0.514 50 48 48 0 0
-0.0143 -0.0518 -0.3334 -0.667 -0.631 -0.396 150 150 152 0 0
-0.0144 -0.0518 -0.3350 -0.973 -0.213 0.087 178 179 181 0 0
-0.0149 -0.0520 -0.3366 -0.948 0.201 0.245 179 180 182 0 0
-0.0157 -0.0524 -0.3380 -0.883 0.415 0.220 178 179 182 0 0
-0.1127 -0.1046 -0.3827 -0.776 -0.079 0.626 91 76 45 0 0
-0.1113 -0.1033 -0.3982 -0.155 -0.943 -0.293 97 89 74 0 0
-0.1108 -0.1010 -0.4579 -0.851 0.239 0.468 153 151 149 0 0
-0.1114 -0.1013 -0.4593 -0.845 0.425 0.326 180 180 181 0 0
-0.1115 -0.1013 -0.4610 -0.920 0.326 0.219 197 198 201 0 0
-0.1124 -0.1017 -0.4622 -0.921 -0.010 0.390 203 204 208 0 0
-0.1118 -0.1013 -0.4643 -0.378 -0.925 0.040 203 204 208 0 0
-0.1445 -0.1165 -0.5510 -0.330 -0.944 0.004 106 96 79 0 0
-0.1443 -0.1163 -0.5529 -0.475 -0.878 -0.063 104 94 78 0 0
-0.1425 -0.1152 -0.5560 -0.817 -0.288 -0.499 94 85 69 0 0
-0.1424 -0.1151 -0.5579 -0.417 -0.688 -0.594 96 87 70 0 0
-0.0886 -0.0808 -0.6904 -0.030 -0.925 -0.380 10 8 6 0 0
-0.1187 -0.0970 -0.7051 0.037 -0.243 0.969 31 26 23 0 0
-0.1369 -0.1070 -0.7061 -0.216 -0.316 0.924 55 50 44 0 0
-0.1416 -0.1072 -0.7776 -0.781 -0.387 0.490 112 101 71 0 0
-0.1423 -0.1075 -0.7790 -0.781 -0.387 0.490 110 100 69 0 0
-0.0188 -0.0584 -0.1633 -0.767 -0.581 0.273 156 141 105 0 0
-0.0188 -0.0583 -0.1647 -0.878 -0.429 0.212 180 168 125 0 0
-0.0361 -0.0669 -0.1956 -0.818 -0.434 0.378 59 47 29 0 0
-0.0279 -0.0588 -0.2954 -0.888 0.408 0.211 16 11 9 0 0
-0.0214 -0.0546 -0.3142 -0.581 -0.530 0.618 7 6 4 0 0
-0.0222 -0.0549 -0.3156 -0.698 -0.640 0.320 13 10 9 0 0
-0.0145 -0.0500 -0.3336 -0.633 -0.685 -0.359 92 92 90 0 0
-0.0144 -0.0499 -0.3353 -0.859 -0.474 -0.195 123 123 122 0 0
-0.0141 -0.0497 -0.3371 -0.859 -0.474 -0.195 122 123 123 0 0
-0.0147 -0.0500 -0.3386 -0.883 0.415 0.220 159 161 160 0 0
-0.0151 -0.0502 -0.3402 -0.916 0.342 0.211 177 179 180 0 0
-0.1115 -0.1023 -0.3819 -0.692 -0.312 0.651 133 112 78 0 0
-0.1133 -0.1005 -0.4621 -0.261 -0.964 -0.050 131 129 128 0 0
-0.1136 -0.1006 -0.4637 -0.281 -0.951 -0.128 156 156 157 0 0
-0.1133 -0.1004 -0.4656 -0.336 -0.925 -0.178 178 178 177 0 0
-0.1130 -0.1001 -0.4675 -0.983 0.184 0.002 200 199 201 0 0
-0.1130 -0.1001 -0.4693 -0.969 0.246 -0.023 205 206 210 0 0
-0.1179 -0.1021 -0.4894 -0.929 0.360 -0.088 183 183 183 0 0
-0.1111 -0.0921 -0.6689 -0.470 -0.712 -0.521 22 19 15 0 0
-0.1090 -0.0907 -0.6726 -0.470 -0.712 -0.521 17 13 11 0 0
-0.0877 -0.0780 -0.6981 0.086 -0.993 0.085 8 7 5 0 0
-0.0869 -0.0774 -0.7051 -0.125 -0.954 0.273 12 10 8 0 0
-0.0981 -0.0836 -0.7064 0.164 -0.382 0.910 26 22 19 0 0
-0.1008 -0.0850 -0.7062 0.123 -0.436 0.892 26 22 19 0 0
-0.1041 -0.0869 -0.7056 -0.329 0.097 0.939 27 23 20 0 0
-0.1156 -0.0933 -0.7063 -0.288 -0.193 0.938 28 24 20 0 0
-0.1178 -0.0945 -0.7065 -0.182 0.115 0.977 30 25 22 0 0
-0.1374 -0.1054 -0.7062 -0.268 -0.351 0.897 51 46 40 0 0
-0.1390 -0.1063 -0.7069 -0.262 -0.288 0.921 53 49 41 0 0
-0.1869 -0.1283 -0.8387 -0.690 -0.652 0.315 134 116 80 0 0
-0.1870 -0.1283 -0.8408 -0.722 -0.675 0.151 126 108 72 0 0
-0.0288 -0.0617 -0.1763 -0.603 -0.362 0.711 138 125 96 0 0
-0.0366 -0.0651 -0.2047 -0.926 -0.296 0.233 61 45 27 0 0
-0.0373 -0.0654 -0.2076 -0.917 -0.310 0.252 56 40 24 0 0
-0.0361 -0.0637 -0.2356 -0.942 -0.319 0.106 76 58 37 0 0
-0.0335 -0.0617 -0.2520 -0.806 -0.513 -0.294 50 41 28 0 0
-0.0266 -0.0562 -0.2960 -0.920 0.337 0.198 44 37 32 0 0
-0.0270 -0.0564 -0.2976 -0.918 0.317 0.238 39 31 25 0 0
-0.0274 -0.0566 -0.2991 -0.893 0.323 0.312 22 18 16 0 0
-0.0290 -0.0573 -0.3035 -0.927 0.275 0.253 12 11 9 0 0
-0.0233 -0.0538 -0.3121 -0.350 -0.936 -0.044 5 4 2 0 0
-0.0232 -0.0537 -0.3138 -0.523 -0.846 0.106 5 4 2 0 0
-0.1114 -0.0993 -0.4138 -0.400 -0.896 -0.192 73 62 39 0 0
-0.1138 -0.0987 -0.4710 -0.486 -0.831 -0.271 147 145 144 0 0
-0.1125 -0.0979 -0.4734 -0.960 0.279 -0.008 158 159 159 0 0
-0.1128 -0.0980 -0.4750 -0.994 0.086 0.073 174 175 176 0 0
-0.1128 -0.0979 -0.4768 -0.935 -0.320 0.156 176 178 180 0 0
-0.1165 -0.0996 -0.4870 -0.960 0.177 0.216 144 142 138 0 0
-0.1167 -0.0997 -0.4887 -0.455 -0.798 0.396 120 117 109 0 0
-0.1550 -0.1192 -0.5393 -0.505 -0.858 0.092 108 96 72 0 0
-0.0919 -0.0784 -0.6974 -0.390 -0.880 -0.272 8 7 5 0 0
-0.0909 -0.0777 -0.7004 -0.209 -0.974 -0.084 9 8 6 0 0
-0.0904 -0.0774 -0.7029 -0.377 -0.922 0.089 12 9 8 0 0
-0.1024 -0.0840 -0.7055 -0.011 -0.274 0.962 27 23 20 0 0
-0.1047 -0.0853 -0.7058 -0.584 -0.361 0.727 27 23 20 0 0
-0.1147 -0.0908 -0.7057 -0.505 -0.513 0.694 27 23 18 0 0
-0.1158 -0.0914 -0.7068 -0.478 -0.522 0.707 27 23 20 0 0
-0.1400 -0.1049 -0.7068 -0.262 -0.288 0.921 53 48 42 0 0
-0.1713 -0.1219 -0.7176 -0.713 -0.652 0.256 117 98 69 0 0
-0.1510 -0.1081 -0.7894 -0.516 -0.685 0.514 141 125 88 0 0
-0.1750 -0.1208 -0.8085 -0.523 -0.669 0.527 98 88 57 0 0
-0.1759 -0.1212 -0.8119 -0.886 -0.385 0.257 96 84 56 0 0
-0.1764 -0.1214 -0.8136 -0.838 -0.204 0.505 88 74 47 0 0
-0.1786 -0.1223 -0.8244 -0.539 -0.672 0.507 92 77 51 0 0
-0.1885 -0.1272 -0.8400 -0.690 -0.652 0.315 122 106 71 0 0
-0.0374 -0.0637 -0.2062 -0.954 -0.152 0.257 67 50 32 0 0
-0.0374 -0.0636 -0.2107 -0.966 -0.039 0.256 64 49 29 0 0
-0.0360 -0.0618 -0.2373 -0.856 -0.514 -0.061 88 67 46 0 0
-0.0176 -0.0476 -0.3466 -0.844 0.138 0.518 176 177 181 0 0
-0.0157 -0.0462 -0.3559 0.240 -0.839 0.488 179 180 184 0 0
-0.0176 -0.0472 -0.3569 0.294 -0.800 0.522 169 170 172 0 0
-0.0187 -0.0466 -0.3916 0.134 -0.939 -0.318 182 182 185 0 0
-0.1241 -0.1057 -0.3863 -0.466 -0.853 0.237 93 82 62 0 0
-0.1153 -0.0991 -0.4341 -0.410 -0.870 0.272 91 79 57 0 0
-0.1132 -0.0963 -0.4787 -0.920 -0.338 0.197 84 81 77 0 0
-0.1158 -0.0976 -0.4825 -0.734 -0.560 0.385 119 115 109 0 0
-0.1161 -0.0977 -0.4841 -0.344 -0.829 0.440 110 103 97 0 0
-0.1169 -0.0981 -0.4854 -0.344 -0.829 0.440 101 94 83 0 0
-0.1173 -0.0982 -0.4870 -0.411 -0.772 0.485 104 97 83 0 0
-0.1183 -0.0987 -0.4882 -0.383 -0.837 0.390 108 100 84 0 0
-0.0927 -0.0768 -0.7016 -0.215 -0.976 0.030 12 9 8 0 0
-0.1073 -0.0847 -0.7064 -0.531 0.530 0.661 25 21 18 0 0
-0.1166 -0.0900 -0.7047 -0.641 -0.321 0.697 29 24 20 0 0
-0.1175 -0.0904 -0.7061 -0.494 -0.515 0.701 29 24 21 0 0
-0.1424 -0.1043 -0.7074 -0.483 -0.092 0.870 53 47 42 0 0
-0.1437 -0.1050 -0.7083 -0.521 -0.086 0.849 56 51 45 0 0
-0.1493 -0.1054 -0.7832 -0.775 -0.341 0.532 81 72 46 0 0
-0.1523 -0.1069 -0.7890 -0.516 -0.685 0.514 170 148 108 0 0
