ply
format ascii 1.0
element vertex 660
property float x
property float y
property float z
property uchar diffuse_red
property uchar diffuse_green
property uchar diffuse_blue
end_header
-0.0705223167357587 -0.12789711187840733 -0.7575192540036753 91 80 53
-0.07227874275080118 -0.12544626035145923 -0.7619012774063051 75 65 42
-0.07493723790130158 -0.12159363613660792 -0.7675471390925794 65 55 33
-0.07655428453692377 -0.11936416895567634 -0.7717669601787499 64 57 36
-0.07734702808565762 -0.11841856003370121 -0.7748521073378238 51 42 26
-0.07717640966867145 -0.11897173731450184 -0.7765997319332132 52 41 29
-0.07798187758736264 -0.11800798884318633 -0.7797139730191438 52 39 26
-0.07673985798546698 -0.12022641205480616 -0.7799628576546347 53 40 27
-0.07544045896983717 -0.12253293146457342 -0.7801239803589755 67 55 38
-0.07472537829165717 -0.12393113903408223 -0.7811016285322265 73 62 42
-0.07392648089611062 -0.12545895706344878 -0.7819574541190893 69 57 35
-0.07345985749073715 -0.1264706495518802 -0.7832802756754736 74 62 39
-0.0732126339573047 -0.12714180676348846 -0.7849132567889978 82 70 46
-0.07290924502484566 -0.1279000505178979 -0.7864662246846535 88 76 52
-0.07300911423045414 -0.12803316388615074 -0.7885946146413227 79 67 43
-0.07227966521732856 -0.12945169122512917 -0.7895382831870802 78 65 39
-0.07198415784752037 -0.13019753516216612 -0.7911012434657803 85 71 44
-0.07148159743147796 -0.13126394876023528 -0.7923659681826289 95 80 54
-0.07163693905523448 -0.13131167613930161 -0.7945777021369459 86 70 44
-0.07153131720893552 -0.1317636502881815 -0.7964149997200831 72 57 31
-0.07109346221976628 -0.132729715452841 -0.79777176404606 66 51 26
-0.07115939212903398 -0.13291651605067537 -0.7998591362940822 64 49 25
-0.07048901918272321 -0.13424189365711484 -0.8008762734742063 63 49 26
-0.07007342645586369 -0.13517309612793907 -0.8022623784493619 64 52 28
-0.06965808961243998 -0.13610372602604737 -0.8036476353373843 65 51 28
-0.06933373802099656 -0.13689366648294377 -0.805165176079822 65 50 27
-0.06848258453363625 -0.13849681097348504 -0.8059072541857224 66 51 28
-0.06859617398413007 -0.13861043839859136 -0.8080675206742765 68 53 31
-0.0658583912870537 -0.14312346175811017 -0.8060156230809845 64 49 28
-0.0662137229612242 -0.1428635205652994 -0.8085289775782385 70 55 34
-0.0656441639208875 -0.1440301355883993 -0.809672857958469 70 55 34
-0.06552691576971749 -0.14449930714109357 -0.8114878707794166 62 47 26
-0.06579407833323497 -0.1443763589969132 -0.8138775753101698 65 50 29
-0.06592703715839361 -0.144460642170833 -0.8160701853344012 59 45 23
-0.06739441061497291 -0.14249082181181574 -0.8202669554516255 58 43 22
-0.06703719234386732 -0.14333103289704963 -0.8217329126963853 72 57 34
-0.06684073624208814 -0.14392378172994866 -0.8234403442487556 74 58 34
-0.06655414631962836 -0.14465521214480945 -0.8250119618802882 73 57 30
-0.06568802573296062 -0.1462776387504131 -0.825705647255872 87 71 42
-0.06558372378946448 -0.14672850108476843 -0.8275512721874791 107 91 60
-0.06552527527156467 -0.14710906010093372 -0.8294676970602515 104 88 57
-0.06364427256463413 -0.1502891398471173 -0.8286055082140232 99 84 51
-0.0633899050687009 -0.1509699442071404 -0.8302184503600054 100 85 52
-0.06328008948708733 -0.15142886898918623 -0.8320528640692909 97 82 50
-0.06277556580203283 -0.15249355486252597 -0.8332818800478775 99 84 50
-0.06261422509897262 -0.1530315859441289 -0.8350374746530329 109 95 60
-0.06315337767033964 -0.15249565119688624 -0.8378749645060517 100 85 53
-0.06340341614627414 -0.15240368968489662 -0.8402708633359549 84 70 42
-0.06326788540976262 -0.15290303123080706 -0.8420723984209113 85 72 45
-0.06367564208993831 -0.1525703437781625 -0.844719343323054 86 74 44
-0.06370396885371558 -0.15281931763032586 -0.846779825309676 106 90 57
-0.06357105468060649 -0.1533153820613244 -0.8485904674347235 109 94 63
-0.06312430859732707 -0.15429175624060476 -0.8499105846098303 112 99 66
-0.06267789884672689 -0.15526740086185023 -0.851229745903722 109 98 65
-0.06228396290083721 -0.15616259718689546 -0.8526299673281514 104 94 64
-0.061813937218282336 -0.1571739359939965 -0.8539091180006468 97 86 59
-0.061320378865888245 -0.15822099047077887 -0.8551494152644644 99 88 61
-0.0612431165095563 -0.1586319249987452 -0.857047341732824 102 90 66
-0.06163529411594791 -0.15832626595767474 -0.8596919044317022 98 91 73
-0.06194173637206081 -0.15815215271685878 -0.8622047412402455 77 73 59
-0.06279347340741728 -0.15714662547574632 -0.8655915563877901 75 72 58
-0.0625287257917532 -0.1578452051445338 -0.8672013019018077 97 93 84
-0.062458900272508305 -0.1582465637502123 -0.8691233078789381 130 126 121
-0.060555310509534235 -0.16144309525786535 -0.8681008603731838 159 157 153
-0.05952264147973503 -0.16331086935869965 -0.8684683630806879 177 175 176
-0.05834786825843709 -0.16539423122369337 -0.8686006624632887 186 184 185
-0.057872116305351176 -0.16641228806668096 -0.8698567525317656 192 192 192
-0.055046021304850215 -0.17100735245912038 -0.8673004605210606 196 196 195
-0.08997291844485433 -0.023700168380012182 -0.2520676453543474 134 118 96
-0.038421539081957765 -0.11377106355726857 -0.25045445413691925 179 165 138
-0.04008236029971853 -0.11119400120243375 -0.2527338800140568 140 127 100
-0.040557467851430246 -0.1106092706825262 -0.25443188486553525 132 120 95
-0.040575871910455086 -0.11079171363351517 -0.25590445692012376 139 126 102
-0.038944285361601494 -0.11374333829814456 -0.25654554669514845 164 149 121
-0.03812232785284998 -0.11533541835230608 -0.25758953776202803 170 155 126
-0.03647721392011859 -0.118307739370082 -0.2582100462753721 151 134 106
-0.03651669652873871 -0.11845386734782991 -0.2596868008849847 162 144 114
-0.03534107404388573 -0.12063739276930283 -0.2605380884054713 166 147 115
-0.03252223441605475 -0.12557441007020162 -0.2605316616835443 176 156 122
-0.03172353973494694 -0.1271240407363906 -0.2615640035955396 160 141 107
-0.030814010838509546 -0.1288588681114915 -0.2625348918911301 159 140 107
-0.030785717784618867 -0.12911710955151728 -0.26396628045230863 153 133 101
-0.02930578937642239 -0.13180628324427712 -0.2646294500990706 142 122 88
-0.028083016004261777 -0.13406390367200577 -0.26542241692023066 150 130 94
-0.026856629965666186 -0.1363267325752166 -0.2662077007817769 162 142 105
-0.025725383406681585 -0.13842952367474778 -0.2670384242865552 156 139 105
-0.02425573056412111 -0.14109766236937832 -0.2676807787966345 120 106 82
-0.024120035815307608 -0.1415337562408407 -0.26904158198032424 82 72 48
-0.02370601721290526 -0.14243527532027694 -0.2702505633093599 78 70 42
-0.026397203967029242 -0.13814581938356357 -0.2731649422744609 84 71 44
-0.02665041321857334 -0.13793317112469583 -0.2747488620833664 91 77 49
-0.02595848445457232 -0.13930005212150612 -0.27581055831129325 91 77 48
-0.025244951849215096 -0.14070261473902523 -0.27685741577543155 90 76 48
-0.02420791374593157 -0.1434871179606718 -0.2834962058967945 104 90 61
-0.02563080522260068 -0.14132478392228934 -0.2857614365255296 105 91 62
-0.026422289164747006 -0.14021667483906755 -0.2876709794409924 101 87 55
-0.0265409274237302 -0.14023108713248925 -0.28919538343108214 105 92 58
-0.027030746848592812 -0.13962712516828008 -0.29093825049914646 104 90 56
-0.02650727183235612 -0.14071215330155323 -0.29209075761031716 102 89 54
-0.02585617512720012 -0.14200951161169437 -0.2931662110153445 93 80 46
-0.025495094533290578 -0.14282349351909218 -0.2944108466997 94 81 47
-0.02563288072549235 -0.14280672199525807 -0.2959514312773786 98 85 51
-0.025465894776108798 -0.14329755587916268 -0.2973117205316147 105 92 59
-0.025105805452663246 -0.14410977694478413 -0.2985561890858445 102 87 55
-0.025195742186483346 -0.14417312930794923 -0.30007141289528994 91 76 43
-0.025924081797467222 -0.143174842066919 -0.3019755204823882 97 81 48
-0.026010533118969472 -0.14324474475884835 -0.30349379457760306 91 76 43
-0.026616260926634248 -0.14245158857837834 -0.3053316658678158 93 78 45
-0.02566139027172909 -0.14425295924057918 -0.3062141722835985 101 88 54
-0.026416050547623048 -0.14321302685110682 -0.30814888990968253 103 90 56
-0.02657476761817163 -0.1431639066077637 -0.30971908835761425 103 90 56
-0.02619967490230558 -0.14400165543613508 -0.3109583801562604 108 95 61
-0.0260734492438291 -0.1444260384058772 -0.3123526344358193 111 98 64
-0.026740784130746823 -0.14353318599164236 -0.3142469241566036 105 90 57
-0.026539475442175414 -0.14408263632901291 -0.3155968624749681 105 91 57
-0.02664981165996951 -0.14411502419492314 -0.3171448097653673 106 91 58
-0.02701423127338074 -0.1437262224765427 -0.31885673327855313 109 95 62
-0.02666227750150914 -0.14452586111755855 -0.3201126512210562 105 90 59
-0.026621775939173385 -0.14480902444550411 -0.32156829020396194 104 89 56
-0.02666979431343658 -0.1449456073725798 -0.3230821373898187 102 87 54
-0.026655701150517137 -0.14518532343970564 -0.32455707939413075 100 85 54
-0.02668997067662865 -0.1453450815694291 -0.3260646873940094 107 93 62
-0.02677600468445556 -0.14541930945235362 -0.3276076148651688 113 99 68
-0.02701362048135684 -0.14524279975545196 -0.32925205042822636 115 101 69
-0.027671863865435513 -0.14437038491922666 -0.3311772849859765 120 105 74
-0.02813321871800046 -0.1438245351170639 -0.33297673319561 107 93 60
-0.0285393046963687 -0.143370692505065 -0.334743180783572 115 100 67
-0.028523199873527832 -0.14361569784396394 -0.3362302315725061 114 99 67
-0.028315305511208155 -0.14417801313307582 -0.3375892816215956 113 98 67
-0.028152790275417665 -0.14466530437806815 -0.3389789905169456 113 97 65
-0.02811339869660827 -0.14494913498107692 -0.34045254399269803 113 98 64
-0.028908462139971725 -0.14385429153724788 -0.34249609082757154 124 108 74
-0.02805477896869059 -0.14548391063131436 -0.34341636090599836 126 110 76
-0.027745086687744787 -0.14621457450337907 -0.34470697027350095 117 101 67
-0.026453777730545455 -0.14856586748620593 -0.3453189482028093 128 111 71
-0.02686811387792281 -0.1481008187069891 -0.3471076625713208 142 128 86
-0.027726172663127234 -0.14690406265336628 -0.3492091062798919 136 124 84
-0.028164639440485466 -0.14640045484377845 -0.35102328404624195 115 100 63
-0.028088870149927773 -0.14674555777312454 -0.3524800116609609 125 109 75
-0.02918272086060573 -0.14516215441185354 -0.3547625788573153 119 103 67
-0.029269869549627923 -0.1452394129202443 -0.35633968819410416 131 116 77
-0.028630801919038724 -0.14651377605174204 -0.3574019509915895 135 118 79
-0.028684381857589113 -0.146646535225189 -0.3589563971244949 135 118 80
-0.02880904383161777 -0.14666243118274067 -0.36056335838320364 132 117 77
-0.028990345217126883 -0.14658533990231762 -0.3622130660655642 132 117 78
-0.029529126097229765 -0.14592004954537904 -0.3641235794548722 108 93 62
-0.029597164929440107 -0.14603020157584368 -0.3656966931022886 108 94 68
-0.029958858105595395 -0.14565738935263023 -0.3674855327323246 108 94 74
-0.03021610210714172 -0.14545689235171888 -0.3692012828107101 77 66 51
-0.03022173891621181 -0.1456705932072283 -0.37073485213309476 35 28 17
-0.030066412245181272 -0.14614913085463943 -0.37215089458313366 37 29 21
-0.029840736431463052 -0.1467433492644913 -0.3735151174744725 47 39 29
-0.029604472939612957 -0.14735495025684078 -0.3748713521798033 55 45 31
-0.04246447477519353 -0.14271078885710364 -0.497540192197956 12 11 8
-0.041047668162159275 -0.14523655132141217 -0.49784094078192553 48 45 34
-0.03993554489892916 -0.14727033249932603 -0.4984280882892025 89 83 66
-0.03987207346035091 -0.14761428181857789 -0.5000246727396063 116 106 82
-0.039849285153102425 -0.14789286571515894 -0.5016617407836073 128 115 86
-0.039854486481233665 -0.14812657372363652 -0.5033273124452716 142 126 94
-0.03931036276287652 -0.14924449546518548 -0.5044573338429871 143 126 94
-0.03910387470899753 -0.14981892714787193 -0.5059163919185191 128 110 77
-0.03885102247457338 -0.1504679382417361 -0.5073299049645598 112 96 67
-0.03858669981607612 -0.15113535958549934 -0.5087318719128705 112 97 70
-0.038709041322237764 -0.15118120949333147 -0.5105164137441237 123 109 77
-0.038458704319126624 -0.15182624910295178 -0.5119329079684642 121 104 68
-0.03826705444497294 -0.15237697848415993 -0.5134076790038213 136 119 85
-0.03828533946509056 -0.1525905728165915 -0.5150924973248125 139 123 88
-0.038439123636781564 -0.1525868355099626 -0.5169147176535663 134 118 81
-0.038599481047081136 -0.15257289336707744 -0.5187459233585218 146 130 90
-0.03865565499011405 -0.1527264785925769 -0.5204743909058257 154 139 98
-0.038683701228687646 -0.1529254406673276 -0.5221761320529388 145 130 89
-0.0387117657031732 -0.15312460321375018 -0.5238794674160467 151 135 94
-0.038739848133791735 -0.15332396699355924 -0.5255843988581809 162 143 105
-0.03886460749807894 -0.15336861172143063 -0.527389726748021 160 142 102
-0.03879455869042494 -0.1537257160324781 -0.5289975121886162 170 154 112
-0.03936885646987532 -0.1530508331329946 -0.5312689950682719 151 136 95
-0.039604301169860794 -0.15291931562575256 -0.5331959578046119 165 150 109
-0.03960907562702866 -0.15315749990550526 -0.5348871043075268 164 149 108
-0.03977314357512039 -0.1531409592067428 -0.5367450712026186 135 119 82
-0.039937447759022214 -0.1531244006421936 -0.5386057541374327 162 143 102
-0.04010421455613331 -0.1531042639692738 -0.5404714842791026 165 147 102
-0.04021628421559634 -0.15317195164023856 -0.5422823923382708 161 143 98
-0.04042520635673661 -0.15308513014956965 -0.5441972459131834 152 133 91
-0.040359404253501964 -0.15343773844972688 -0.5458252198594273 148 132 91
-0.04039357897353248 -0.15363077053568136 -0.5475599246792089 144 125 86
-0.04033064311764246 -0.15397913951994466 -0.5491932604409491 133 111 73
-0.040376761057036574 -0.1541535371532087 -0.5509436545467404 136 116 79
-0.0404229328817549 -0.154328100730537 -0.5526958343932236 137 118 79
-0.04050228601199151 -0.15444996932441307 -0.5544852669505866 147 130 88
-0.04043262442743694 -0.15480983372805784 -0.5561166375254532 137 122 80
-0.040442619504484106 -0.15504280888519179 -0.5578347835610757 132 114 72
-0.04059712336842644 -0.15504561625461183 -0.5597105435289269 150 131 86
-0.04061680719388264 -0.15526365621798874 -0.5614426636686491 148 130 87
-0.040636509954698086 -0.1554818947487513 -0.5631763733667894 137 122 84
-0.040608740631451194 -0.15577597818274808 -0.5648599059625283 149 132 92
-0.040745074832959284 -0.15580893175005933 -0.5667241228082376 172 151 108
-0.041261487770316956 -0.15523718008645748 -0.5690074750016724 169 149 105
-0.04190619290301558 -0.15446196538340926 -0.5714367599841911 155 136 95
-0.04202102375408671 -0.15453057709903356 -0.5732871845510397 98 83 51
-0.04283179408969191 -0.1534926435459402 -0.5759098258058671 69 57 37
-0.043458393086205346 -0.15274852762689356 -0.5783348650640154 53 44 29
-0.044914236748164395 -0.15068713331352224 -0.5816884216540162 43 33 20
-0.04532032535916562 -0.1502954383561556 -0.5838811901942599 51 41 27
-0.04497188796375104 -0.15110294932722457 -0.5852333592361388 50 42 23
-0.04505567594004228 -0.15122393666374717 -0.5870700356644989 61 51 30
-0.0432182393972054 -0.15439533652359097 -0.586745155641715 71 59 37
-0.043216574493901705 -0.15465161510882547 -0.5884830416600961 86 72 47
-0.04321499709602445 -0.1549079681054299 -0.5902224895449629 94 78 52
-0.04275609148025068 -0.1558899246623659 -0.5914438575673848 122 105 76
-0.04306585632041226 -0.15565280014050958 -0.5935394538256344 136 117 83
-0.04310220592691581 -0.15584960312118423 -0.5953261575622532 150 131 93
-0.0434257452254607 -0.15559154728140612 -0.597443692211832 171 153 111
-0.043422366085083125 -0.15585193020730492 -0.5991891330225415 177 161 116
-0.04215609118627221 -0.15811261823138917 -0.5994804312951713 183 169 123
-0.042657204638984016 -0.15757407875917212 -0.6018077587080577 186 170 126
-0.04260903844470541 -0.15790562269675837 -0.603503157266693 183 166 123
-0.04269299105530634 -0.15802828782681777 -0.6053533204117003 178 162 119
-0.04268130491736307 -0.1583025328390889 -0.6070940293379279 184 168 125
-0.04308289053848853 -0.15792347271501025 -0.609319356484307 183 169 124
-0.04336383807346276 -0.1577357285407885 -0.6114074013579277 188 171 126
-0.04311432066334697 -0.15838679072083137 -0.6128750543405976 184 166 121
-0.04330811923027624 -0.15833745477526384 -0.614865309066672 186 169 123
-0.04308148282897003 -0.15895254720162555 -0.6163611707427874 180 163 117
-0.04334079376239914 -0.15880038624963638 -0.618433308264852 176 159 112
-0.04352946507688249 -0.1587601947385337 -0.6204246788311405 176 159 110
-0.04352423719156131 -0.1590263613406832 -0.6221875772649084 180 162 114
-0.04371168429995234 -0.15898881497223571 -0.6241823817132554 170 152 104
-0.04391820971909063 -0.1589215874678272 -0.6262028375120184 170 152 104
-0.04401355906711959 -0.1590300448843251 -0.6280924877947135 176 158 110
-0.04485990109322233 -0.1579552941256489 -0.6308900148126478 175 157 109
-0.04440763323754493 -0.1589274954828262 -0.6321242276861724 176 158 108
-0.04496451033212454 -0.15831010874702336 -0.6345807686664993 175 157 107
-0.04421754402957837 -0.1597463565484033 -0.6354569468147855 171 153 104
-0.044882085491031884 -0.15896040704175865 -0.6380509499688591 173 155 107
-0.04469297185876555 -0.15951855072659765 -0.6396070531620683 174 156 108
-0.04502432789599215 -0.15925803488927454 -0.6418016391247612 177 159 111
-0.04498515449123143 -0.15958072793202868 -0.6435443832361778 175 157 109
-0.04503016803175879 -0.15977126365624336 -0.6453922029769896 177 159 111
-0.04494706785582495 -0.16016340084066966 -0.6470834653857639 173 155 107
-0.045177379916170254 -0.16006330311560646 -0.6491642724911355 169 151 105
-0.045537294900421035 -0.15976011320606254 -0.6514093057773145 157 139 93
-0.045794977672537235 -0.15961801271865683 -0.6535308872019755 174 156 110
-0.04588173973653614 -0.15974465952793976 -0.655442119992036 176 158 110
-0.04614007082681092 -0.15960241973648887 -0.6575705360165156 178 160 112
-0.046350463467171574 -0.15953585636652784 -0.659642015465347 177 159 111
-0.046240546895972054 -0.15997198883431432 -0.6613128314645526 172 154 106
-0.046503269325422675 -0.15982410889536466 -0.6634553259372215 170 152 105
-0.047042474180553975 -0.15924345540455617 -0.6659514833043682 167 149 103
-0.04734631426217373 -0.15903227859465083 -0.6681538713445548 169 150 105
-0.04682293821864861 -0.16011709979893082 -0.6693061483144418 166 146 100
-0.046835724798702225 -0.1603622344065574 -0.6711412420797691 169 148 101
-0.04673642396119346 -0.16078303392901935 -0.6728344424511855 160 139 92
-0.046835346495561855 -0.16089383142715893 -0.6747830791116296 172 151 104
-0.04700836302440614 -0.1608890700352162 -0.6768293690640623 159 141 95
-0.04674591203773687 -0.1615655899534572 -0.6783162356777303 161 143 97
-0.04718795482161087 -0.1611409138000405 -0.6807147981867725 167 147 101
-0.04763114179065536 -0.16071512349565284 -0.6831194668192305 162 141 96
-0.04822181333047304 -0.16005963026821093 -0.685720694758695 131 113 78
-0.048502250481077355 -0.15988940838583665 -0.6879227975349199 93 81 57
-0.04881357720304538 -0.1596714803002256 -0.6901688353006226 102 90 68
-0.04923141207846625 -0.15928788718241926 -0.6925583187467692 118 106 82
-0.04965019076705804 -0.15890347531812013 -0.694953526933414 116 106 79
-0.0499616821672272 -0.1586870373165423 -0.6972117643876297 124 113 82
-0.050294682949016206 -0.15843761353649555 -0.6995021971734736 141 127 91
-0.050926566676920346 -0.15772294315868446 -0.7021927130083778 143 128 91
-0.05327642863205925 -0.154332499427109 -0.7071723595657985 143 126 91
-0.05439882732997389 -0.1528564613074193 -0.7105344068451627 133 114 81
-0.05584177816971815 -0.15088269365830959 -0.7143341019922436 122 104 68
-0.057537025803383976 -0.1485179252033749 -0.7184833795752167 139 121 86
-0.058519405159569854 -0.1472643342545415 -0.7216887996420637 150 132 94
-0.059625455785271106 -0.1458196108870486 -0.7250692073128674 159 140 98
-0.060907981005468625 -0.14410183713277536 -0.7286971823964054 159 142 99
-0.061984691291203986 -0.14270554196560775 -0.732057222884935 143 130 88
-0.06359855367691139 -0.140475870614749 -0.7361552546275237 134 120 81
-0.0651349600214108 -0.13836841032273028 -0.7401608642636787 118 102 66
-0.06631381514031637 -0.13681801686799636 -0.743691260956002 123 109 72
-0.06855801583728835 -0.13361519408750455 -0.7486882402473889 110 96 61
-0.07090981721567335 -0.13024792131369745 -0.7538501272432513 101 88 54
-0.07312187030194306 -0.1271001066822457 -0.7588381412934202 83 73 46
-0.0752414798055675 -0.12409817434709278 -0.7637160124841607 64 56 33
-0.07722603438358601 -0.1213080496496774 -0.7684239286687033 68 57 36
-0.07897077048567515 -0.11889189843819223 -0.7728154052000682 63 54 35
-0.07949823364556502 -0.11836378477004678 -0.7755308618313481 50 41 27
-0.07851812263894767 -0.12017146882372118 -0.7761533880761202 50 40 30
-0.08018320952510706 -0.11788274935748874 -0.7804618997740451 49 39 26
-0.07887081019329142 -0.12020460794561416 -0.7806185585142339 45 36 23
-0.07794439242124547 -0.12192813879027131 -0.7813090254500655 50 40 26
-0.07717136278620754 -0.1234137101578226 -0.7822103542004277 54 45 30
-0.07674523140767493 -0.12436233875912217 -0.7835969278672401 53 43 29
-0.07639763278167258 -0.12518938910216215 -0.7850932018669979 55 46 31
-0.07592286610030616 -0.12621284002768365 -0.7864086071331697 60 51 34
-0.07571602776923943 -0.12682217915166155 -0.7881028968744112 70 60 42
-0.07536407348865488 -0.12765564790883716 -0.7895908595718147 71 60 39
-0.07484109765805598 -0.12875301105048786 -0.7908339743543751 74 61 39
-0.07439725758540659 -0.12972796710638862 -0.7921883499490522 78 65 40
-0.07398719085971484 -0.13065061727146401 -0.7935897610693894 84 70 44
-0.07374762785072785 -0.13131015758351178 -0.7952351792053889 81 68 41
-0.07329880463559445 -0.13229230247602472 -0.7965789882219866 76 63 37
-0.07287175395657276 -0.13324068260657293 -0.7979528113285776 75 62 36
-0.07289823704625774 -0.13349017264717253 -0.7999823562349851 69 56 30
-0.07241530715867601 -0.13452446791861591 -0.8012740578167685 62 48 23
-0.0719326921641129 -0.13555803093540522 -0.802564520369093 66 52 27
-0.07195050438638198 -0.13582118564928297 -0.8045836070509786 67 52 29
-0.07159482887144301 -0.1366592205144185 -0.8060581760565912 67 52 29
-0.07115753800296172 -0.13762266150918545 -0.8074122610083402 64 49 26
-0.07101678377802322 -0.13812999517224914 -0.8092009250205977 63 48 26
-0.0676462912710622 -0.14360126791451217 -0.8062305086129979 62 47 26
-0.06814416796269256 -0.14312594181549157 -0.8089525428205888 62 47 26
-0.06741286003232376 -0.14453925573357967 -0.8098595600911016 59 44 23
-0.067122245573494 -0.1452754441912166 -0.8114173014931984 59 46 24
-0.06739540533149747 -0.1451462956365141 -0.8138136940465832 60 47 26
-0.0673498449169091 -0.14550669993773754 -0.8157383652513657 53 40 21
-0.06761728478853167 -0.14538724628800914 -0.818132528454895 53 41 21
-0.0681823769006402 -0.14481196211877206 -0.8209765743606531 66 52 32
-0.06829222222539187 -0.14493529196276822 -0.8231424213086954 62 47 23
-0.06895803899776615 -0.14420714974966023 -0.8261482659607412 69 54 28
-0.06811365431416726 -0.14579306934659914 -0.826880517863278 71 56 30
-0.0673911939700273 -0.14719167469408698 -0.8277929563909454 70 56 28
-0.06709775126027409 -0.14793312456017765 -0.8293528033768813 96 81 49
-0.06557246896702894 -0.150559312390924 -0.8290389663241666 105 90 57
-0.06489924735404363 -0.15188088977527817 -0.8300146948525703 97 82 49
-0.06445414427073286 -0.15285321904135865 -0.8313358762984686 104 89 55
-0.0640745728019211 -0.1537251720972997 -0.8327559688472886 106 92 56
-0.06510591961413527 -0.15244118876930102 -0.8363413066940013 105 91 56
-0.06473286671868017 -0.1533036485883503 -0.8377746088391858 102 88 56
-0.06515498809208445 -0.15295184358059527 -0.8404336425656187 98 84 54
-0.06474093178387473 -0.15387703912710485 -0.8418045747821873 93 80 51
-0.06479904933336823 -0.15408160977228 -0.8439061207319387 88 76 45
-0.06432914943082935 -0.15509187313783263 -0.8451895473272577 109 94 62
-0.06482484024374431 -0.15462962664169083 -0.847975033130456 110 96 67
-0.06483981628246654 -0.15490087821114995 -0.8500155792569902 107 94 62
-0.06437237400192032 -0.15590745199720688 -0.8513032284714626 109 96 63
-0.06365775878702845 -0.15729026369171814 -0.8522015999268322 98 88 59
-0.0631429872144623 -0.1583682917011862 -0.8534106708303274 99 88 64
-0.06252516947756717 -0.15960287192501077 -0.8544553874391352 110 97 71
-0.062340433993176805 -0.16017810976721403 -0.8561813519600958 107 94 69
-0.06289445357417245 -0.15962978218135285 -0.8590772546642181 93 85 66
-0.06285424920981196 -0.15998579671295413 -0.8610361729064294 69 65 48
-0.06368126295853165 -0.1590239472418513 -0.8643758768665074 72 69 51
-0.06360735302366087 -0.15943208313893628 -0.8662873082638373 94 91 78
-0.0641989316946004 -0.15882964683586787 -0.869263369488237 129 125 118
-0.06187323126122571 -0.16265736327869154 -0.8675734295082463 159 156 152
-0.06066436388266845 -0.16478776845254028 -0.8676608819847335 177 175 175
-0.05969011805742731 -0.1665611629162899 -0.8681186811424548 186 184 184
-0.05890055502968715 -0.16805366664105384 -0.8688688973641556 192 192 191
-0.05763464639551556 -0.17026777311667626 -0.8688450798880667 196 196 194
-0.09667031186910399 -0.01512145881189593 -0.25117445338027045 148 145 140
-0.09502341215040089 -0.018122877705077034 -0.2520282522281968 112 105 93
-0.09360200570605995 -0.020744236111558803 -0.25297590632769235 125 114 94
-0.04251028787485717 -0.11043790790294948 -0.25613684078833493 79 67 48
-0.04123380765105153 -0.11278795853260526 -0.2569603467297006 110 96 74
-0.03964921176833735 -0.11565239468126634 -0.257621962243586 142 127 102
-0.037795126523318484 -0.11896625919644836 -0.25813876065116437 149 133 107
-0.035952756510753484 -0.12225919336040855 -0.2586523526244236 155 138 110
-0.03375356976112721 -0.12614705207781227 -0.25897324486149315 155 137 105
-0.03421269211411171 -0.12559214823332443 -0.2606578998533911 159 140 107
-0.03388117700523452 -0.12635834751946654 -0.2619351104465715 160 140 107
-0.03317263397479213 -0.12775401678605314 -0.2630144851427979 166 145 113
-0.03264238519395942 -0.12885162071683326 -0.2641847359028167 150 130 97
-0.03133527482136388 -0.13124555171201374 -0.2649426516886972 145 125 90
-0.030473757523356876 -0.13289505406339536 -0.2659310713747104 155 133 96
-0.029125403235716482 -0.1353561534611997 -0.2666558113118673 170 147 107
-0.027829086037523456 -0.13772952186531837 -0.26740204360422565 179 157 117
-0.026481068960348485 -0.1401881907666345 -0.2681142202040267 162 144 109
-0.025283134835817116 -0.14239573091775537 -0.26890135216904665 111 98 70
-0.02417698522770749 -0.14444948412385591 -0.26973291152505174 96 86 59
-0.023948486701887546 -0.14504020198169798 -0.27104037337053083 93 80 54
-0.02670501759670383 -0.14065866138616417 -0.2739920711367996 93 79 53
-0.026918026991755103 -0.14051531645946783 -0.2755520807346376 99 85 58
-0.02594110032388388 -0.14235343358608823 -0.27645219095231127 94 80 52
-0.022687331312772636 -0.14819088548577491 -0.2775084577874214 100 86 58
-0.02356588232096475 -0.14693965971735892 -0.2794400664673576 102 88 59
-0.023226867306035744 -0.14771443063633358 -0.28068639513441546 97 83 54
-0.02298780431281613 -0.14832288280268663 -0.2819889706286456 100 86 57
-0.025236006416566883 -0.14479645376217995 -0.28471778232650197 107 93 64
-0.02538082635230939 -0.14476786387892024 -0.28624821104780546 98 83 53
-0.02695169732505462 -0.14237007017241127 -0.2886065452915255 99 84 53
-0.026970497280460956 -0.14255198812351633 -0.2900715997864012 96 81 49
-0.025843693090492902 -0.1446366415802525 -0.2908678723601366 96 81 49
-0.025539155561935596 -0.14535529304065228 -0.2921421344777784 94 81 47
-0.02652653804930573 -0.14392939108322172 -0.29417876998029574 99 86 52
-0.02626332914163353 -0.14457982429620284 -0.2954800550475157 102 89 55
-0.025852326645145526 -0.1454754054026868 -0.2966928596612678 108 95 62
-0.02635443559971179 -0.14485627673105012 -0.29845153524889034 104 89 57
-0.02682141315318757 -0.14429599310234892 -0.30019308043500187 93 78 45
-0.026881614670831284 -0.1444106285348949 -0.30169241057255325 97 81 48
-0.02688102791867463 -0.1446262336124827 -0.30315629681578227 94 79 46
-0.027105424819253335 -0.14446921536315643 -0.30475870334374383 100 86 53
-0.027360994482216083 -0.14426091580106615 -0.3063826751253224 102 89 55
-0.027546415378996617 -0.14416917662698026 -0.30796603789700044 102 89 55
-0.027782979726587 -0.14399308470595745 -0.30958329237987825 97 84 50
-0.027822693721791376 -0.1441432069643535 -0.3110806162082749 101 88 54
-0.027741810968701385 -0.1444931051141279 -0.3125039671687494 105 92 58
-0.02793960284343174 -0.14438205323122957 -0.3141029721522378 101 85 52
-0.027876877409466684 -0.14470224151197095 -0.3155399769007881 109 93 60
-0.027971385471255578 -0.14476254625476703 -0.31707740692205305 100 84 51
-0.02752274451448223 -0.1457210252471203 -0.31827085938690025 104 89 57
-0.027593199401729135 -0.14582135707277893 -0.3197947738241001 107 92 60
-0.027031746733232956 -0.14696604186310183 -0.32091443261699476 105 90 57
-0.027063231193080503 -0.14713094438884425 -0.3224145371396701 130 115 82
-0.027230264541393576 -0.14707218863387309 -0.3240038354849733 112 99 67
-0.027104530067700906 -0.14749712410374183 -0.32540470750022693 104 91 59
-0.027289024033486403 -0.14741005115030498 -0.32700885963617726 105 92 60
-0.027421261683879698 -0.14740954155452074 -0.3285809417100438 103 90 58
-0.027482565959648347 -0.14752634210294047 -0.3301081813829974 107 94 62
-0.027994741879542796 -0.14689971907627208 -0.3319356736644167 113 100 66
-0.029828946026720125 -0.14409377141292276 -0.33464705422583374 112 99 65
-0.029754963293914572 -0.14443521873267226 -0.3360949638416239 105 92 60
-0.02946322923621713 -0.14513564862893316 -0.3373974650374274 109 96 62
-0.029167753918472764 -0.1458421681835082 -0.33869693481460056 108 95 61
-0.028396790042644053 -0.14733184570052188 -0.3396739228751213 111 97 64
-0.02830181465619885 -0.14770782344588793 -0.34110728309794647 119 104 71
-0.028937766548215185 -0.1468805200640859 -0.3430404570916515 118 104 68
-0.02830558086523638 -0.14814121329577107 -0.3441087803609546 116 101 67
-0.028686300516434303 -0.14773479429464098 -0.3458722755049574 115 99 63
-0.027315946802324763 -0.15020953353353242 -0.3464279533148773 120 106 68
-0.02819471046229286 -0.14898425919810016 -0.34853913865681 133 120 81
-0.028434100366989262 -0.14881118751665245 -0.3502106628646893 120 105 65
-0.028796744738700863 -0.1484358934832236 -0.35197113561993904 140 122 85
-0.029435893668536522 -0.14760669187473435 -0.3539294511648037 111 93 57
-0.02958686596173111 -0.14758025710446437 -0.3555478851322164 121 103 66
-0.029047842656943615 -0.14868744520528526 -0.35667897502444335 117 99 64
-0.029244888125143205 -0.14858567247643062 -0.35833239009380075 126 108 76
-0.029246249915050475 -0.14880548818482411 -0.3598482177351029 132 116 82
-0.030117045329746246 -0.1475985679328175 -0.3619896778314499 121 105 71
-0.031208923429860327 -0.14602983401820852 -0.36429692424969257 134 118 85
-0.030310462276659723 -0.14772704644875964 -0.36517065514965563 102 86 53
-0.030606658749772312 -0.14746453873022627 -0.36690886618339774 114 97 68
-0.031213441137430575 -0.14669327151767225 -0.3688767809966535 123 108 80
-0.031226749695946146 -0.1468954335924189 -0.370414514925006 105 92 68
-0.03105326396051023 -0.1474038677106831 -0.3718160850648574 66 54 36
-0.03102724255514541 -0.14767076011641805 -0.37332681436201015 52 43 24
-0.03075465921411806 -0.14834161135062673 -0.37465570038510454 57 46 28
-0.02997160820160508 -0.1498481903456261 -0.37560397845591015 68 57 39
-0.04126455507872611 -0.14592930650235336 -0.48341993568369174 9 7 8
-0.04152919681776281 -0.14574457912832933 -0.4853128091934384 9 7 8
-0.04223211435835224 -0.1458242792759887 -0.49423151139467264 39 36 25
-0.04115330798467907 -0.14779999692675244 -0.4948564888739921 79 73 56
-0.0403199126703515 -0.14938081272711623 -0.4957113849135386 113 103 77
-0.04028919256528586 -0.1496724079351173 -0.4973346558184673 128 116 86
-0.040264690402867884 -0.14995419541413696 -0.49896510181088277 127 113 80
-0.040309977415155844 -0.15012418256716492 -0.5006643459945479 139 125 90
-0.0404847447791261 -0.15008671829799858 -0.502491044459463 127 113 78
-0.03934574283514716 -0.15215637242519692 -0.5030396589147987 132 117 83
-0.039292806420800186 -0.15248406504137077 -0.5046444911558514 139 123 89
-0.03952255333785579 -0.1523588619784381 -0.5065276870375442 125 109 80
-0.039258579663653106 -0.15302511513961117 -0.5079277853224056 122 108 78
-0.03930011299725276 -0.15320198197206866 -0.5096292397191514 147 134 100
-0.03925482561806478 -0.15351811322301506 -0.5112463344775315 150 134 97
-0.03910248888838612 -0.15400577018733974 -0.5127581429349636 149 133 95
-0.03921009422778694 -0.15407749093810807 -0.514529502796833 157 139 99
-0.03948767605336289 -0.15387757300363925 -0.516472920884596 128 111 71
-0.03907090263630299 -0.15478867672620866 -0.5177228639715952 128 113 76
-0.03910229927075601 -0.15498299548883632 -0.5194226022939618 143 127 90
-0.03950035459354402 -0.15459145139786024 -0.5214941229840175 140 125 86
-0.03927021527482461 -0.15520434434276353 -0.5229333158710631 155 140 100
-0.03939359521524971 -0.15525246420855227 -0.5247316164268662 148 130 91
-0.039301739841854075 -0.15564465041676837 -0.5263127259401869 161 143 104
-0.0396571325701928 -0.15532287681499699 -0.5283519194530842 160 145 104
-0.04030033106110028 -0.15454226464495652 -0.5306899653976439 155 139 99
-0.04029300359019258 -0.1548004834815127 -0.5323642535620832 162 145 103
-0.04051971320236763 -0.15468556622044227 -0.5342814318359991 170 152 109
-0.040611001569936855 -0.15478702779136522 -0.5360612760612061 150 132 91
-0.040624620701552046 -0.15501260607065176 -0.5377624577892349 148 129 86
-0.04088703942664106 -0.15484187119380188 -0.5397243030487472 160 142 97
-0.04097991110427526 -0.15494173186526555 -0.5415120902989596 157 139 96
-0.041159317978892926 -0.15490405071501184 -0.5433925870907511 154 136 96
-0.041371902045327855 -0.15481391626925622 -0.5453105357378935 130 114 75
-0.04153719569138084 -0.15479947197881105 -0.5471814030101196 134 116 78
-0.04138566906558868 -0.15528958668686293 -0.5487196304784857 134 116 80
-0.0413221840076692 -0.15563969684673995 -0.5503517143529953 141 122 85
-0.041314344144890665 -0.1559014532969369 -0.5520440314910112 148 128 88
-0.04145472285618204 -0.15592774382556646 -0.5538959438915504 133 115 77
-0.041414706917766574 -0.15624111850051306 -0.5555570401445893 124 109 75
-0.0414594890097699 -0.15641991639981684 -0.5573103761061518 142 127 88
-0.041479485859657265 -0.15663833981174524 -0.5590387346438888 152 134 91
-0.04152516638486809 -0.15681620409537633 -0.5607964058670983 154 137 95
-0.04155679751227071 -0.15701662731542343 -0.5625405832344785 128 114 76
-0.04153421333290645 -0.15730333879947273 -0.5642274732294958 151 133 95
-0.04177298822048982 -0.1571755496848679 -0.566200591483895 142 120 80
-0.04253642647900839 -0.1562159840534809 -0.5687504094982689 149 129 91
-0.04294377382326949 -0.15582201726243633 -0.5709161130214482 116 99 67
-0.04389974640351314 -0.15455895315175933 -0.5736894064574065 57 47 25
-0.04635300966759827 -0.15092417843966163 -0.5781222957780507 42 35 20
-0.04686685057039195 -0.15036454732251595 -0.5804266504730988 37 30 19
-0.047845302239388515 -0.14906977479299294 -0.5832514555634626 32 24 15
-0.04743803264628517 -0.14997019102936093 -0.5845417219136347 34 25 17
-0.04719541094664359 -0.15060982096769088 -0.5860145944020587 39 33 21
-0.04616025183869924 -0.15250350863602685 -0.586599995660661 48 42 24
-0.04596788200291041 -0.15306322978675235 -0.588126454047979 68 61 41
-0.044670823624352846 -0.1553699269648151 -0.5884090183948456 81 70 48
-0.04450343036655175 -0.15588969073247513 -0.5899604698462955 80 67 46
-0.044406338395421296 -0.15629840251617833 -0.5915919263541376 76 62 41
-0.04433417865181442 -0.1566678448215267 -0.5932525404556945 107 93 67
-0.04421111729209522 -0.1571178305870475 -0.5948561569138432 135 116 83
-0.04402305662780311 -0.15767054608285638 -0.5963861641460989 160 140 101
-0.04393846522300304 -0.15805997045112152 -0.5980349794130128 169 154 107
-0.04306977315451208 -0.1596868477916685 -0.5987835647341648 178 164 117
-0.04370310669603736 -0.15894361745460853 -0.6012590959767388 184 169 125
-0.04351900292727242 -0.15949034940498244 -0.6027954277494812 184 166 123
-0.04374189334684422 -0.159395471804757 -0.6048038142369463 160 143 98
-0.0439650645327851 -0.15930058601231029 -0.6068154900550536 178 161 116
-0.044196152621637175 -0.15919366163922816 -0.6088393643210749 187 170 125
-0.04439966940513674 -0.15913060806854581 -0.6108340280841881 173 156 108
-0.04424693439751441 -0.15962892803594386 -0.612413835182106 179 161 113
-0.044219905726717 -0.15992944138177248 -0.6141419283816345 186 168 122
-0.043966182718796466 -0.16058688082313272 -0.6156040312587348 168 151 105
-0.04427006172623803 -0.1603671046842986 -0.617725295274523 179 162 115
-0.04404201766481716 -0.16098437597717988 -0.6192193217944131 182 165 116
-0.04444546935870611 -0.16060882949868588 -0.6214642752283053 183 165 117
-0.04379247621681812 -0.16189428537218925 -0.6224536189292265 168 150 102
-0.04417834067818914 -0.16154708572126106 -0.6246824121373488 166 148 100
-0.04454617778462158 -0.16122880098139586 -0.6268936767540569 170 152 103
-0.04492953231903186 -0.1608867332794655 -0.6291275758047735 172 154 104
-0.04500538311308534 -0.1610279559151726 -0.6309947410784327 170 153 102
-0.0453144498142014 -0.16080350860990328 -0.6331459472682673 176 158 108
-0.045271443031893836 -0.16113189494554725 -0.6348738197100398 170 152 103
-0.045457131864526434 -0.16110181367806228 -0.6368810105940265 170 152 104
-0.04542599272415291 -0.16141206861397267 -0.6386265871971957 169 151 103
-0.04514453915766208 -0.16211482071478195 -0.640067418611149 173 155 107
-0.0459470964862548 -0.16111914173428304 -0.642836956156342 166 148 100
-0.04597581035156199 -0.1613365188810904 -0.6446620367231889 170 152 104
-0.045762377721210626 -0.16193329306966375 -0.6461903195032658 178 160 112
-0.046058011392496795 -0.16173325558592055 -0.6483480025186732 177 159 113
-0.04651077046295615 -0.16128787083050855 -0.6507039905905277 167 149 103
-0.046848966355135455 -0.1610223692538393 -0.6529221834937323 169 151 105
-0.04693309079206408 -0.1611547412220052 -0.654827545857737 172 154 107
-0.04706559946971402 -0.16121178497533684 -0.6567954912177811 179 161 113
-0.04687471663133175 -0.16177457867216916 -0.6583606277678417 178 160 112
-0.04715219522579585 -0.16160569435638084 -0.6605145300258941 174 156 108
-0.04753939309404824 -0.1612659555165955 -0.6628101085645478 170 152 105
-0.04717903463565276 -0.1620939828569954 -0.6641654587399725 169 151 103
-0.04788091820073234 -0.16126394087615406 -0.6668654992139809 170 152 105
-0.047996702357860355 -0.16134931432265714 -0.6688274463233979 173 154 105
-0.04790104171213587 -0.16176484222327459 -0.6705224566599316 174 154 105
-0.047749034860526104 -0.1622683637444054 -0.6721464249104574 172 152 103
-0.04799885972999465 -0.1621455911850162 -0.6742854226575994 176 156 108
-0.048106136624573345 -0.16224542972898517 -0.6762446913359881 175 157 111
-0.04791209479404489 -0.1628149964576341 -0.6778183959912591 163 145 101
-0.04875240332782273 -0.16177382056912054 -0.680727340025876 159 141 99
-0.04938286180822818 -0.16106041088014755 -0.6833720552015117 156 138 99
-0.04992763821994532 -0.1604812120403662 -0.6859115013240698 145 129 91
-0.050514737428995246 -0.15983694888209096 -0.6885113319957034 142 129 93
-0.05109362651169999 -0.1592062788330359 -0.6911060757130884 145 129 94
-0.05163312454965517 -0.15863766962131556 -0.6936548755202867 143 128 93
-0.05162446820768189 -0.15892181460087929 -0.6954902011896765 132 118 84
-0.05174259221203678 -0.15900919901104119 -0.697493745614894 141 128 90
-0.05229080389740902 -0.15842890273730026 -0.7000666348528185 147 133 94
-0.054715217803949 -0.15493613076428298 -0.7051245510568761 146 131 92
-0.05554003033173134 -0.1539290143939531 -0.7080812234785477 140 124 88
-0.056863943569948325 -0.15214850022051554 -0.711708291626091 131 113 77
-0.05845141762248983 -0.14996072474859387 -0.7156972081246719 134 118 78
-0.059791876393862825 -0.14815785071268073 -0.7193688686801148 147 131 94
-0.0608875204742549 -0.14673609249165898 -0.7227236665956526 130 114 75
-0.061946977454496815 -0.14537176832238605 -0.7260391299703637 166 148 107
-0.0630685759839949 -0.14391249482879842 -0.7294472321889862 157 140 98
-0.06461228734160765 -0.14180088788184206 -0.73343436222759 139 125 84
-0.06578612937538357 -0.14026371931439288 -0.7369335176778007 125 111 74
-0.06735592336608553 -0.13811519336977748 -0.7409795471210993 119 104 69
-0.06886988803695285 -0.136054892249557 -0.7449622702620281 118 103 69
-0.0709847325357999 -0.13306704097280397 -0.7497764053358476 107 93 60
-0.07337714555688724 -0.12965244478931945 -0.7549863660625322 103 90 59
-0.07562077087470397 -0.12647051580376634 -0.7600108574370261 80 69 44
-0.0779523050160708 -0.12315530844708852 -0.7651735102048624 64 54 34
-0.07978150763675526 -0.12061863994527477 -0.7696623461539402 72 62 42
-0.08134511778724096 -0.11849419688589724 -0.7737989932217417 62 54 36
-0.08175647579366406 -0.11815018578892164 -0.7763532843979738 46 38 25
-0.08054698498427866 -0.12030789704682643 -0.7766627859220252 39 32 21
-0.0811370170559624 -0.11968879623147621 -0.7794692202342292 33 27 16
-0.07999183660235748 -0.12174628363800216 -0.779861217766028 26 21 11
-0.07955927459189129 -0.1227043428352983 -0.7812433805495574 26 20 11
-0.07907924823189971 -0.1237353518249584 -0.782557694660577 27 20 13
-0.07853049589154466 -0.12487198961907181 -0.7837737754416656 31 23 16
-0.07822174581411327 -0.12563872318851974 -0.7853258671851671 32 23 16
-0.07786191733189834 -0.12648402385106292 -0.7868053719658241 33 25 15
-0.07794999229302187 -0.12663992183499695 -0.7889182998293571 37 29 17
-0.07742189448245634 -0.12774408408140653 -0.7901589199545712 38 32 17
-0.0769031928386875 -0.12883350373336044 -0.7914109163391715 44 37 21
-0.07639164217697272 -0.1299116467003878 -0.7926711832525788 52 43 26
-0.07612745795448889 -0.13060935169261723 -0.7942833401489914 65 53 33
-0.0759087635746707 -0.13123715095341226 -0.7959605871168274 73 61 38
-0.0753750536868794 -0.13234877823167596 -0.7971852687083922 79 67 44
-0.07512014495321097 -0.13303206918231103 -0.7988096054514938 84 74 49
-0.07450511519190285 -0.13426804754000862 -0.799913727563536 79 67 42
-0.0738825083438845 -0.135515265343968 -0.8010042482351375 82 68 42
-0.07343664063885161 -0.13649102291222062 -0.8023486188756367 72 57 31
-0.07365303496207623 -0.13645120072322037 -0.8046551999287755 72 57 31
-0.0733823687322903 -0.1371583610774918 -0.8062546316343879 69 55 30
-0.07315243321099243 -0.13780309019432044 -0.8079134419037444 67 52 27
-0.07303063980158862 -0.13828220396594 -0.8097308793492971 66 51 27
-0.07016429894787087 -0.14296359084209853 -0.8075164181484699 63 48 27
-0.07054377974827551 -0.1426742913681539 -0.8100641527916719 61 46 25
-0.07012651062960876 -0.14360470466998726 -0.8114399214728749 57 44 22
-0.06962445811420842 -0.14466461350214688 -0.8126889600891608 55 43 21
-0.06953339573184056 -0.14509585422568105 -0.8145459511758346 52 40 19
-0.06934973768027974 -0.145668785320525 -0.8162663264016559 47 36 17
-0.0698786872410793 -0.14515296766005042 -0.8190495940264065 48 37 18
-0.06968558992579203 -0.14574082170081493 -0.8207593098840584 56 43 24
-0.06945181181787424 -0.14639084504507469 -0.8224084549685319 57 45 21
-0.07099615623283871 -0.14432685730658001 -0.826727990138983 75 60 35
-0.07009534955944478 -0.1459956068461284 -0.8273795987132995 73 57 32
-0.06953434957170924 -0.14714536094192324 -0.8285392342721442 65 51 24
-0.06865138795396183 -0.14878569189089214 -0.82920958535772 72 58 29
-0.06831101036659681 -0.14959832800682019 -0.8306979992873024 100 84 53
-0.06843606761288554 -0.14970168496725272 -0.8328931166794489 109 95 61
-0.06826409834083282 -0.15025785387152207 -0.8346384058601576 103 89 54
-0.06870777939828109 -0.1498766965432526 -0.8373243983103922 110 95 61
-0.06678173262463492 -0.15310321662703905 -0.8363879324203085 111 96 63
-0.06709910231666043 -0.15291445518012534 -0.8388815175411842 109 95 61
-0.06696570987501696 -0.15341191430917445 -0.8406859108407209 99 87 54
-0.0667048795326239 -0.15410326093905813 -0.84229465055593 99 86 54
-0.0664469975389596 -0.154790109500083 -0.8439078324352302 105 92 58
-0.06607263897556774 -0.1556539212956057 -0.8453405017326844 113 98 64
-0.0657211695293651 -0.15648282876663153 -0.8468077652542173 99 84 53
-0.06547597439227622 -0.1571502608314508 -0.8484396448655998 116 102 66
-0.06541913933122516 -0.15753179778273943 -0.8503653571735903 128 114 77
-0.06485445519136196 -0.15868408310932794 -0.8514983658203452 118 104 70
-0.06434263063039422 -0.15975585079958252 -0.8527118766245371 120 107 75
-0.06376041868641807 -0.16093405252451506 -0.8538128525051947 119 106 74
-0.06347320606216034 -0.1616647724197548 -0.8553758658548564 114 100 73
-0.0637227647537147 -0.16158217353358065 -0.8577857605975586 89 80 61
-0.06412770702701395 -0.16126476719043978 -0.8604451109008362 65 61 45
-0.06444613427775757 -0.16107905012806611 -0.8629720654739383 70 67 50
-0.06533535758513241 -0.16003004282109395 -0.8664103827844211 94 90 77
-0.06620486258529337 -0.15901209645706946 -0.8698256649069639 130 126 120
-0.06362853428269495 -0.1632068955982353 -0.8677470418365169 159 156 152
-0.06217963965043795 -0.16569463013799945 -0.8674555912058232 175 173 173
-0.060988632856476696 -0.16779130459891553 -0.8675689238636078 186 184 185
-0.06002833428326611 -0.16953840002180517 -0.8680461929425 192 192 192
-0.10079136088571547 -0.011377431460428272 -0.25228048345796705 174 174 174
-0.09848821182918624 -0.01547163304178098 -0.25285012888067204 143 139 134
-0.09701223394830862 -0.01817868873757658 -0.25378026665295184 122 115 99
-0.09554703551062153 -0.020866684595772206 -0.2547084323270025 136 123 103
-0.040438415414530596 -0.11741614212570078 -0.25874000794281843 130 115 90
-0.03902013241759948 -0.1199941258768519 -0.2594759906867794 144 129 102
-0.03849856893428344 -0.12107753590948607 -0.2606652226248769 142 126 98
-0.03483877465056788 -0.1273864400985837 -0.2602340650996571 153 135 105
-0.035127253226674565 -0.12711949597517064 -0.2618310599461409 174 155 122
-0.035344595746534216 -0.12697135140715904 -0.26339370156976216 177 157 125
-0.03427207349560185 -0.12896983339056406 -0.2642826145725265 148 128 95
-0.032973734770916016 -0.13134325515121456 -0.26504767545114344 151 133 97
-0.03192585184774479 -0.13329923159917884 -0.26593927916914134 159 139 104
-0.03125809947283948 -0.13462245822390337 -0.2670285751131162 162 138 103
-0.030075421126300628 -0.1368012665084485 -0.26783960572286153 181 156 117
-0.028685148676399784 -0.13932426411713006 -0.2685334230755416 174 152 113
-0.027409697178671102 -0.14165550518195053 -0.2692826780431337 175 159 126
-0.026007713009733827 -0.14419603647707557 -0.26995709716849703 148 134 108
-0.024415176245551465 -0.14705201501284892 -0.270520617887739 88 77 50
-0.026441305952164377 -0.14389897383864128 -0.27306422888558934 96 84 57
-0.026776919920304516 -0.14355374287599323 -0.2746869097748279 90 75 49
-0.02772491995057994 -0.14219275391010652 -0.2766524635539429 97 82 54
-0.026571428382662764 -0.1443190891522633 -0.277452278293259 102 89 56
-0.02510902722016676 -0.1469569843504711 -0.2780735377342094 104 92 59
-0.025359293394883044 -0.1467539404986954 -0.2796526509787674 101 88 57
-0.024044016240830364 -0.1491465519596992 -0.28034779762944845 93 79 49
-0.025962862825875014 -0.14617820822680053 -0.28287713015602395 90 76 45
-0.025797205207958643 -0.1466654821938475 -0.2842262841972314 93 79 49
-0.026133994365457092 -0.14632048098507094 -0.28586440875743196 84 70 40
-0.02703444982916494 -0.1450424491458511 -0.2878311321687647 86 72 43
-0.026651075747023568 -0.14589092930915443 -0.28905894593673126 89 75 44
