ply
format ascii 1.0
element vertex 873
property float x
property float y
property float z
property float nx
property float ny
property float nz
property uchar diffuse_red
property uchar diffuse_green
property uchar diffuse_blue
property uchar class
property uchar detection
end_header
-0.0701 0.1216 -0.6500 0.287 0.764 0.578 111 98 78 0 0
-0.0620 0.1409 -0.6857 0.045 0.980 0.193 75 62 44 0 0
-0.0566 0.1534 -0.7163 0.685 0.266 0.678 86 75 57 0 0
-0.0541 0.1594 -0.7277 0.277 0.935 -0.220 120 107 78 0 0
-0.0594 0.1462 -0.7448 0.226 0.810 -0.541 75 63 37 0 0
-0.0604 0.1436 -0.7491 0.082 0.862 -0.501 79 67 44 0 0
-0.0613 0.1414 -0.7530 0.082 0.862 -0.501 86 74 52 0 0
-0.0626 0.1382 -0.7578 0.163 0.827 -0.539 76 63 44 0 0
-0.0666 0.1277 -0.7859 0.074 0.412 0.908 25 18 13 0 0
-0.1162 0.0104 -0.2778 -0.403 0.560 0.724 124 109 85 0 0
-0.0972 0.0555 -0.3731 0.327 0.898 0.296 77 61 33 0 0
-0.0965 0.0571 -0.3742 0.240 0.746 0.621 50 33 13 0 0
-0.0956 0.0592 -0.3890 0.253 0.937 0.242 109 93 67 0 0
-0.0705 0.1183 -0.5259 -0.123 0.949 0.290 90 81 71 0 0
-0.0702 0.1190 -0.5274 -0.001 0.793 0.609 90 82 71 0 0
-0.0656 0.1297 -0.5672 0.397 0.796 -0.458 51 38 25 0 0
-0.0723 0.1116 -0.6466 0.357 0.712 0.605 66 60 42 0 0
-0.0589 0.1440 -0.6829 0.176 0.972 0.154 98 84 62 0 0
-0.0608 0.1393 -0.6884 0.406 0.858 0.315 69 56 37 0 0
-0.0569 0.1479 -0.7429 0.528 0.686 -0.501 77 64 38 0 0
-0.0579 0.1454 -0.7471 0.554 0.707 -0.439 67 53 32 0 0
-0.0547 0.1520 -0.8136 0.211 0.750 0.627 63 49 32 0 0
-0.0474 0.1691 -0.8609 0.335 0.739 0.584 76 72 60 0 0
-0.1060 0.0311 -0.2899 0.221 0.809 0.545 134 111 76 0 0
-0.0922 0.0638 -0.3560 0.380 0.925 0.013 67 54 36 0 0
-0.0949 0.0569 -0.3706 0.088 0.995 0.043 104 89 59 0 0
-0.0942 0.0583 -0.3856 0.483 0.875 -0.033 91 75 50 0 0
-0.0943 0.0580 -0.3874 0.380 0.924 -0.031 93 77 51 0 0
-0.0698 0.1161 -0.5196 -0.334 0.759 0.559 41 33 28 0 0
-0.0639 0.1295 -0.5650 0.429 0.802 -0.415 73 60 37 0 0
-0.0948 0.0516 -0.6359 0.285 0.691 0.664 68 60 49 0 0
-0.0829 0.0812 -0.6368 0.006 0.181 0.983 76 69 60 0 0
-0.0745 0.1018 -0.6390 -0.299 0.938 0.175 85 78 68 0 0
-0.0614 0.1338 -0.6641 0.337 0.888 0.313 87 71 45 0 0
-0.0564 0.1452 -0.7118 0.132 0.661 0.738 102 86 66 0 0
-0.0565 0.1442 -0.7476 0.538 0.736 -0.411 64 49 28 0 0
-0.0631 0.1273 -0.7766 0.449 0.894 0.001 24 17 13 0 0
-0.0464 0.1669 -0.8603 0.488 0.836 0.248 51 47 37 0 0
-0.0462 0.1673 -0.8621 0.488 0.836 0.248 74 70 58 0 0
-0.1125 0.0110 -0.2739 -0.451 0.760 0.468 106 92 70 0 0
-0.1120 0.0122 -0.2752 -0.473 0.753 0.457 106 92 63 0 0
-0.1024 0.0356 -0.2950 0.304 0.795 0.525 138 122 92 0 0
-0.0909 0.0629 -0.3561 0.431 0.886 0.173 88 76 55 0 0
-0.0927 0.0577 -0.3873 0.274 0.960 0.057 86 70 44 0 0
-0.0941 0.0537 -0.4046 0.029 0.985 0.171 84 70 45 0 0
-0.0943 0.0533 -0.4066 0.311 0.945 0.102 88 73 49 0 0
-0.0622 0.1300 -0.5385 0.426 0.649 0.631 73 58 30 0 0
-0.0616 0.1315 -0.5468 0.228 0.905 0.359 79 59 33 0 0
-0.0625 0.1288 -0.5651 0.385 0.836 -0.391 74 62 39 0 0
-0.0550 0.1434 -0.7477 0.100 0.912 -0.399 70 55 31 0 0
-0.0554 0.1423 -0.7507 0.036 0.973 -0.227 81 67 42 0 0
-0.0557 0.1415 -0.7535 0.085 0.984 -0.158 86 74 51 0 0
-0.0504 0.1532 -0.8157 0.244 0.873 0.422 90 74 55 0 0
-0.0475 0.1601 -0.8355 0.188 0.823 0.536 109 93 59 0 0
-0.0461 0.1632 -0.8456 0.176 0.968 0.181 142 122 80 0 0
-0.0445 0.1673 -0.8527 0.298 0.942 0.157 136 125 88 0 0
-0.0446 0.1668 -0.8554 0.526 0.838 0.147 103 95 68 0 0
-0.0443 0.1676 -0.8568 0.338 0.755 0.561 70 66 51 0 0
-0.1017 0.0331 -0.2922 0.094 0.854 0.512 175 158 122 0 0
-0.1009 0.0350 -0.2933 0.212 0.803 0.558 152 132 98 0 0
-0.0928 0.0526 -0.4048 0.311 0.945 0.102 79 66 41 0 0
-0.0927 0.0528 -0.4065 0.311 0.945 0.102 98 85 60 0 0
-0.0924 0.0536 -0.4097 0.258 0.937 0.234 85 72 49 0 0
-0.0923 0.0528 -0.4440 0.309 0.943 0.127 22 17 15 0 0
-0.0577 0.1336 -0.6773 -0.177 0.912 0.370 66 55 34 0 0
-0.0525 0.1451 -0.7458 -0.216 0.897 -0.386 93 79 53 0 0
-0.0533 0.1431 -0.7496 -0.074 0.917 -0.392 99 86 59 0 0
-0.0539 0.1414 -0.7530 -0.017 0.981 -0.195 81 71 46 0 0
-0.0434 0.1653 -0.8474 0.418 0.877 0.238 130 113 74 0 0
-0.1003 0.0322 -0.2906 -0.105 0.900 0.422 188 176 138 0 0
-0.0869 0.0643 -0.3551 0.038 0.811 0.583 76 64 40 0 0
-0.0585 0.1305 -0.5467 0.309 0.885 0.349 112 97 66 0 0
-0.0581 0.1313 -0.5536 0.425 0.905 0.000 127 109 72 0 0
-0.0582 0.1311 -0.5556 0.207 0.977 -0.041 127 108 75 0 0
-0.0602 0.1256 -0.5683 0.259 0.788 -0.558 54 42 28 0 0
-0.0899 0.0500 -0.6234 0.093 0.989 -0.114 46 36 27 0 0
-0.0821 0.0691 -0.6375 -0.262 0.861 0.437 69 60 52 0 0
-0.0500 0.1476 -0.7145 0.151 0.773 0.616 112 98 73 0 0
-0.0512 0.1438 -0.7464 0.004 0.836 -0.548 110 97 71 0 0
-0.0532 0.1384 -0.7550 0.060 0.849 -0.525 85 73 51 0 0
-0.0542 0.1359 -0.7593 0.060 0.849 -0.525 67 59 41 0 0
-0.0572 0.1280 -0.7723 0.359 0.803 -0.475 40 33 27 0 0
-0.0536 0.1367 -0.7884 -0.175 0.872 0.457 84 72 56 0 0
-0.0530 0.1381 -0.7893 -0.019 0.980 0.197 84 69 50 0 0
-0.0528 0.1385 -0.7911 0.005 0.882 0.471 87 72 49 0 0
-0.0525 0.1394 -0.7924 -0.053 0.806 0.590 115 99 76 0 0
-0.0848 0.0652 -0.3546 0.016 0.910 0.415 89 78 52 0 0
-0.0877 0.0559 -0.4312 -0.246 0.958 -0.147 54 46 37 0 0
-0.0878 0.0555 -0.4332 -0.130 0.947 -0.294 43 36 29 0 0
-0.0879 0.0552 -0.4351 -0.243 0.957 -0.159 34 29 25 0 0
-0.0878 0.0551 -0.4496 -0.131 0.798 0.588 59 54 47 0 0
-0.0566 0.1307 -0.5554 0.247 0.969 0.013 124 105 72 0 0
-0.0587 0.1251 -0.5682 0.259 0.788 -0.558 63 52 38 0 0
-0.0878 0.0503 -0.6228 -0.128 0.989 0.074 45 35 26 0 0
-0.0801 0.0694 -0.6369 -0.262 0.861 0.437 66 57 48 0 0
-0.0724 0.0886 -0.6382 0.384 0.192 0.903 77 69 58 0 0
-0.0474 0.1495 -0.7145 0.183 0.373 0.910 119 105 86 0 0
-0.0433 0.1595 -0.7227 0.194 0.953 0.233 102 86 55 0 0
-0.0529 0.1344 -0.7600 0.223 0.792 -0.569 61 51 36 0 0
-0.0557 0.1272 -0.7724 0.359 0.803 -0.475 39 32 26 0 0
-0.0525 0.1349 -0.7851 0.011 0.934 0.356 59 51 36 0 0
-0.0522 0.1355 -0.7867 0.011 0.934 0.356 63 53 38 0 0
-0.0517 0.1367 -0.7878 0.055 0.871 0.487 109 97 78 0 0
-0.0473 0.1471 -0.8109 0.084 0.846 0.527 64 48 29 0 0
-0.0395 0.1656 -0.8569 0.450 0.803 0.391 61 59 44 0 0
-0.0393 0.1661 -0.8587 0.159 0.956 0.245 37 36 24 0 0
-0.0391 0.1665 -0.8605 0.159 0.956 0.245 71 68 54 0 0
-0.0389 0.1669 -0.8623 0.159 0.956 0.245 99 95 83 0 0
-0.0831 0.0652 -0.3543 -0.116 0.955 0.272 98 87 60 0 0
-0.0863 0.0561 -0.3869 0.167 0.978 -0.127 87 72 51 0 0
-0.0569 0.1251 -0.5678 -0.281 0.872 -0.400 63 52 35 0 0
-0.0859 0.0506 -0.6223 -0.128 0.989 0.074 42 33 24 0 0
-0.0854 0.0515 -0.6298 -0.121 0.965 0.231 56 48 38 0 0
-0.0781 0.0697 -0.6363 -0.134 0.843 0.521 69 60 51 0 0
-0.0770 0.0725 -0.6365 0.014 0.315 0.949 78 69 60 0 0
-0.0554 0.1263 -0.6634 0.495 0.683 0.537 54 43 33 0 0
-0.0530 0.1321 -0.6691 0.308 0.881 0.360 95 81 55 0 0
-0.0516 0.1351 -0.6909 0.704 0.684 -0.191 80 64 39 0 0
-0.0455 0.1497 -0.7159 -0.306 0.597 0.741 102 94 75 0 0
-0.0497 0.1379 -0.7544 0.012 0.879 -0.477 74 63 44 0 0
-0.0524 0.1309 -0.7667 0.206 0.801 -0.562 41 31 26 0 0
-0.0504 0.1354 -0.7841 0.058 0.992 0.108 57 45 33 0 0
-0.0395 0.1611 -0.8475 0.324 0.936 0.138 127 107 65 0 0
-0.0620 0.1103 -0.4829 -0.461 0.841 0.284 120 105 76 0 0
-0.0615 0.1115 -0.4840 -0.292 0.910 0.293 124 109 78 0 0
-0.0612 0.1123 -0.4854 -0.086 0.897 0.434 116 101 71 0 0
-0.0544 0.1272 -0.5661 -0.034 0.984 -0.174 59 48 28 0 0
-0.0737 0.0772 -0.6031 0.399 0.470 -0.787 39 30 21 0 0
-0.0777 0.0660 -0.6342 -0.223 0.753 0.620 77 68 59 0 0
-0.0511 0.1324 -0.6705 0.421 0.878 0.227 84 70 43 0 0
-0.0508 0.1322 -0.7028 0.548 0.818 0.174 40 27 18 0 0
-0.0489 0.1369 -0.7094 0.727 0.682 0.077 103 90 73 0 0
-0.0437 0.1499 -0.7153 -0.168 0.517 0.839 93 84 68 0 0
-0.0505 0.1307 -0.7813 0.296 0.720 0.627 41 29 18 0 0
-0.0484 0.1357 -0.7833 0.042 0.964 0.263 45 32 17 0 0
-0.0480 0.1366 -0.7868 0.194 0.881 0.431 55 46 31 0 0
-0.0478 0.1372 -0.7884 0.260 0.940 0.222 64 53 36 0 0
-0.0475 0.1380 -0.7899 0.147 0.886 0.440 56 45 27 0 0
-0.0460 0.1412 -0.8065 0.208 0.827 0.523 57 43 26 0 0
-0.0376 0.1613 -0.8490 0.380 0.886 0.266 124 107 66 0 0
-0.0366 0.1634 -0.8623 0.338 0.875 0.345 66 61 46 0 0
-0.0970 0.0236 -0.2758 -0.205 0.877 0.435 44 36 23 0 0
-0.0799 0.0648 -0.3473 0.052 0.943 0.328 76 57 42 0 0
-0.0797 0.0653 -0.3487 0.079 0.979 0.189 84 69 51 0 0
-0.0800 0.0642 -0.3542 -0.055 0.998 -0.044 110 94 68 0 0
-0.0816 0.0585 -0.4115 -0.358 0.927 0.115 87 76 57 0 0
-0.0599 0.1112 -0.4821 -0.443 0.842 0.308 122 107 78 0 0
-0.0527 0.1270 -0.5658 0.145 0.984 -0.100 64 54 34 0 0
-0.0742 0.0712 -0.6065 0.370 0.478 -0.796 37 28 19 0 0
-0.0661 0.0907 -0.6396 0.878 0.375 0.297 66 58 47 0 0
-0.0524 0.1246 -0.6657 0.288 0.750 0.596 54 45 36 0 0
-0.0429 0.1472 -0.7150 -0.047 0.475 0.879 109 99 80 0 0
-0.0424 0.1483 -0.7161 -0.049 0.496 0.867 86 74 57 0 0
-0.0443 0.1427 -0.7474 0.192 0.793 -0.579 68 53 34 0 0
-0.0480 0.1328 -0.7619 0.104 0.829 -0.550 37 28 19 0 0
-0.0491 0.1299 -0.7665 0.006 0.857 -0.515 40 31 23 0 0
-0.0381 0.1556 -0.8363 0.147 0.958 0.247 94 75 43 0 0
-0.0352 0.1623 -0.8562 0.491 0.865 0.102 113 103 74 0 0
-0.0351 0.1625 -0.8582 0.613 0.680 0.402 50 49 36 0 0
-0.0784 0.0640 -0.3540 0.106 0.970 -0.217 116 99 74 0 0
-0.0597 0.1077 -0.4729 -0.434 0.847 0.306 127 113 88 0 0
-0.0520 0.1254 -0.5333 0.137 0.975 0.173 83 63 36 0 0
-0.0502 0.1291 -0.5568 0.564 0.750 0.346 123 104 71 0 0
-0.0500 0.1296 -0.5583 0.374 0.734 0.567 140 123 90 0 0
-0.0653 0.0880 -0.6390 0.001 0.704 0.711 67 59 48 0 0
-0.0488 0.1281 -0.7010 0.545 0.836 0.064 45 33 22 0 0
-0.0489 0.1278 -0.7032 0.509 0.849 0.141 34 24 17 0 0
-0.0378 0.1551 -0.7305 0.530 0.799 -0.284 125 111 78 0 0
-0.0471 0.1296 -0.7833 0.167 0.739 0.653 32 23 13 0 0
-0.0468 0.1303 -0.7848 0.141 0.877 0.460 40 27 17 0 0
-0.0420 0.1419 -0.8026 0.124 0.861 0.492 61 46 29 0 0
-0.0336 0.1616 -0.8563 0.233 0.960 0.155 120 109 78 0 0
-0.0765 0.0646 -0.3485 0.429 0.896 0.116 106 90 65 0 0
-0.0571 0.1100 -0.4732 -0.261 0.929 0.263 134 119 93 0 0
-0.0496 0.1268 -0.5468 0.073 0.945 0.319 113 97 64 0 0
-0.0487 0.1286 -0.5586 0.757 0.603 0.252 130 113 81 0 0
-0.0722 0.0658 -0.6331 0.243 0.466 0.851 75 66 57 0 0
-0.0645 0.0854 -0.6363 0.492 0.519 0.699 68 60 49 0 0
-0.0642 0.0860 -0.6379 0.368 0.848 0.382 71 64 53 0 0
-0.0639 0.0869 -0.6393 0.408 0.666 0.624 64 56 46 0 0
-0.0635 0.0879 -0.6406 0.312 0.683 0.660 61 53 43 0 0
-0.0525 0.1157 -0.6514 0.318 0.666 0.675 96 82 66 0 0
-0.0520 0.1169 -0.6525 0.420 0.687 0.593 49 37 22 0 0
-0.0474 0.1270 -0.7034 0.651 0.759 0.028 34 26 18 0 0
-0.0384 0.1494 -0.7163 0.065 0.588 0.806 155 139 102 0 0
-0.0363 0.1544 -0.7265 0.372 0.875 0.310 115 101 68 0 0
-0.0362 0.1546 -0.7283 0.377 0.916 0.138 137 122 83 0 0
-0.0361 0.1548 -0.7302 0.367 0.865 -0.344 138 125 86 0 0
-0.0323 0.1604 -0.8525 0.089 0.958 0.272 137 117 77 0 0
-0.0874 0.0347 -0.2852 -0.297 0.840 0.454 157 135 100 0 0
-0.0872 0.0350 -0.2867 -0.206 0.961 0.185 143 125 95 0 0
-0.0864 0.0369 -0.2911 0.105 0.994 0.041 151 135 104 0 0
-0.0751 0.0636 -0.3537 0.259 0.953 -0.158 120 105 79 0 0
-0.0514 0.1194 -0.4999 0.371 0.873 0.317 93 77 51 0 0
-0.0481 0.1261 -0.5450 0.073 0.945 0.319 123 107 74 0 0
-0.0477 0.1266 -0.5631 0.810 0.562 -0.170 127 111 83 0 0
-0.0625 0.0857 -0.6377 0.141 0.887 0.440 63 55 45 0 0
-0.0620 0.0869 -0.6388 0.093 0.730 0.677 60 53 43 0 0
-0.0509 0.1151 -0.6514 0.396 0.652 0.647 107 94 76 0 0
-0.0383 0.1441 -0.7447 0.220 0.772 -0.597 94 80 54 0 0
-0.0433 0.1305 -0.7644 0.316 0.780 -0.539 67 58 39 0 0
-0.0433 0.1298 -0.7842 0.401 0.782 0.477 46 37 20 0 0
-0.0429 0.1307 -0.7856 0.248 0.744 0.621 47 35 20 0 0
-0.0330 0.1543 -0.8357 0.365 0.919 0.147 92 77 46 0 0
-0.0327 0.1552 -0.8371 0.239 0.815 0.529 93 78 47 0 0
-0.0318 0.1572 -0.8462 0.557 0.778 0.290 129 111 71 0 0
-0.0315 0.1577 -0.8479 0.426 0.846 0.321 130 111 71 0 0
-0.0305 0.1602 -0.8521 0.089 0.958 0.272 139 119 79 0 0
-0.0304 0.1601 -0.8632 0.346 0.864 0.367 61 55 43 0 0
-0.0893 0.0257 -0.2744 -0.261 0.863 0.433 54 42 28 0 0
-0.0892 0.0259 -0.2760 0.058 0.738 0.672 42 31 22 0 0
-0.0859 0.0342 -0.2835 -0.291 0.882 0.370 183 164 122 0 0
-0.0857 0.0346 -0.2850 -0.191 0.879 0.437 172 154 113 0 0
-0.0854 0.0353 -0.2864 -0.206 0.961 0.185 148 130 96 0 0
-0.0858 0.0342 -0.2900 0.480 0.873 -0.087 162 145 109 0 0
-0.0852 0.0355 -0.2913 0.459 0.879 0.129 156 140 106 0 0
-0.0736 0.0632 -0.3536 0.259 0.953 -0.158 104 90 64 0 0
-0.0471 0.1244 -0.5420 0.308 0.864 0.398 110 88 61 0 0
-0.0464 0.1260 -0.5447 0.380 0.836 0.396 120 104 71 0 0
-0.0464 0.1254 -0.5635 0.798 0.591 -0.121 132 116 87 0 0
-0.0773 0.0432 -0.6265 0.099 0.956 0.276 50 40 31 0 0
-0.0771 0.0437 -0.6282 0.099 0.956 0.276 59 50 40 0 0
-0.0494 0.1143 -0.6515 0.420 0.698 0.580 108 95 77 0 0
-0.0444 0.1254 -0.7016 0.593 0.774 0.222 26 19 13 0 0
-0.0439 0.1263 -0.7050 0.599 0.701 0.387 43 35 24 0 0
-0.0331 0.1535 -0.7262 0.417 0.877 0.239 137 119 73 0 0
-0.0329 0.1539 -0.7279 0.417 0.877 0.239 157 137 89 0 0
-0.0357 0.1434 -0.8126 0.158 0.984 0.078 79 64 43 0 0
-0.0356 0.1438 -0.8144 0.147 0.962 0.231 89 74 53 0 0
-0.0924 0.0135 -0.2661 -0.333 0.791 0.514 142 127 97 0 0
-0.0723 0.0624 -0.3503 0.430 0.858 0.280 112 96 69 0 0
-0.0482 0.1188 -0.5014 0.190 0.931 0.310 86 70 44 0 0
-0.0454 0.1241 -0.5436 0.425 0.851 0.309 117 101 71 0 0
-0.0450 0.1252 -0.5466 0.585 0.806 0.092 121 105 72 0 0
-0.0453 0.1241 -0.5565 0.434 0.895 -0.104 132 112 81 0 0
-0.0468 0.1195 -0.5686 0.537 0.652 -0.536 76 64 43 0 0
-0.0754 0.0432 -0.6281 -0.334 0.942 0.021 52 43 34 0 0
-0.0479 0.1137 -0.6495 0.445 0.793 0.415 41 29 15 0 0
-0.0314 0.1531 -0.7302 0.212 0.975 0.066 142 124 82 0 0
-0.0397 0.1293 -0.7879 0.422 0.825 0.376 56 42 22 0 0
-0.0286 0.1558 -0.8419 0.309 0.910 0.276 96 82 48 0 0
-0.0283 0.1565 -0.8456 0.131 0.728 0.673 104 89 48 0 0
-0.0275 0.1580 -0.8574 0.539 0.801 0.262 128 117 85 0 0
-0.0269 0.1596 -0.8603 0.155 0.894 0.421 45 44 32 0 0
-0.0907 0.0135 -0.2659 -0.185 0.533 0.825 138 121 96 0 0
-0.0774 0.0464 -0.3040 0.331 0.854 0.402 127 112 77 0 0
-0.0451 0.1215 -0.5193 0.351 0.913 0.208 77 57 35 0 0
-0.0445 0.1223 -0.5388 0.338 0.877 0.341 82 58 34 0 0
-0.0442 0.1230 -0.5403 0.367 0.808 0.462 93 69 42 0 0
-0.0440 0.1235 -0.5418 0.357 0.872 0.334 111 90 62 0 0
-0.0438 0.1240 -0.5433 0.384 0.864 0.327 116 97 68 0 0
-0.0438 0.1233 -0.5585 0.583 0.806 0.102 132 113 83 0 0
-0.0451 0.1195 -0.5682 0.303 0.840 -0.449 79 66 47 0 0
-0.0736 0.0430 -0.6258 -0.527 0.717 0.455 37 28 21 0 0
-0.0732 0.0440 -0.6272 -0.334 0.942 0.021 47 38 30 0 0
-0.0732 0.0440 -0.6292 0.242 0.335 0.911 33 24 15 0 0
-0.0579 0.0834 -0.6359 -0.205 0.772 0.602 65 56 47 0 0
-0.0567 0.0863 -0.6380 -0.343 0.771 0.537 64 57 47 0 0
-0.0564 0.0872 -0.6394 -0.307 0.705 0.640 71 64 54 0 0
-0.0465 0.1124 -0.6520 0.575 0.744 0.341 61 49 37 0 0
-0.0377 0.1327 -0.7134 0.101 0.520 0.848 95 83 66 0 0
-0.0297 0.1528 -0.7299 0.145 0.863 0.485 114 95 55 0 0
-0.0383 0.1292 -0.7640 0.151 0.843 -0.517 83 69 49 0 0
-0.0407 0.1222 -0.7762 0.091 0.976 -0.198 30 23 15 0 0
-0.0405 0.1228 -0.7778 0.458 0.574 0.679 38 32 23 0 0
-0.0276 0.1539 -0.8366 0.404 0.884 0.235 89 74 42 0 0
-0.0272 0.1547 -0.8402 0.404 0.884 0.235 86 70 39 0 0
-0.0259 0.1579 -0.8504 0.302 0.915 0.266 138 120 75 0 0
-0.0752 0.0476 -0.3067 0.261 0.936 0.237 115 101 74 0 0
-0.0587 0.0852 -0.4363 -0.318 0.937 0.146 86 73 58 0 0
-0.0583 0.0860 -0.4377 -0.333 0.897 0.292 73 61 48 0 0
-0.0426 0.1217 -0.5609 0.146 0.946 0.290 117 100 74 0 0
-0.0438 0.1182 -0.5687 0.537 0.684 -0.493 75 62 45 0 0
-0.0715 0.0436 -0.6250 -0.571 0.701 0.428 39 30 22 0 0
-0.0718 0.0428 -0.6276 0.083 0.799 0.596 48 39 30 0 0
-0.0644 0.0616 -0.6338 0.310 0.407 0.859 69 60 51 0 0
-0.0560 0.0835 -0.6354 -0.205 0.772 0.602 70 61 52 0 0
-0.0538 0.0890 -0.6397 0.308 0.647 0.698 59 52 42 0 0
-0.0451 0.1113 -0.6523 0.659 0.742 0.119 36 24 14 0 0
-0.0284 0.1519 -0.7240 0.540 0.840 0.049 97 82 55 0 0
-0.0284 0.1514 -0.7326 0.254 0.917 -0.307 148 133 96 0 0
-0.0383 0.1235 -0.7789 0.204 0.731 0.651 28 21 13 0 0
-0.0366 0.1279 -0.7837 0.124 0.907 0.401 57 44 28 0 0
-0.0328 0.1373 -0.7949 0.419 0.766 0.488 89 76 52 0 0
-0.0325 0.1381 -0.7963 0.520 0.782 0.345 87 72 47 0 0
-0.0314 0.1406 -0.8048 0.223 0.813 0.538 83 70 50 0 0
-0.0273 0.1499 -0.8310 0.226 0.895 0.384 94 73 36 0 0
-0.0239 0.1579 -0.8519 0.301 0.764 0.571 147 128 82 0 0
-0.0732 0.0483 -0.3095 0.244 0.967 0.070 81 66 46 0 0
-0.0731 0.0485 -0.3111 0.390 0.919 -0.061 70 55 37 0 0
-0.0676 0.0612 -0.3500 0.305 0.838 0.452 97 82 55 0 0
-0.0655 0.0657 -0.3685 -0.475 0.794 0.379 63 51 37 0 0
-0.0421 0.1182 -0.5684 0.468 0.783 -0.409 86 73 54 0 0
-0.0676 0.0490 -0.6192 0.361 0.693 0.624 33 25 17 0 0
-0.0706 0.0409 -0.6263 0.131 0.743 0.657 39 30 21 0 0
-0.0702 0.0420 -0.6276 0.131 0.743 0.657 45 36 27 0 0
-0.0697 0.0431 -0.6290 0.131 0.743 0.657 52 43 34 0 0
-0.0552 0.0808 -0.6348 0.212 0.521 0.827 54 45 36 0 0
-0.0547 0.0822 -0.6359 0.220 0.435 0.873 61 52 43 0 0
-0.0531 0.0862 -0.6373 0.260 0.632 0.730 64 57 47 0 0
-0.0528 0.0869 -0.6388 0.537 0.703 0.467 58 51 41 0 0
-0.0524 0.0879 -0.6401 0.442 0.773 0.455 73 66 56 0 0
-0.0519 0.0893 -0.6411 0.317 0.723 0.614 57 50 40 0 0
-0.0515 0.0903 -0.6425 0.317 0.723 0.614 57 50 41 0 0
-0.0488 0.0970 -0.6459 0.247 0.790 0.561 65 59 48 0 0
-0.0370 0.1221 -0.7775 0.131 0.626 0.769 26 19 12 0 0
-0.0373 0.1212 -0.7803 0.182 0.775 0.606 26 19 13 0 0
-0.0287 0.1424 -0.8135 0.232 0.866 0.442 99 88 68 0 0
-0.0267 0.1471 -0.8265 0.207 0.732 0.649 86 70 42 0 0
-0.0856 0.0135 -0.2571 0.179 0.895 0.408 84 72 54 0 0
-0.0766 0.0357 -0.2918 0.206 0.915 0.346 75 61 38 0 0
-0.0756 0.0383 -0.2943 0.277 0.704 0.654 138 121 101 0 0
-0.0748 0.0402 -0.2954 0.324 0.559 0.763 146 124 101 0 0
-0.0667 0.0599 -0.3319 0.332 0.886 0.325 123 105 78 0 0
-0.0665 0.0603 -0.3351 0.331 0.909 0.253 118 103 79 0 0
-0.0413 0.1185 -0.5073 0.242 0.955 0.170 93 73 48 0 0
-0.0394 0.1211 -0.5588 0.338 0.941 0.028 132 114 83 0 0
-0.0399 0.1195 -0.5653 0.658 0.753 -0.000 122 107 78 0 0
-0.0407 0.1172 -0.5686 0.466 0.768 -0.439 96 83 62 0 0
-0.0689 0.0405 -0.6261 0.131 0.743 0.657 36 27 17 0 0
-0.0528 0.0824 -0.6353 0.463 0.432 0.774 59 50 41 0 0
-0.0514 0.0859 -0.6370 0.258 0.465 0.847 75 67 57 0 0
-0.0507 0.0878 -0.6377 0.180 0.759 0.626 68 61 51 0 0
-0.0505 0.0881 -0.6395 0.158 0.979 0.132 78 70 61 0 0
-0.0503 0.0886 -0.6412 0.098 0.818 0.567 75 68 58 0 0
-0.0254 0.1501 -0.7266 0.448 0.854 0.266 50 37 16 0 0
-0.0358 0.1203 -0.7784 0.207 0.881 0.425 20 13 7 0 0
-0.0354 0.1213 -0.7797 0.443 0.836 0.323 22 14 10 0 0
-0.0270 0.1418 -0.8156 0.295 0.865 0.406 77 60 38 0 0
-0.0857 0.0089 -0.2532 0.078 0.541 0.837 130 119 101 0 0
-0.0841 0.0131 -0.2570 0.451 0.773 0.447 98 86 70 0 0
-0.0738 0.0385 -0.2957 0.141 0.804 0.577 131 112 89 0 0
-0.0649 0.0590 -0.3554 0.319 0.881 -0.349 65 53 37 0 0
-0.0597 0.0720 -0.3690 -0.281 0.748 0.601 83 70 53 0 0
-0.0596 0.0723 -0.3723 -0.390 0.838 0.380 74 62 42 0 0
-0.0602 0.0704 -0.3764 -0.367 0.926 -0.086 88 75 58 0 0
-0.0522 0.0896 -0.4196 -0.067 0.994 0.090 82 69 52 0 0
-0.0410 0.1158 -0.4907 0.355 0.880 0.317 84 68 45 0 0
-0.0407 0.1162 -0.4922 0.355 0.880 0.317 71 55 32 0 0
-0.0396 0.1184 -0.5089 0.242 0.955 0.170 65 43 26 0 0
-0.0395 0.1186 -0.5105 0.242 0.955 0.170 58 37 20 0 0
-0.0382 0.1197 -0.5592 0.570 0.786 0.240 142 126 92 0 0
-0.0549 0.0719 -0.6359 0.706 0.617 0.348 63 54 44 0 0
-0.0511 0.0820 -0.6352 0.148 0.618 0.772 53 44 36 0 0
-0.0491 0.0872 -0.6377 0.264 0.821 0.507 76 67 58 0 0
-0.0490 0.0872 -0.6397 0.272 0.943 0.192 70 62 53 0 0
-0.0457 0.0958 -0.6458 0.292 0.702 0.649 65 58 48 0 0
-0.0235 0.1459 -0.8244 0.011 0.972 0.235 109 92 62 0 0
-0.0232 0.1464 -0.8261 0.058 0.951 0.303 113 97 66 0 0
-0.0770 0.0265 -0.2728 0.376 0.860 0.345 145 130 98 0 0
-0.0746 0.0323 -0.2826 0.363 0.749 0.555 234 222 188 0 0
-0.0743 0.0330 -0.2840 0.284 0.804 0.522 197 183 149 0 0
-0.0675 0.0494 -0.3184 -0.002 0.898 0.440 110 99 80 0 0
-0.0673 0.0499 -0.3199 0.157 0.971 0.182 83 72 55 0 0
-0.0672 0.0502 -0.3215 0.157 0.971 0.182 65 53 38 0 0
-0.0629 0.0601 -0.3497 0.409 0.826 0.388 58 45 30 0 0
-0.0629 0.0600 -0.3514 0.214 0.963 0.166 60 48 31 0 0
-0.0628 0.0602 -0.3530 0.131 0.947 0.294 62 51 32 0 0
-0.0638 0.0575 -0.3557 0.359 0.909 -0.211 58 48 30 0 0
-0.0580 0.0718 -0.3756 -0.324 0.941 -0.095 85 72 55 0 0
-0.0582 0.0711 -0.3776 -0.231 0.936 -0.265 85 72 55 0 0
-0.0395 0.1152 -0.4907 0.355 0.880 0.317 72 55 33 0 0
-0.0393 0.1156 -0.4922 0.355 0.880 0.317 66 49 27 0 0
-0.0383 0.1174 -0.5073 0.310 0.946 0.092 79 58 38 0 0
-0.0372 0.1190 -0.5317 0.131 0.934 0.332 74 55 29 0 0
-0.0366 0.1196 -0.5515 0.378 0.881 0.284 114 95 64 0 0
-0.0375 0.1168 -0.5644 0.509 0.857 -0.082 133 116 86 0 0
-0.0375 0.1166 -0.5663 0.637 0.770 -0.038 109 93 66 0 0
-0.0638 0.0441 -0.6210 0.737 0.137 0.662 29 22 15 0 0
-0.0637 0.0442 -0.6230 0.324 0.464 0.825 31 23 15 0 0
-0.0632 0.0455 -0.6242 0.329 0.510 0.795 48 39 31 0 0
-0.0615 0.0499 -0.6295 0.790 0.413 0.453 53 44 35 0 0
-0.0584 0.0578 -0.6326 -0.029 0.753 0.658 67 58 49 0 0
-0.0535 0.0707 -0.6362 0.642 0.707 0.295 63 55 45 0 0
-0.0485 0.0836 -0.6397 0.188 0.520 0.833 78 69 60 0 0
-0.0224 0.1487 -0.7268 0.432 0.898 0.080 98 83 50 0 0
-0.0163 0.1584 -0.8580 0.303 0.888 0.347 30 31 24 0 0
-0.0160 0.1589 -0.8597 0.303 0.888 0.347 37 36 28 0 0
-0.0879 -0.0058 -0.2483 0.318 0.888 0.331 142 133 121 0 0
-0.0656 0.0498 -0.3214 0.247 0.950 0.191 47 37 25 0 0
-0.0620 0.0585 -0.3417 0.084 0.800 0.594 50 37 26 0 0
-0.0557 0.0737 -0.3679 -0.362 0.838 0.408 132 115 81 0 0
-0.0521 0.0824 -0.3880 -0.474 0.832 0.288 123 109 82 0 0
-0.0519 0.0829 -0.3895 -0.526 0.826 0.202 128 114 85 0 0
-0.0516 0.0835 -0.3909 -0.534 0.755 0.380 119 106 80 0 0
-0.0458 0.0955 -0.4580 0.307 0.885 0.349 77 61 38 0 0
-0.0389 0.1124 -0.4847 0.390 0.837 0.383 82 69 51 0 0
-0.0385 0.1133 -0.4860 0.443 0.837 0.321 83 69 50 0 0
-0.0384 0.1136 -0.4877 0.404 0.824 0.396 80 65 46 0 0
-0.0367 0.1169 -0.5090 0.280 0.905 0.321 65 45 22 0 0
-0.0356 0.1171 -0.5638 0.546 0.815 -0.194 139 122 93 0 0
-0.0358 0.1166 -0.5659 0.546 0.815 -0.194 125 109 84 0 0
-0.0618 0.0445 -0.6204 0.012 0.988 -0.152 27 22 17 0 0
-0.0640 0.0384 -0.6262 0.109 0.526 0.844 24 18 12 0 0
-0.0526 0.0684 -0.6333 0.030 0.853 0.521 68 59 50 0 0
-0.0523 0.0689 -0.6350 -0.037 0.877 0.479 65 56 47 0 0
-0.0519 0.0700 -0.6363 0.109 0.959 0.261 64 54 45 0 0
-0.0212 0.1465 -0.7342 0.289 0.914 -0.285 136 115 77 0 0
-0.0294 0.1223 -0.7837 0.236 0.716 0.656 39 30 21 0 0
-0.0204 0.1442 -0.8205 0.146 0.952 0.270 93 81 51 0 0
-0.0704 0.0342 -0.2882 0.286 0.906 0.311 159 144 118 0 0
-0.0605 0.0575 -0.3451 0.275 0.916 0.294 65 52 35 0 0
-0.0599 0.0589 -0.3496 0.202 0.937 0.284 67 56 37 0 0
-0.0451 0.0932 -0.4518 0.365 0.864 0.348 76 61 35 0 0
-0.0361 0.1148 -0.4956 0.313 0.939 0.142 66 45 23 0 0
-0.0353 0.1163 -0.5090 0.412 0.827 0.383 74 52 27 0 0
-0.0343 0.1182 -0.5206 0.333 0.858 0.391 89 68 41 0 0
-0.0175 0.1466 -0.8329 0.091 0.838 0.537 94 79 50 0 0
-0.0151 0.1524 -0.8428 0.290 0.944 0.156 116 99 67 0 0
-0.0110 0.1624 -0.8617 0.799 0.259 0.544 146 145 144 0 0
-0.0096 0.1659 -0.8649 0.918 0.110 -0.382 182 181 180 0 0
-0.0493 0.0809 -0.3847 -0.215 0.781 0.587 81 67 49 0 0
-0.0434 0.0931 -0.4515 0.268 0.904 0.334 89 75 49 0 0
-0.0434 0.0931 -0.4533 0.304 0.853 0.425 81 67 41 0 0
-0.0355 0.1122 -0.4877 0.253 0.833 0.492 57 41 25 0 0
-0.0340 0.1152 -0.5075 0.341 0.909 0.238 63 42 22 0 0
-0.0337 0.1158 -0.5090 0.367 0.839 0.403 65 43 21 0 0
-0.0336 0.1162 -0.5105 0.348 0.809 0.474 78 56 31 0 0
-0.0337 0.1158 -0.5126 0.421 0.892 0.165 82 60 36 0 0
-0.0329 0.1156 -0.5528 0.407 0.871 0.274 116 95 65 0 0
-0.0327 0.1160 -0.5544 0.407 0.871 0.274 119 98 69 0 0
-0.0326 0.1164 -0.5560 0.407 0.871 0.274 125 106 76 0 0
-0.0609 0.0365 -0.6266 0.411 0.464 0.784 25 18 10 0 0
-0.0444 0.0800 -0.6408 0.506 0.555 0.660 65 57 47 0 0
-0.0378 0.0970 -0.6533 0.566 0.624 0.539 62 53 41 0 0
-0.0374 0.0980 -0.6546 0.563 0.767 0.308 59 50 40 0 0
-0.0205 0.1398 -0.7162 0.423 0.768 0.480 125 109 87 0 0
-0.0186 0.1441 -0.7352 0.380 0.921 -0.086 152 132 89 0 0
-0.0256 0.1225 -0.7846 -0.021 0.662 0.749 48 39 27 0 0
-0.0251 0.1237 -0.7857 -0.021 0.662 0.749 57 48 33 0 0
-0.0161 0.1452 -0.8315 0.220 0.915 0.338 116 97 63 0 0
-0.0137 0.1514 -0.8366 0.420 0.907 0.041 118 103 63 0 0
-0.0046 0.1741 -0.8672 0.098 0.994 0.057 198 197 195 0 0
-0.0835 -0.0077 -0.2433 -0.610 0.679 0.407 118 104 91 0 0
-0.0831 -0.0066 -0.2447 -0.654 0.697 0.293 113 102 88 0 0
-0.0585 0.0548 -0.3290 0.176 0.946 0.271 114 98 71 0 0
-0.0574 0.0559 -0.3604 0.190 0.981 0.046 42 35 23 0 0
-0.0431 0.0906 -0.4281 0.418 0.812 0.406 64 50 29 0 0
-0.0325 0.1147 -0.5075 0.341 0.909 0.238 48 27 8 0 0
-0.0323 0.1152 -0.5090 0.367 0.839 0.403 63 41 20 0 0
-0.0321 0.1156 -0.5106 0.348 0.809 0.474 83 61 38 0 0
-0.0313 0.1152 -0.5527 0.442 0.860 0.255 127 106 75 0 0
-0.0312 0.1155 -0.5562 0.419 0.895 0.151 98 79 48 0 0
-0.0311 0.1157 -0.5580 0.459 0.883 0.098 124 106 75 0 0
-0.0427 0.0796 -0.6407 0.817 0.397 0.418 65 57 46 0 0
-0.0305 0.1099 -0.6859 0.660 0.751 0.016 21 17 14 0 0
-0.0319 0.1054 -0.6973 0.782 0.429 0.452 10 8 9 0 0
-0.0191 0.1388 -0.7165 0.219 0.786 0.578 111 96 75 0 0
-0.0246 0.1201 -0.7840 0.301 0.847 0.437 34 25 16 0 0
-0.0195 0.1330 -0.8007 0.237 0.873 0.427 92 76 54 0 0
-0.0126 0.1493 -0.8379 0.323 0.848 0.421 113 96 56 0 0
-0.0123 0.1500 -0.8395 0.323 0.848 0.421 136 119 77 0 0
-0.0102 0.1545 -0.8616 0.373 0.902 0.215 38 35 28 0 0
-0.0104 0.1537 -0.8646 -0.040 0.930 0.365 68 66 54 0 0
-0.0016 0.1772 -0.8702 0.035 0.828 0.560 202 201 199 0 0
-0.0669 0.0307 -0.2739 0.326 0.859 0.395 107 90 61 0 0
-0.0415 0.0903 -0.4296 0.372 0.852 0.367 80 64 45 0 0
-0.0321 0.1121 -0.4889 0.233 0.841 0.488 65 50 31 0 0
-0.0310 0.1140 -0.5093 0.488 0.817 0.307 70 49 25 0 0
-0.0299 0.1143 -0.5529 0.496 0.843 0.206 106 87 53 0 0
-0.0298 0.1146 -0.5546 0.547 0.781 0.302 130 111 76 0 0
-0.0500 0.0556 -0.6299 0.256 0.566 0.784 69 60 50 0 0
-0.0497 0.0563 -0.6314 0.520 0.572 0.634 70 61 52 0 0
-0.0413 0.0782 -0.6412 0.633 0.566 0.528 75 67 57 0 0
-0.0410 0.0791 -0.6426 0.633 0.566 0.528 60 52 43 0 0
-0.0418 0.0768 -0.6462 0.500 0.860 0.101 74 65 56 0 0
-0.0316 0.1030 -0.6683 0.514 0.779 0.359 17 14 8 0 0
-0.0274 0.1118 -0.7105 -0.107 0.508 0.855 45 42 37 0 0
-0.0151 0.1439 -0.7323 0.497 0.857 -0.137 146 124 89 0 0
-0.0181 0.1318 -0.7991 0.250 0.873 0.419 74 60 36 0 0
-0.0178 0.1325 -0.8007 0.250 0.873 0.419 84 70 45 0 0
-0.0106 0.1498 -0.8392 0.268 0.929 0.256 127 109 67 0 0
-0.0102 0.1506 -0.8427 0.268 0.929 0.256 145 128 89 0 0
-0.0088 0.1534 -0.8599 0.314 0.903 0.294 32 33 25 0 0
-0.0086 0.1539 -0.8616 0.373 0.902 0.215 37 35 28 0 0
-0.0086 0.1536 -0.8641 -0.040 0.930 0.365 68 65 54 0 0
-0.0654 0.0302 -0.2739 0.326 0.859 0.395 117 98 69 0 0
-0.0594 0.0443 -0.3089 0.231 0.813 0.535 140 120 86 0 0
-0.0459 0.0775 -0.3668 -0.237 0.922 0.306 137 122 90 0 0
-0.0429 0.0850 -0.3789 0.261 0.848 0.462 62 47 32 0 0
-0.0404 0.0897 -0.4142 0.325 0.927 0.186 71 54 38 0 0
-0.0401 0.0903 -0.4156 0.196 0.846 0.496 64 48 32 0 0
-0.0386 0.0921 -0.4529 0.256 0.931 0.262 88 73 50 0 0
-0.0294 0.1135 -0.5128 0.421 0.754 0.504 87 63 37 0 0
-0.0288 0.1129 -0.5515 0.478 0.869 0.129 133 117 81 0 0
-0.0286 0.1133 -0.5531 0.593 0.805 0.013 128 112 75 0 0
-0.0544 0.0388 -0.6219 0.549 0.816 0.179 33 26 20 0 0
-0.0483 0.0552 -0.6298 0.309 0.501 0.808 66 57 48 0 0
-0.0329 0.0954 -0.6551 0.522 0.711 0.470 43 38 32 0 0
-0.0174 0.1314 -0.7545 0.211 0.834 -0.510 70 62 44 0 0
-0.0195 0.1249 -0.7662 0.108 0.894 -0.435 67 58 41 0 0
-0.0201 0.1232 -0.7697 0.108 0.894 -0.435 54 44 33 0 0
-0.0173 0.1294 -0.7921 0.274 0.877 0.395 68 56 34 0 0
-0.0099 0.1467 -0.8371 0.214 0.731 0.648 106 89 55 0 0
-0.0072 0.1525 -0.8623 0.131 0.986 0.101 39 38 32 0 0
-0.0761 -0.0016 -0.2429 -0.254 0.900 0.354 95 82 61 0 0
-0.0541 0.0527 -0.3340 0.401 0.816 0.416 94 82 56 0 0
-0.0443 0.0773 -0.3666 -0.002 0.899 0.438 151 135 105 0 0
-0.0438 0.0786 -0.3678 0.073 0.905 0.420 168 152 116 0 0
-0.0386 0.0899 -0.4155 0.196 0.846 0.496 63 46 30 0 0
-0.0383 0.0898 -0.4293 0.212 0.928 0.307 67 48 31 0 0
-0.0317 0.1046 -0.4816 0.380 0.763 0.523 100 85 66 0 0
-0.0272 0.1138 -0.5268 0.313 0.925 -0.216 97 77 50 0 0
-0.0521 0.0401 -0.6207 0.369 0.929 -0.035 32 26 20 0 0
-0.0397 0.0729 -0.6379 0.225 0.678 0.700 87 78 70 0 0
-0.0380 0.0773 -0.6410 0.363 0.523 0.771 56 49 42 0 0
-0.0314 0.0944 -0.6554 0.584 0.705 0.401 45 40 34 0 0
-0.0083 0.1461 -0.8371 0.240 0.733 0.636 103 85 52 0 0
-0.0054 0.1525 -0.8618 0.295 0.945 0.144 34 34 28 0 0
-0.0426 0.0773 -0.3664 -0.039 0.867 0.497 148 130 102 0 0
-0.0380 0.0879 -0.3991 0.339 0.940 0.035 70 54 32 0 0
-0.0373 0.0887 -0.4140 0.295 0.920 0.258 54 36 21 0 0
-0.0370 0.0895 -0.4154 0.196 0.846 0.496 57 38 23 0 0
-0.0367 0.0895 -0.4309 0.349 0.864 0.362 70 52 36 0 0
-0.0357 0.0908 -0.4512 0.256 0.931 0.262 89 75 48 0 0
-0.0499 0.0412 -0.6196 0.967 0.242 -0.083 31 24 18 0 0
-0.0387 0.0707 -0.6369 0.083 0.647 0.758 80 71 64 0 0
-0.0381 0.0722 -0.6379 0.111 0.647 0.754 75 66 59 0 0
-0.0207 0.1152 -0.7127 0.180 0.860 0.478 60 55 51 0 0
-0.0192 0.1194 -0.7115 0.007 0.518 0.855 60 54 51 0 0
-0.0104 0.1421 -0.7302 0.370 0.911 -0.181 119 102 66 0 0
-0.0104 0.1420 -0.7324 0.457 0.882 -0.115 105 90 56 0 0
-0.0118 0.1373 -0.7444 0.367 0.822 -0.435 107 95 69 0 0
-0.0091 0.1403 -0.8136 0.369 0.825 0.429 73 52 29 0 0
-0.0086 0.1414 -0.8170 0.315 0.918 0.239 78 55 30 0 0
-0.0082 0.1423 -0.8205 0.452 0.851 0.266 111 95 62 0 0
-0.0415 0.0759 -0.3667 -0.081 0.651 0.755 138 119 97 0 0
-0.0365 0.0873 -0.3990 0.330 0.922 0.204 75 59 37 0 0
-0.0359 0.0882 -0.4140 0.298 0.909 0.292 67 48 32 0 0
-0.0332 0.0921 -0.4661 0.173 0.808 0.563 98 86 64 0 0
-0.0490 0.0384 -0.6209 0.950 0.311 0.012 33 26 18 0 0
-0.0307 0.0866 -0.6499 0.283 0.677 0.679 35 30 26 0 0
-0.0245 0.1016 -0.6816 0.570 0.773 0.278 15 14 13 0 0
-0.0089 0.1411 -0.7327 0.370 0.911 -0.181 118 102 71 0 0
-0.0098 0.1382 -0.7412 0.354 0.835 -0.421 112 98 65 0 0
-0.0103 0.1365 -0.7447 0.363 0.821 -0.440 101 90 61 0 0
-0.0156 0.1200 -0.7730 0.237 0.867 -0.439 40 32 22 0 0
-0.0163 0.1179 -0.7769 0.381 0.911 -0.158 30 21 14 0 0
-0.0066 0.1416 -0.8206 0.406 0.853 0.327 90 72 38 0 0
-0.0038 0.1480 -0.8408 0.404 0.914 0.043 141 122 85 0 0
-0.0037 0.1481 -0.8429 0.426 0.903 0.060 116 99 67 0 0
0.0048 0.1703 -0.8631 0.676 0.734 0.057 195 194 192 0 0
-0.0554 0.0374 -0.3003 0.378 0.814 0.440 139 115 81 0 0
-0.0315 0.0920 -0.4676 0.262 0.846 0.465 129 113 88 0 0
-0.0246 0.1087 -0.5016 0.582 0.805 0.115 87 70 43 0 0
-0.0292 0.0908 -0.5784 0.921 0.153 -0.357 62 51 36 0 0
-0.0473 0.0380 -0.6208 0.696 0.336 0.635 36 29 21 0 0
-0.0445 0.0453 -0.6263 0.533 0.734 0.421 60 50 40 0 0
-0.0447 0.0443 -0.6289 0.836 0.460 0.300 67 59 47 0 0
-0.0450 0.0433 -0.6316 0.521 0.330 0.787 71 63 51 0 0
-0.0292 0.0860 -0.6499 0.566 0.698 0.439 32 27 23 0 0
-0.0280 0.0889 -0.6519 0.213 0.909 0.359 25 20 17 0 0
-0.0279 0.0891 -0.6538 0.221 0.975 0.012 22 18 15 0 0
-0.0229 0.1008 -0.6837 0.590 0.791 0.162 9 7 8 0 0
-0.0218 0.1037 -0.6857 0.499 0.601 0.624 6 4 5 0 0
-0.0241 0.0957 -0.7121 0.255 0.907 0.337 19 15 14 0 0
-0.0175 0.1139 -0.7127 0.095 0.356 0.929 57 52 48 0 0
-0.0098 0.1349 -0.7147 0.459 0.737 0.496 129 115 93 0 0
-0.0095 0.1356 -0.7162 0.281 0.814 0.508 85 70 48 0 0
-0.0089 0.1372 -0.7190 0.281 0.814 0.508 50 34 15 0 0
-0.0072 0.1415 -0.7258 0.465 0.879 0.106 81 68 46 0 0
-0.0133 0.1217 -0.7689 -0.122 0.929 -0.349 45 39 25 0 0
-0.0137 0.1202 -0.7723 0.028 0.911 -0.412 61 53 42 0 0
-0.0020 0.1473 -0.8474 0.098 0.956 0.276 129 110 76 0 0
-0.0003 0.1512 -0.8591 0.339 0.895 0.290 45 46 37 0 0
0.0020 0.1571 -0.8688 0.190 -0.222 0.957 183 182 180 0 0
0.0048 0.1647 -0.8701 0.162 0.968 0.191 198 198 196 0 0
0.0050 0.1650 -0.8721 0.219 0.976 -0.014 199 199 197 0 0
-0.0313 0.0891 -0.4476 0.278 0.906 0.319 70 52 30 0 0
-0.0280 0.0964 -0.4757 0.530 0.804 0.270 90 75 51 0 0
-0.0220 0.1078 -0.5472 0.599 0.800 0.047 105 90 63 0 0
-0.0461 0.0358 -0.6217 0.406 0.036 0.913 32 25 19 0 0
-0.0438 0.0420 -0.6280 -0.050 0.711 0.702 61 51 41 0 0
-0.0433 0.0431 -0.6293 -0.095 0.726 0.681 69 61 51 0 0
-0.0431 0.0436 -0.6310 -0.086 0.964 0.253 70 62 51 0 0
-0.0204 0.1028 -0.6859 0.499 0.601 0.624 6 4 5 0 0
-0.0236 0.0931 -0.6951 0.833 0.547 0.087 6 4 5 0 0
-0.0228 0.0947 -0.7062 -0.251 0.949 0.193 8 8 8 0 0
-0.0226 0.0951 -0.7080 -0.251 0.949 0.193 11 9 10 0 0
-0.0113 0.1220 -0.7681 0.085 0.911 -0.404 47 41 26 0 0
-0.0118 0.1205 -0.7715 0.028 0.911 -0.412 55 47 35 0 0
-0.0131 0.1161 -0.7816 0.362 0.773 0.520 43 33 23 0 0
-0.0087 0.1274 -0.7955 0.262 0.895 0.361 39 24 17 0 0
-0.0054 0.1354 -0.8099 0.367 0.893 0.262 67 49 29 0 0
-0.0051 0.1361 -0.8114 0.286 0.912 0.294 75 57 37 0 0
0.0010 0.1499 -0.8598 0.246 0.928 0.280 52 51 43 0 0
0.0047 0.1596 -0.8658 0.180 -0.231 0.956 184 183 181 0 0
-0.0706 -0.0098 -0.2374 0.290 0.757 0.585 174 162 141 0 0
-0.0492 0.0441 -0.3142 0.163 0.887 0.431 112 93 63 0 0
-0.0490 0.0448 -0.3157 0.163 0.887 0.431 104 84 55 0 0
-0.0329 0.0844 -0.3860 0.167 0.972 0.164 66 48 26 0 0
-0.0327 0.0849 -0.3875 0.168 0.951 0.261 69 51 29 0 0
-0.0302 0.0881 -0.4391 0.464 0.882 0.085 80 60 38 0 0
-0.0286 0.0902 -0.4696 0.345 0.525 0.778 115 100 83 0 0
-0.0281 0.0915 -0.4725 0.635 0.628 0.449 93 78 59 0 0
-0.0267 0.0952 -0.4760 0.568 0.754 0.330 95 80 59 0 0
-0.0219 0.1059 -0.5132 0.583 0.740 0.335 87 69 43 0 0
-0.0205 0.1073 -0.5471 0.533 0.837 0.124 84 69 47 0 0
-0.0418 0.0422 -0.6274 0.041 0.850 0.526 57 47 37 0 0
-0.0412 0.0437 -0.6305 -0.086 0.964 0.253 63 54 45 0 0
-0.0238 0.0901 -0.6603 0.631 0.537 0.560 34 31 26 0 0
-0.0222 0.0910 -0.7064 0.612 0.790 -0.004 7 7 7 0 0
-0.0217 0.0923 -0.7075 -0.219 0.668 0.711 10 10 9 0 0
-0.0064 0.1283 -0.7984 0.343 0.747 0.570 86 74 55 0 0
-0.0039 0.1347 -0.8078 0.196 0.951 0.240 69 51 32 0 0
-0.0028 0.1373 -0.8163 0.472 0.825 0.311 77 55 32 0 0
-0.0695 -0.0113 -0.2327 0.125 0.935 0.331 178 179 180 0 0
-0.0693 -0.0108 -0.2342 0.125 0.935 0.331 171 169 165 0 0
-0.0688 -0.0096 -0.2372 0.395 0.828 0.397 150 138 120 0 0
-0.0506 0.0365 -0.3016 0.455 0.697 0.554 147 129 96 0 0
-0.0447 0.0503 -0.3367 0.270 0.874 0.404 56 43 27 0 0
-0.0442 0.0499 -0.3621 0.518 0.676 0.524 51 41 28 0 0
-0.0439 0.0507 -0.3635 0.200 0.919 0.340 48 38 25 0 0
-0.0305 0.0854 -0.4005 0.232 0.885 0.403 62 38 20 0 0
-0.0303 0.0858 -0.4020 0.341 0.881 0.328 73 52 33 0 0
-0.0290 0.0872 -0.4305 0.306 0.927 0.217 64 46 30 0 0
-0.0282 0.0883 -0.4491 0.493 0.865 0.094 75 55 33 0 0
-0.0281 0.0884 -0.4508 0.493 0.865 0.094 68 49 28 0 0
-0.0253 0.0943 -0.4761 0.414 0.793 0.447 111 101 80 0 0
-0.0248 0.0954 -0.4791 0.492 0.836 0.242 129 117 96 0 0
-0.0245 0.0961 -0.4805 0.474 0.804 0.360 102 89 69 0 0
-0.0240 0.0974 -0.4834 0.469 0.697 0.543 96 81 62 0 0
-0.0216 0.1007 -0.5304 0.210 0.885 0.416 98 82 54 0 0
-0.0217 0.1001 -0.5344 0.142 0.990 0.013 102 85 58 0 0
-0.0215 0.1005 -0.5360 -0.055 0.992 0.114 96 78 49 0 0
-0.0214 0.1006 -0.5378 -0.182 0.979 0.091 87 71 42 0 0
-0.0191 0.1062 -0.5474 0.214 0.974 0.075 63 48 31 0 0
-0.0430 0.0341 -0.6220 0.414 0.301 0.859 42 35 29 0 0
-0.0430 0.0339 -0.6241 0.235 0.529 0.816 46 39 31 0 0
-0.0400 0.0421 -0.6271 0.326 0.700 0.636 68 60 49 0 0
-0.0393 0.0438 -0.6301 -0.024 0.945 0.326 67 59 48 0 0
-0.0209 0.0896 -0.7070 0.842 0.366 0.395 8 8 8 0 0
-0.0066 0.1256 -0.7600 0.306 0.898 -0.317 71 59 38 0 0
-0.0099 0.1146 -0.7818 0.300 0.907 0.296 30 18 13 0 0
-0.0089 0.1175 -0.7837 0.117 0.850 0.514 37 27 16 0 0
-0.0068 0.1228 -0.7898 0.315 0.918 0.241 78 66 44 0 0
-0.0065 0.1235 -0.7914 0.401 0.832 0.385 83 71 49 0 0
-0.0021 0.1345 -0.8097 0.180 0.878 0.444 71 54 34 0 0
-0.0017 0.1354 -0.8110 0.077 0.971 0.224 69 51 31 0 0
-0.0011 0.1369 -0.8162 0.138 0.945 0.296 76 56 32 0 0
-0.0685 -0.0132 -0.2330 0.434 0.790 0.433 179 179 181 0 0
-0.0532 0.0262 -0.2799 0.398 0.827 0.398 170 151 113 0 0
-0.0459 0.0436 -0.3205 0.211 0.914 0.346 105 90 64 0 0
-0.0290 0.0849 -0.4004 0.269 0.908 0.322 60 39 20 0 0
-0.0238 0.0936 -0.4762 0.414 0.793 0.447 110 102 84 0 0
-0.0234 0.0947 -0.4791 0.675 0.685 0.274 129 116 91 0 0
-0.0230 0.0955 -0.4805 0.529 0.838 0.133 118 104 80 0 0
-0.0198 0.1010 -0.5262 0.771 0.456 0.444 86 70 42 0 0
-0.0200 0.1004 -0.5302 0.186 0.970 0.153 83 66 39 0 0
-0.0201 0.0998 -0.5324 0.337 0.911 -0.237 86 71 46 0 0
-0.0201 0.0997 -0.5342 0.267 0.961 -0.066 93 78 53 0 0
-0.0198 0.1003 -0.5358 -0.019 0.992 0.128 90 75 49 0 0
-0.0187 0.0933 -0.6712 0.557 0.826 0.089 18 16 14 0 0
-0.0183 0.0934 -0.6853 0.618 0.642 0.454 7 7 7 0 0
-0.0178 0.0946 -0.6865 0.552 0.442 0.707 6 6 6 0 0
-0.0174 0.0955 -0.6878 0.655 0.429 0.622 5 5 5 0 0
-0.0187 0.0906 -0.7058 0.735 0.304 0.606 7 7 7 0 0
-0.0168 0.0955 -0.7124 0.096 0.875 0.475 40 36 33 0 0
-0.0015 0.1368 -0.7337 0.427 0.904 0.014 102 85 60 0 0
-0.0013 0.1373 -0.7353 0.395 0.909 0.136 68 51 25 0 0
-0.0049 0.1253 -0.7597 0.181 0.953 -0.242 104 88 63 0 0
-0.0063 0.1206 -0.7678 0.235 0.814 -0.532 74 66 48 0 0
-0.0062 0.1195 -0.7857 0.484 0.759 0.435 69 57 40 0 0
-0.0049 0.1228 -0.7914 0.348 0.864 0.364 74 62 40 0 0
-0.0045 0.1239 -0.7926 0.225 0.928 0.296 77 65 42 0 0
-0.0031 0.1271 -0.8006 0.444 0.816 0.371 94 81 55 0 0
-0.0029 0.1278 -0.8022 0.498 0.809 0.311 84 70 47 0 0
-0.0004 0.1340 -0.8096 0.159 0.952 0.263 74 55 35 0 0
0.0058 0.1483 -0.8507 0.158 0.863 0.480 142 125 90 0 0
0.0064 0.1497 -0.8560 0.023 0.992 0.124 117 110 85 0 0
-0.0670 -0.0140 -0.2330 0.434 0.790 0.433 178 179 180 0 0
-0.0443 0.0432 -0.3205 0.211 0.914 0.346 114 99 73 0 0
-0.0440 0.0440 -0.3219 0.185 0.883 0.432 105 92 65 0 0
-0.0437 0.0446 -0.3233 0.185 0.883 0.432 86 69 43 0 0
-0.0419 0.0488 -0.3352 0.546 0.748 0.378 59 47 31 0 0
-0.0258 0.0862 -0.4391 0.472 0.804 0.362 77 57 34 0 0
-0.0254 0.0867 -0.4475 0.227 0.926 0.302 70 52 30 0 0
-0.0258 0.0854 -0.4499 0.311 0.932 0.185 63 46 27 0 0
-0.0255 0.0860 -0.4514 0.409 0.877 0.253 53 36 20 0 0
-0.0190 0.0980 -0.5312 0.077 0.391 0.917 69 56 35 0 0
-0.0195 0.0966 -0.5338 -0.406 0.763 0.502 62 49 30 0 0
-0.0187 0.0986 -0.5345 -0.434 0.881 0.190 58 45 27 0 0
-0.0246 0.0725 -0.6569 0.069 0.896 0.439 30 25 20 0 0
-0.0170 0.0928 -0.6711 0.421 0.905 0.055 20 18 18 0 0
-0.0174 0.0909 -0.6826 0.366 0.918 0.153 6 6 6 0 0
-0.0172 0.0910 -0.6866 0.004 0.998 0.056 5 5 5 0 0
-0.0162 0.0938 -0.6866 0.420 0.221 0.880 5 5 5 0 0
-0.0185 0.0868 -0.6937 0.912 0.308 -0.270 4 4 4 0 0
-0.0174 0.0890 -0.7066 0.735 0.304 0.606 8 8 8 0 0
-0.0147 0.0963 -0.7114 0.467 0.447 0.763 41 37 34 0 0
-0.0033 0.1281 -0.7157 0.016 0.300 0.954 82 74 62 0 0
-0.0031 0.1251 -0.7594 0.181 0.953 -0.242 98 83 58 0 0
0.0017 0.1345 -0.8129 0.159 0.952 0.263 79 59 34 0 0
0.0075 0.1481 -0.8504 0.082 0.930 0.358 146 130 95 0 0
0.0079 0.1487 -0.8564 0.105 0.970 0.219 89 83 59 0 0
-0.0656 -0.0148 -0.2330 0.434 0.790 0.433 178 179 181 0 0
-0.0523 0.0195 -0.2749 0.335 0.829 0.448 101 88 69 0 0
-0.0408 0.0471 -0.3355 0.483 0.872 0.076 56 46 31 0 0
-0.0401 0.0492 -0.3365 0.314 0.712 0.628 43 35 21 0 0
-0.0253 0.0845 -0.4188 0.328 0.926 0.188 75 57 37 0 0
-0.0243 0.0845 -0.4518 0.668 0.712 0.216 51 35 20 0 0
-0.0187 0.0941 -0.5331 0.998 -0.064 0.004 71 62 48 0 0
-0.0195 0.0908 -0.5423 0.956 0.109 -0.271 101 93 82 0 0
-0.0383 0.0315 -0.6224 0.322 0.643 0.695 44 38 27 0 0
-0.0323 0.0476 -0.6325 -0.146 0.725 0.673 79 70 58 0 0
-0.0271 0.0616 -0.6416 0.533 0.774 0.343 40 33 30 0 0
-0.0266 0.0629 -0.6427 0.337 0.674 0.657 31 26 23 0 0
-0.0261 0.0640 -0.6440 0.618 0.402 0.675 43 38 35 0 0
-0.0256 0.0654 -0.6451 0.728 0.575 0.374 59 55 51 0 0
-0.0164 0.0880 -0.6883 0.474 0.845 -0.247 4 4 4 0 0
-0.0173 0.0852 -0.6924 0.831 0.504 -0.233 4 4 4 0 0
-0.0177 0.0838 -0.6955 0.813 0.498 -0.300 4 4 4 0 0
-0.0123 0.0977 -0.7140 0.542 0.442 0.715 45 41 38 0 0
0.0018 0.1360 -0.7334 0.505 0.862 0.030 79 64 37 0 0
-0.0015 0.1246 -0.7592 0.223 0.915 -0.336 77 63 40 0 0
-0.0023 0.1204 -0.7839 -0.189 0.875 0.445 64 51 36 0 0
0.0045 0.1363 -0.8237 0.303 0.911 0.279 104 91 63 0 0
0.0051 0.1377 -0.8289 0.354 0.656 0.667 101 89 59 0 0
0.0093 0.1478 -0.8501 0.334 0.915 0.227 132 116 81 0 0
0.0095 0.1482 -0.8518 0.335 0.912 0.236 141 125 84 0 0
0.0098 0.1487 -0.8580 0.259 0.850 0.458 48 47 37 0 0
-0.0641 -0.0156 -0.2330 0.434 0.790 0.433 178 179 181 0 0
-0.0643 -0.0162 -0.2348 0.194 0.596 0.779 178 179 179 0 0
-0.0547 0.0089 -0.2612 0.222 0.823 0.524 102 90 76 0 0
-0.0544 0.0096 -0.2626 0.433 0.729 0.531 162 148 127 0 0
-0.0537 0.0115 -0.2654 0.485 0.794 0.367 149 133 99 0 0
-0.0446 0.0342 -0.3048 0.379 0.703 0.602 88 72 56 0 0
-0.0436 0.0364 -0.3090 0.311 0.785 0.536 54 44 32 0 0
-0.0424 0.0394 -0.3146 0.464 0.816 0.345 85 72 59 0 0
-0.0238 0.0840 -0.4170 0.236 0.947 0.219 62 44 24 0 0
-0.0233 0.0844 -0.4307 0.431 0.888 0.164 89 68 47 0 0
-0.0233 0.0836 -0.4397 0.497 0.828 0.259 72 52 31 0 0
-0.0230 0.0840 -0.4465 0.553 0.830 0.070 64 46 26 0 0
-0.0243 0.0791 -0.4594 0.375 0.828 0.416 38 26 16 0 0
-0.0242 0.0793 -0.4611 0.084 0.960 0.267 41 28 16 0 0
-0.0239 0.0800 -0.4625 0.143 0.933 0.329 44 32 19 0 0
-0.0164 0.0978 -0.5034 0.710 0.544 -0.448 72 58 41 0 0
-0.0344 0.0366 -0.6269 0.459 0.506 0.730 78 70 58 0 0
-0.0266 0.0577 -0.6397 0.542 0.632 0.554 73 68 62 0 0
-0.0263 0.0586 -0.6411 0.542 0.632 0.554 59 54 49 0 0
-0.0258 0.0600 -0.6422 0.638 0.734 0.235 45 40 36 0 0
-0.0253 0.0612 -0.6434 0.716 0.478 0.509 28 24 21 0 0
-0.0249 0.0622 -0.6448 0.661 0.191 0.726 26 22 19 0 0
-0.0245 0.0633 -0.6461 0.732 0.279 0.622 57 54 49 0 0
-0.0241 0.0642 -0.6475 0.759 0.355 0.546 61 58 51 0 0
-0.0236 0.0658 -0.6485 0.847 0.454 0.277 48 45 38 0 0
-0.0233 0.0664 -0.6501 0.819 0.512 0.260 47 42 38 0 0
-0.0230 0.0672 -0.6516 0.774 0.567 0.281 53 48 45 0 0
-0.0216 0.0707 -0.6553 0.444 0.488 0.752 35 32 27 0 0
-0.0147 0.0887 -0.6772 0.487 0.727 -0.485 6 6 6 0 0
-0.0151 0.0870 -0.6824 0.769 0.587 -0.253 3 3 3 0 0
0.0020 0.1327 -0.7192 0.133 0.774 0.619 114 99 74 0 0
0.0033 0.1351 -0.7336 0.505 0.862 0.030 88 73 46 0 0
-0.0024 0.1155 -0.7747 0.259 0.848 -0.463 43 34 21 0 0
-0.0007 0.1197 -0.7818 0.411 0.905 0.112 46 32 19 0 0
0.0109 0.1473 -0.8500 -0.028 0.947 0.321 134 118 82 0 0
0.0111 0.1478 -0.8517 0.194 0.830 0.523 140 123 82 0 0
0.0114 0.1481 -0.8580 0.259 0.850 0.458 68 67 55 0 0
-0.0540 0.0062 -0.2585 0.331 0.819 0.469 36 28 18 0 0
-0.0424 0.0353 -0.3075 0.523 0.755 0.396 40 28 21 0 0
-0.0422 0.0358 -0.3090 0.311 0.785 0.536 40 29 25 0 0
-0.0415 0.0374 -0.3118 0.500 0.769 0.399 37 26 22 0 0
-0.0226 0.0838 -0.4015 0.222 0.931 0.289 81 64 40 0 0
-0.0214 0.0838 -0.4428 0.301 0.922 0.244 67 49 29 0 0
-0.0212 0.0842 -0.4444 0.301 0.922 0.244 66 48 28 0 0
-0.0238 0.0760 -0.4553 0.767 0.500 0.403 49 34 18 0 0
-0.0231 0.0778 -0.4580 0.671 0.539 0.509 34 21 11 0 0
-0.0228 0.0784 -0.4594 0.835 0.530 0.146 38 26 15 0 0
-0.0355 0.0286 -0.6213 0.737 0.185 0.650 60 54 40 0 0
-0.0350 0.0301 -0.6224 0.692 0.451 0.563 66 59 48 0 0
-0.0333 0.0346 -0.6257 0.422 0.338 0.841 84 78 66 0 0
-0.0329 0.0356 -0.6271 0.459 0.506 0.730 83 75 62 0 0
-0.0319 0.0383 -0.6274 0.086 0.472 0.878 113 105 92 0 0
-0.0264 0.0536 -0.6359 0.850 0.423 0.314 86 77 68 0 0
-0.0228 0.0630 -0.6458 0.884 0.116 0.454 43 40 36 0 0
-0.0227 0.0629 -0.6479 0.779 0.346 0.523 66 63 57 0 0
-0.0222 0.0644 -0.6489 0.814 0.457 0.359 49 46 39 0 0
-0.0219 0.0652 -0.6505 0.737 0.613 0.286 39 34 29 0 0
-0.0216 0.0657 -0.6522 0.737 0.613 0.286 30 25 22 0 0
-0.0213 0.0664 -0.6537 0.551 0.623 0.555 14 9 8 0 0
-0.0197 0.0709 -0.6567 0.263 0.298 0.917 44 39 36 0 0
-0.0192 0.0722 -0.6578 0.394 0.240 0.887 46 42 39 0 0
-0.0197 0.0704 -0.6611 0.515 0.800 -0.307 26 23 21 0 0
-0.0148 0.0820 -0.6897 0.816 0.490 -0.307 3 3 3 0 0
-0.0162 0.0772 -0.6994 0.556 0.630 -0.542 4 4 4 0 0
-0.0150 0.0800 -0.7077 0.529 0.166 0.832 9 9 9 0 0
0.0014 0.1223 -0.7601 -0.287 0.935 0.208 45 33 18 0 0
0.0009 0.1190 -0.7819 0.651 0.756 0.068 59 46 31 0 0
0.0008 0.1183 -0.7889 0.170 0.881 0.442 57 44 28 0 0
0.0074 0.1345 -0.8199 0.445 0.794 0.414 94 78 45 0 0
0.0104 0.1413 -0.8397 0.206 0.975 0.077 128 109 73 0 0
0.0126 0.1469 -0.8498 0.059 0.960 0.275 145 131 92 0 0
0.0128 0.1472 -0.8517 0.271 0.797 0.540 142 125 84 0 0
0.0135 0.1486 -0.8614 0.377 0.891 0.254 61 59 53 0 0
-0.0516 0.0080 -0.2627 0.346 0.818 0.460 125 114 98 0 0
-0.0346 0.0485 -0.3595 0.445 0.787 0.427 31 24 21 0 0
-0.0218 0.0819 -0.3953 0.176 0.959 0.223 79 62 40 0 0
-0.0216 0.0823 -0.3968 0.176 0.959 0.223 82 64 42 0 0
-0.0215 0.0826 -0.3984 0.222 0.931 0.289 80 62 38 0 0
-0.0209 0.0837 -0.4047 0.503 0.848 0.168 79 62 36 0 0
-0.0208 0.0840 -0.4063 0.424 0.899 0.105 87 70 43 0 0
-0.0210 0.0797 -0.4497 -0.132 0.938 0.320 52 35 19 0 0
-0.0330 0.0302 -0.6240 0.513 0.546 0.663 39 32 24 0 0
-0.0317 0.0338 -0.6258 0.615 0.216 0.759 84 77 65 0 0
-0.0248 0.0525 -0.6382 0.376 0.170 0.911 85 78 68 0 0
-0.0239 0.0552 -0.6385 0.275 0.545 0.792 70 64 55 0 0
-0.0228 0.0579 -0.6428 0.672 0.732 0.111 53 48 44 0 0
-0.0224 0.0590 -0.6441 0.815 0.382 0.435 31 26 25 0 0
-0.0220 0.0600 -0.6454 0.867 0.256 0.427 18 14 13 0 0
-0.0218 0.0604 -0.6471 0.773 0.027 0.634 25 21 18 0 0
-0.0216 0.0609 -0.6489 0.756 0.298 0.583 54 51 46 0 0
-0.0210 0.0625 -0.6498 0.751 0.357 0.556 61 58 51 0 0
-0.0206 0.0634 -0.6513 0.739 0.561 0.373 43 39 34 0 0
-0.0203 0.0643 -0.6527 0.737 0.613 0.286 30 25 22 0 0
-0.0199 0.0652 -0.6541 0.675 0.493 0.549 18 13 13 0 0
-0.0179 0.0704 -0.6586 0.443 0.367 0.818 53 48 45 0 0
-0.0182 0.0693 -0.6614 0.515 0.800 -0.307 31 28 25 0 0
-0.0183 0.0689 -0.6637 0.652 0.685 -0.326 13 11 12 0 0
-0.0149 0.0751 -0.7066 0.544 0.248 0.802 4 4 4 0 0
-0.0136 0.0785 -0.7083 0.560 0.196 0.805 11 11 11 0 0
-0.0017 0.1122 -0.7160 -0.405 0.629 0.663 50 45 42 0 0
0.0037 0.1242 -0.7560 -0.158 0.949 -0.271 54 41 23 0 0
0.0027 0.1208 -0.7630 -0.043 0.902 -0.429 53 41 25 0 0
0.0023 0.1178 -0.7824 0.651 0.756 0.068 52 38 25 0 0
0.0086 0.1328 -0.8165 0.375 0.918 0.126 90 73 44 0 0
0.0120 0.1407 -0.8397 0.083 0.949 0.303 129 111 78 0 0
0.0151 0.1477 -0.8616 0.512 0.852 0.111 59 57 51 0 0
-0.0587 -0.0151 -0.2356 0.140 0.990 0.011 179 179 182 0 0
-0.0329 0.0486 -0.3575 0.481 0.875 0.062 35 28 25 0 0
-0.0203 0.0825 -0.3847 0.050 0.969 -0.244 85 67 47 0 0
-0.0195 0.0808 -0.4297 0.723 0.664 0.190 78 59 38 0 0
-0.0200 0.0790 -0.4323 0.631 0.775 0.025 71 53 32 0 0
-0.0197 0.0785 -0.4482 -0.020 0.980 0.196 57 39 24 0 0
-0.0193 0.0797 -0.4494 0.144 0.969 0.201 52 35 19 0 0
-0.0318 0.0285 -0.6226 0.718 0.373 0.588 78 69 55 0 0
-0.0308 0.0310 -0.6251 0.684 0.279 0.674 82 73 63 0 0
-0.0303 0.0323 -0.6263 0.536 0.321 0.781 97 90 74 0 0
-0.0214 0.0566 -0.6432 0.741 0.671 0.022 58 53 49 0 0
-0.0205 0.0586 -0.6479 0.891 0.314 0.328 20 19 17 0 0
-0.0203 0.0591 -0.6496 0.756 0.298 0.583 36 34 32 0 0
-0.0198 0.0606 -0.6507 0.735 0.294 0.611 58 54 51 0 0
-0.0193 0.0618 -0.6518 0.735 0.294 0.611 52 49 44 0 0
-0.0188 0.0632 -0.6529 0.766 0.525 0.371 31 28 23 0 0
-0.0184 0.0641 -0.6543 0.751 0.357 0.556 21 17 14 0 0
-0.0179 0.0657 -0.6554 0.695 0.247 0.675 18 17 14 0 0
-0.0167 0.0687 -0.6594 0.858 0.310 0.410 43 39 37 0 0
-0.0169 0.0679 -0.6620 0.625 0.746 -0.228 41 39 35 0 0
-0.0170 0.0674 -0.6643 0.652 0.685 -0.326 22 20 20 0 0
-0.0173 0.0663 -0.6671 0.765 0.552 -0.331 19 16 17 0 0
-0.0147 0.0706 -0.7011 0.741 0.052 0.669 4 4 4 0 0
-0.0123 0.0771 -0.7089 0.560 0.196 0.805 15 13 16 0 0
-0.0024 0.1051 -0.7148 0.502 0.582 0.640 51 46 43 0 0
-0.0002 0.1114 -0.7141 -0.446 0.646 0.619 48 43 40 0 0
0.0079 0.1340 -0.7208 0.203 0.939 0.279 81 69 54 0 0
0.0076 0.1320 -0.7347 0.622 0.767 0.158 86 68 42 0 0
0.0072 0.1307 -0.7378 0.422 0.906 0.024 97 80 55 0 0
0.0057 0.1244 -0.7574 -0.291 0.957 -0.016 62 52 29 0 0
0.0045 0.1205 -0.7627 0.172 0.884 -0.434 62 52 31 0 0
0.0041 0.1177 -0.7820 0.414 0.900 0.138 66 53 39 0 0
0.0092 0.1301 -0.8098 0.389 0.807 0.445 78 62 39 0 0
0.0099 0.1312 -0.8174 0.106 0.925 0.365 94 74 41 0 0
0.0102 0.1322 -0.8187 0.225 0.916 0.332 144 125 86 0 0
0.0105 0.1327 -0.8204 0.225 0.916 0.332 151 135 95 0 0
0.0107 0.1333 -0.8220 0.141 0.900 0.412 113 98 67 0 0
0.0110 0.1340 -0.8236 0.095 0.918 0.385 87 73 46 0 0
0.0138 0.1407 -0.8391 0.030 0.886 0.464 103 89 57 0 0
0.0150 0.1439 -0.8405 0.494 0.716 0.494 125 111 77 0 0
0.0154 0.1448 -0.8440 0.388 0.861 0.329 116 102 63 0 0
-0.0315 0.0239 -0.6230 0.753 0.062 0.656 101 92 75 0 0
-0.0303 0.0274 -0.6229 0.821 0.128 0.557 91 82 66 0 0
-0.0196 0.0562 -0.6471 0.894 0.432 0.122 43 40 35 0 0
-0.0195 0.0563 -0.6490 0.908 0.315 0.278 27 25 22 0 0
-0.0193 0.0567 -0.6508 0.797 0.224 0.561 24 21 19 0 0
