ply
format ascii 1.0
element vertex 657
property float x
property float y
property float z
property uchar diffuse_red
property uchar diffuse_green
property uchar diffuse_blue
end_header
0.010780045154373613 -0.0620309675048916 -0.26953015500084987 101 86 57
0.011632541885754216 -0.061634984226178094 -0.27088952352532536 102 88 58
0.012161771798762974 -0.06143739481786182 -0.2723370417964286 103 89 60
0.012485354052287512 -0.061366105321579954 -0.2738417725147084 106 92 64
0.012848933923972003 -0.061270323860013576 -0.275336287203052 104 90 63
0.013010366141184226 -0.06129879366429102 -0.27688830331824865 96 82 53
0.012809737316206243 -0.06154986087610585 -0.27854398964363386 90 77 47
0.01254246704855437 -0.0618421056134239 -0.280221334804482 96 82 55
0.011693276361540897 -0.06249232389795845 -0.2820678712266049 100 86 57
0.011596236272368582 -0.06268045147473572 -0.2837032489989539 101 87 58
0.009675458989350919 -0.06399041598861048 -0.285868229845124 103 89 60
0.009768586676147994 -0.0640621941843634 -0.2874562510253783 102 88 59
0.009934633507846055 -0.06408924544268893 -0.2890246970843443 105 91 61
0.009623293564099869 -0.064410219750815 -0.29073512395455886 104 90 61
0.009343201452856997 -0.06471221125431287 -0.2924394636440916 102 88 58
0.009072761516675729 -0.06500850425787544 -0.2941439892935586 100 86 58
0.008099172590693038 -0.06573807709421053 -0.296062106068992 101 88 61
0.007798824502129778 -0.06605337596008432 -0.2977829306583509 110 96 68
0.008365981351664428 -0.06583442866914549 -0.29924411395340184 125 109 79
0.008528426040260717 -0.06586490469530484 -0.30082873483123984 136 123 89
0.008408562720376822 -0.06606952196506674 -0.3025014041312813 138 125 92
0.007004474566084468 -0.06706613092830847 -0.3045723507392144 123 108 78
0.00678699822135416 -0.06733153002563208 -0.30628258950783255 110 96 68
0.00656949402648839 -0.0675971771722971 -0.30799572599719327 101 86 62
0.005505714803238998 -0.06838518178984612 -0.30997698582130884 88 71 51
0.002073712529954197 -0.07063510969342643 -0.31271048896459763 102 90 66
-0.0006058678819224617 -0.07242173988127718 -0.3152197386337926 101 94 72
-0.014098808106546207 -0.08088536678393946 -0.3211865487746192 98 90 76
-0.020268377671744775 -0.08483055136603905 -0.32485636435898624 74 66 58
-0.026835535743601507 -0.08902323056375402 -0.3286782483995338 66 59 53
-0.03250077533843332 -0.09266072304940545 -0.3322333541806479 74 69 63
-0.03733811305234028 -0.09578838936918771 -0.33554105660888733 73 71 67
-0.03963560308700284 -0.09734773360549842 -0.3380363255632477 138 137 135
-0.06256111371160422 -0.1250220688978671 -0.5145313304899403 191 191 192
-0.06391104083831445 -0.12603590935581377 -0.5172190858810607 135 133 131
-0.06695892840152304 -0.12812316443914193 -0.5207621511777176 84 80 76
-0.06554534727754671 -0.12739217990196383 -0.5220854606583412 75 70 64
-0.06483314434039533 -0.12710431788496312 -0.5237586461637771 44 38 33
-0.06318722041070471 -0.12622608484723044 -0.5249603343502494 56 49 43
-0.06140355937927272 -0.1252604384119399 -0.5260883994005853 52 43 35
-0.061147634894089586 -0.12526088319595785 -0.5279896384462703 43 34 23
-0.06027580774233293 -0.12487175443724562 -0.5295779657513268 56 47 37
-0.05957423451423138 -0.1245903272209 -0.5312529383825118 61 52 44
-0.05874141657308138 -0.12422581118284674 -0.5328603141032667 46 38 28
-0.05757913573196119 -0.12365262247463059 -0.534296809780946 45 38 27
-0.05656216853488294 -0.12317132624228407 -0.5358068577181391 48 40 31
-0.0560642601519592 -0.12301878539653138 -0.5375860959411942 38 29 22
-0.05509144222165885 -0.12256534614580192 -0.5391177167414715 52 42 33
-0.05394942253409918 -0.12200456239005376 -0.5405593665052207 54 44 32
-0.052545609578309505 -0.12127764307927885 -0.5418611925774307 69 60 46
-0.05121417269392775 -0.12059639598387745 -0.5431984453118419 58 49 35
-0.04628007193391798 -0.11762947791938566 -0.542619034965888 61 52 37
-0.04543041284764798 -0.11725293683162416 -0.5442006780400039 63 53 37
-0.04629747472800161 -0.11796596410285828 -0.5467008115240328 54 42 27
-0.043611803352290035 -0.11642396797350943 -0.547297951918697 55 43 28
-0.04263098057482409 -0.11596396136116369 -0.5488066839998991 60 48 33
-0.04158681582289228 -0.11546362566911644 -0.5502799347452658 75 63 48
-0.04117324304397696 -0.11536383242730382 -0.5520945526575715 67 57 41
-0.039925173055723906 -0.11473378182921162 -0.5534549503953845 60 49 36
-0.039435231004489785 -0.11458548862920792 -0.555228334436149 44 31 18
-0.042799056641469574 -0.11688773322654564 -0.5591215072921684 60 48 31
-0.04214006853219737 -0.11663269629963074 -0.5608112849550939 64 52 33
-0.041324809331725026 -0.1162782532040785 -0.5624146499256988 56 44 27
-0.03981930093725325 -0.11548452287709979 -0.563633698252497 64 51 35
-0.03973534145459251 -0.11559537922014482 -0.5656428206848052 68 56 39
-0.039781485789762705 -0.1157892763559323 -0.567727389799656 73 60 41
-0.038387110571403704 -0.11506600989590081 -0.5690050196776066 62 47 26
-0.037287007122369986 -0.11452997012195623 -0.5704458276017506 65 50 30
-0.03575924128062705 -0.11372129048874319 -0.5716426694665863 51 35 17
-0.03457002731963357 -0.11312811305845215 -0.5730285304712069 57 42 25
-0.03465056657776702 -0.11334427848036072 -0.5751369892472653 48 32 13
-0.03278687667293917 -0.11232086975198449 -0.5761350217373271 54 39 18
-0.03253438477359555 -0.11232480056778087 -0.5780544581770066 66 52 31
-0.03195655241680462 -0.11212130156255329 -0.5797880316110346 62 49 26
-0.03143450599129807 -0.11195344542011033 -0.5815544133502307 69 55 33
-0.03091012740713306 -0.1117841593796004 -0.5833201764649274 68 53 31
-0.0304438235132308 -0.1116520148493832 -0.585120548286379 80 65 41
-0.029347716932379364 -0.11111768445025973 -0.5865531413519749 68 54 29
-0.03026441156795856 -0.1118691649289984 -0.5891668284559802 68 54 29
-0.03005041986494933 -0.11189862432155637 -0.5911205443945788 77 63 38
-0.029613418604059583 -0.11178569524096546 -0.5929443230431628 73 58 35
-0.02859149824629162 -0.11129886075657952 -0.5944217558888185 59 45 25
-0.027918642661615478 -0.11103516551248757 -0.5961059046903492 42 29 11
-0.027489489629261676 -0.11092738430409255 -0.5979359691147755 51 39 21
-0.027134596624673046 -0.11086721472815195 -0.5998117746912603 58 44 26
-0.026902300985888278 -0.11088563495449863 -0.6017629301397265 57 41 24
-0.026717979859941537 -0.1109349310234044 -0.6037451013206105 68 52 37
-0.02536866527056436 -0.11023831468299736 -0.6050224511678468 65 50 32
-0.02591328749128169 -0.11075472242570608 -0.6074505115632934 72 60 41
-0.025998733630891474 -0.11097733357336545 -0.6096032840677086 72 61 42
-0.025508274066534192 -0.11083109419660071 -0.6114062023052991 74 64 45
-0.02729149185096208 -0.11214261436346876 -0.6146095750749458 94 83 64
-0.02719171927136127 -0.11224745682313977 -0.6166605717817157 91 79 59
-0.027074438859346794 -0.11234127765095889 -0.6187033305542119 93 79 59
-0.027195629085670636 -0.11258831289671886 -0.6208969764005563 106 94 71
-0.025992979273742944 -0.11198598252220357 -0.6222678218264143 120 108 82
-0.027111203062392675 -0.11287344005791002 -0.6250903245411036 116 102 74
-0.027187757213516822 -0.11309261705732593 -0.627265987564982 129 113 83
-0.027638365214443517 -0.11355233399812376 -0.6296810153760168 134 117 89
-0.02782257245990255 -0.11384129092863735 -0.6319324789102883 130 114 84
-0.02697912329182492 -0.11347010259293154 -0.6335351067860512 126 111 81
-0.02666331580735684 -0.1134380650426641 -0.6354734350128284 135 119 89
-0.027969806794179985 -0.11444935835981904 -0.6384510546501301 139 122 91
-0.02704401053238023 -0.11402553016154979 -0.6400049218678454 142 126 94
-0.027449621380248534 -0.11445823478385964 -0.642415227091222 146 130 97
-0.027546313650646248 -0.1146925239545476 -0.644630832816536 156 140 106
-0.027731076351202394 -0.1149837924050422 -0.6469071076378667 150 134 100
-0.027952528226320994 -0.11529900227297912 -0.6492112152726002 147 131 97
-0.02817430406712612 -0.11561475113780721 -0.6515196680790625 157 141 106
-0.02839666548034489 -0.1159312084413755 -0.6538326486366032 157 141 106
-0.02861934311446865 -0.11624820163820443 -0.6561499928948431 153 138 100
-0.028842421590145773 -0.11656578617436678 -0.658471767889889 159 144 105
-0.028833839300944436 -0.11673432813733844 -0.660644419148147 160 145 106
-0.02885949431731577 -0.11692520443513961 -0.6628429540772385 159 144 105
-0.028991644053382892 -0.11718505189354518 -0.6651157490825033 169 154 113
-0.029838593291039328 -0.1179064937928111 -0.6678701580906964 173 159 118
-0.029351285106920588 -0.11776720262419735 -0.6697366812381289 171 155 116
-0.029627422340905374 -0.11812095229090715 -0.6721180006339327 165 146 108
-0.029787549199727092 -0.11840013007638367 -0.6744254582706122 162 147 107
-0.02949685006699576 -0.11838836215464445 -0.6764314526914054 155 141 101
-0.0297142031554673 -0.11870507364127302 -0.6787847114693843 169 154 114
-0.02969824745603844 -0.11887130685658712 -0.6809830878050792 173 158 118
-0.030020666294190257 -0.11925658914352681 -0.6834161812840142 170 155 115
-0.029455972887120263 -0.11906847702775591 -0.6852449791124782 167 152 110
-0.029384152366545013 -0.11919929419016129 -0.6874139697198369 170 156 111
-0.029472183622171688 -0.1194337951035037 -0.6896963786327605 173 158 114
-0.029092496839387527 -0.1193658217097755 -0.6916581811370277 172 158 114
-0.029331812370639254 -0.11969878561539705 -0.6940521382633382 175 161 116
-0.02990177313135345 -0.12024625829521968 -0.6966812488934566 177 160 116
-0.029521501831377694 -0.12017856751119955 -0.6986509174976687 174 157 114
-0.029515398679720806 -0.12035348679419157 -0.7008850091600485 171 154 111
-0.02966119358654179 -0.1206271365710934 -0.7032294500800045 160 143 100
-0.02961207399822674 -0.12077471744689149 -0.7054400671038639 162 145 102
-0.029702088550917827 -0.12101279120200416 -0.7077524948348888 168 152 110
-0.02955953035246678 -0.12110027247248015 -0.7099031589534563 171 156 112
-0.02949435430184638 -0.1212381886081975 -0.7121117672299838 176 162 118
-0.03085868616143861 -0.12230433946112988 -0.7153474202438348 171 156 113
-0.030572192787307217 -0.12229929621716396 -0.7174064124385671 170 153 110
-0.028799639496749074 -0.12132916391341408 -0.718396065953709 163 146 103
-0.030568340964748975 -0.12265948172857274 -0.7219421912089257 166 149 106
-0.030573907068876305 -0.12284484879996582 -0.7242205871708907 171 155 113
-0.031126004684603914 -0.12338578755840425 -0.7269002495143627 172 157 118
-0.031625615083186065 -0.12389307297062674 -0.7295475656369288 172 158 121
-0.03327185127234372 -0.1251466628842526 -0.7330406618690253 173 160 122
-0.032725647530571056 -0.12497461749152611 -0.7349335577177238 170 158 117
-0.034466974615314616 -0.12629146724381224 -0.7385139142770405 170 158 119
-0.03401942008905062 -0.1261842153214868 -0.7404869047973727 175 162 127
-0.03478395272357898 -0.12686640601912091 -0.7433606094882559 171 157 126
-0.034953271992382684 -0.1271614350216378 -0.7457983346124202 169 158 130
-0.03616864769386602 -0.12813841155954425 -0.7490214302510002 171 164 144
-0.03588504237480744 -0.12813911269697842 -0.7511309135390596 186 182 169
-0.03657107743103927 -0.12877216589610674 -0.7539711710794528 199 195 190
-0.04488706876660287 -0.13800372664148547 -0.8078941423627526 161 153 131
-0.04396469472936143 -0.13759218827636216 -0.8095764517114021 150 141 112
-0.04266129225694909 -0.13693055289007824 -0.8109514638529932 160 148 115
-0.04226659248713899 -0.1368651773530571 -0.8130569786859995 164 149 114
-0.042868148434552555 -0.13745408264653175 -0.8159705334077836 157 142 108
-0.04267014223287374 -0.1375183746886736 -0.8182417269821423 162 146 113
-0.042474132422491595 -0.13758419896276913 -0.8205173068369137 163 147 114
-0.04410355099820873 -0.1388498928360796 -0.824286438920953 164 148 113
-0.043353197419899236 -0.1385521046956505 -0.8261179998893358 163 148 113
-0.042367050985011756 -0.13809926795624383 -0.8277558866685457 158 144 109
-0.04138125009646443 -0.13764656969048716 -0.8293929467468498 158 144 109
-0.04105355993497101 -0.137626804749442 -0.8315728673976828 153 139 106
-0.04025607763613348 -0.1372980059303678 -0.8333654604199827 150 137 103
-0.040372016778396635 -0.1375705667052281 -0.835917420284821 151 138 105
-0.04151435702413747 -0.13851943804765565 -0.8393298015630403 153 139 110
-0.04437067086910623 -0.14059818923008865 -0.8441854685756194 145 131 106
-0.0454027208667388 -0.14147624536825912 -0.8475286280774597 146 133 106
-0.04603866997444667 -0.14209392191377432 -0.8505474615781208 143 132 106
-0.048150237098734616 -0.14368514429378557 -0.854818803970198 120 111 91
-0.0510786966012326 -0.14581632359363556 -0.859796145581097 61 55 38
-0.05310978010012124 -0.14735692345917922 -0.8640301687671996 46 41 27
-0.008034978259762612 -0.06606638863883607 -0.15848457764983498 177 178 176
0.0009810597971108143 -0.06072280885413024 -0.15859591376652832 173 171 164
-0.00035154951265162215 -0.061648852416039436 -0.16026888541440934 149 144 132
-0.001142576670583692 -0.06224708417170049 -0.16186385441878567 118 110 94
0.00012571580726174203 -0.061597104795060385 -0.16314071177394843 132 118 94
0.0009755736588006603 -0.061200699460239455 -0.164481575666242 136 122 92
0.002312924915154127 -0.06050853854124312 -0.16574375878960684 142 127 95
0.005532490092430731 -0.05867429957131422 -0.16670011408777133 145 130 95
0.005206376212857536 -0.058990906273429344 -0.16822539722069108 143 127 93
0.002617031520504895 -0.0606813511692758 -0.17012547384601992 146 130 97
0.0038434632862915097 -0.06005622575667792 -0.17140236199367076 147 131 96
0.004761710195342467 -0.059618059282285724 -0.17272883449573148 146 130 94
0.00483783610964017 -0.0596912303105577 -0.17419660853865027 145 129 93
0.005700183542725945 -0.05928695326049184 -0.17553180523744205 142 128 91
0.007826337820508247 -0.058114767839694166 -0.17664846669232778 138 124 88
0.009146220226854948 -0.05743214826247123 -0.17790036485167066 133 118 84
0.00990703924427222 -0.057089145379175116 -0.17924795844491392 132 116 82
0.010505698073163483 -0.056844679264651185 -0.1806236638894437 130 114 80
0.010941134146194811 -0.05669945805305801 -0.18202843997418983 125 109 75
0.011226943780631854 -0.05664527510343874 -0.1834606138200508 120 104 72
0.011415294478199556 -0.05665045320186671 -0.18491141964427552 111 96 65
0.011021762880938507 -0.057009778252791576 -0.18647011475854372 114 99 67
0.011463354190420383 -0.056861113131233695 -0.18787749833100936 117 102 69
0.011377458272628163 -0.0570335690175094 -0.18938367940304357 113 98 67
0.01121724383924741 -0.05725144351515539 -0.19090595476568284 112 97 68
0.011302410505863877 -0.05732007944816455 -0.19238404764224837 121 106 76
0.011344202678022566 -0.05741526183248229 -0.1938720147601724 124 109 76
0.011393118420649453 -0.0575062430670394 -0.19536032792147762 120 104 71
0.01163090692738794 -0.057482271174707535 -0.1968136112418326 120 104 72
0.011887325797768092 -0.05744703288384762 -0.19826433887879327 123 107 74
0.011881303728707673 -0.057571865641173156 -0.19976798579574573 120 103 73
0.011333506300633359 -0.05802719368632861 -0.20138148933755448 120 103 75
0.012539881963592028 -0.05741299390092194 -0.20264621148813072 118 101 73
0.01227555767358103 -0.05769576138651007 -0.20420675470476723 114 97 69
0.011249155035941871 -0.05844371751833763 -0.20592558957781432 100 83 55
0.011759494504922807 -0.0582542766422532 -0.20733344458703662 102 85 58
0.012264433541242042 -0.05806815093442358 -0.20874265235033293 98 81 55
0.012644312559169382 -0.05795839757958196 -0.21017824669940122 92 76 50
0.01241870865274794 -0.05821843823634912 -0.2117420181307757 99 83 57
0.013269385104574816 -0.057821313948637425 -0.21307999304706585 97 81 55
0.01336637014031905 -0.057884562294575184 -0.21457828167698015 96 80 54
0.013240915173594367 -0.05808385987628309 -0.21612608659052024 100 84 58
0.01354131502807722 -0.058023069967121255 -0.2175837411838144 100 84 58
0.01355999925476617 -0.05813457065854121 -0.21910394688693532 105 89 63
0.013863345392098408 -0.05807216571834589 -0.22056326426587888 105 89 63
0.01464312906614361 -0.057718457420805516 -0.2219177196120139 103 89 60
0.010632777273672858 -0.06029485978357364 -0.22434291851125387 96 82 53
0.014225316747683056 -0.05822072558565942 -0.22507022181412056 94 80 51
0.014177362583335698 -0.05837367676596754 -0.2266138547150719 101 87 58
0.014192467459381533 -0.0584881971910226 -0.22814515604888871 107 93 64
0.014749215714600236 -0.058271254512331616 -0.22955362781742242 106 92 63
0.015981528810309037 -0.05764062324121573 -0.23080553796369435 104 90 61
0.014414165138434173 -0.058724633673033017 -0.2327091584842748 104 90 61
0.015453526133049553 -0.058212240777514065 -0.234006805817431 100 86 57
0.01456337636957171 -0.0588820755093215 -0.23575996443601718 101 87 58
0.014950172645630616 -0.05876965872994228 -0.23721345445969114 101 87 59
0.015151762350003664 -0.05877083447943159 -0.23871209200028037 98 84 57
0.01495105366130732 -0.05901879210718978 -0.24030930161478237 98 84 57
0.013880381573968661 -0.05980051594746539 -0.24212096897413604 101 87 60
0.01373357120761537 -0.06001595073526199 -0.24371166858770435 104 90 63
0.012691303504567653 -0.06078101458756782 -0.24552585155461498 104 90 63
0.013042911925864084 -0.06069108174267127 -0.2469991070460505 104 90 63
0.013022148911049941 -0.06082979194954882 -0.24856632081858404 105 91 64
0.012308205459535287 -0.061394266650709496 -0.25031016057513356 106 92 62
0.012466729577426491 -0.061423298391088635 -0.25183718532317617 107 93 64
0.012715616865543108 -0.061396941919785376 -0.2533426055503613 105 91 61
0.011800246371877196 -0.06208598304301814 -0.2551482624027319 101 87 58
0.011800238263943288 -0.06221292293968153 -0.25672231217572544 103 89 60
0.01202432839390434 -0.06220228039678789 -0.2582400408305235 105 91 62
0.012805371637589824 -0.06184932693522636 -0.2596131291346976 106 91 62
0.013494621469203272 -0.06155276918069908 -0.2610097862200779 107 92 63
0.013523204369097847 -0.06166253995951758 -0.2625814120508228 105 90 61
0.01431166701720478 -0.06130498447346197 -0.2639520532413573 102 87 58
0.013515336800027547 -0.06192256305518929 -0.2657478913113971 105 90 61
0.012250817077070944 -0.0628286826207822 -0.26767505692722476 106 91 62
0.011475920513068671 -0.06343389313565657 -0.2694753153340929 102 87 58
0.011217590655013543 -0.06372140335986806 -0.27113880020518805 102 87 57
0.011084105617656215 -0.06393225827777192 -0.2727708055106464 101 87 58
0.011492848435476558 -0.06380928759089421 -0.27425498799909964 103 89 61
0.011667450775853197 -0.06383063829522981 -0.275805128819666 93 79 52
0.01183352880890487 -0.06385735955796967 -0.27735911286089543 80 66 38
0.011798195401743483 -0.06400835866774718 -0.278971450401005 90 76 47
0.01128031444627399 -0.06445706216884414 -0.2807230450343318 103 89 61
0.010905644953764906 -0.0648177541941555 -0.28243754976307917 106 92 63
0.010629096604229366 -0.06511819000319427 -0.28412719705276235 108 94 65
0.008611742805049186 -0.06649293861854091 -0.286323371044346 105 91 62
0.00808857573468566 -0.06694630137295379 -0.2880938272476553 104 90 60
0.008688240352381152 -0.06670688320094542 -0.28953953374566327 107 94 62
0.008478259615223777 -0.06696735193278425 -0.2912236277257263 103 89 60
0.00827673905334328 -0.06722282328052823 -0.2929080338818843 98 84 57
0.0077335144776831816 -0.06768958797741703 -0.29469702114091023 102 87 61
0.0061620051100823164 -0.06879198194134184 -0.2967980857147076 113 98 71
0.006448565567640674 -0.06874674960717862 -0.2983467784419425 116 102 72
0.0065581059628437854 -0.0688110256201663 -0.29995024029877976 124 112 80
0.0067589457111663365 -0.06881899532879102 -0.3015276048559941 130 120 85
0.006553818406472206 -0.0690781271841441 -0.30323085086150664 124 113 80
0.006106443534704034 -0.06948732672235543 -0.305011629136176 118 105 74
0.006349901392323776 -0.06946942228344458 -0.30658188797253283 108 96 65
0.006236426819540286 -0.06967249713043133 -0.30826472955090456 102 89 62
0.004181374515974695 -0.07107753325660476 -0.31055895388841154 105 89 65
0.003202794335003867 -0.07181687962590504 -0.31252308208647955 106 94 70
2.7371639246459578e-05 -0.07391705478161534 -0.3151894171275058 98 90 72
-0.005432386730928662 -0.07743318721476418 -0.31859747125212073 83 76 67
-0.019354787368553894 -0.08619387778998883 -0.32474025263567485 61 54 51
-0.02465020810157642 -0.08961283773211179 -0.3281531424249628 60 55 52
-0.029755815245864237 -0.09291583772601111 -0.33152544349231794 74 70 66
-0.03509646820359466 -0.09636619312139208 -0.3349946610489891 63 60 56
-0.039917885369595035 -0.09949628013899561 -0.3383149088871111 79 76 74
-0.04115328710639804 -0.10040373957575074 -0.34047304950148455 156 155 154
-0.055983876948360684 -0.11003392950076954 -0.35071211459516494 179 180 184
-0.05887886803492762 -0.11197544576018066 -0.3534754848840698 179 180 184
-0.06074459873950705 -0.11327885695141497 -0.3559032589292971 179 180 184
-0.06485468034692132 -0.11597696816176499 -0.3591035117187842 180 181 185
-0.06459106915109963 -0.1276505504557507 -0.5058016123359648 196 197 198
-0.06457050829532815 -0.12779954298279317 -0.5078005482874655 195 194 195
-0.06295349985077808 -0.12693800120363494 -0.5090211085710012 185 186 188
-0.0642259674082814 -0.127906028900867 -0.5116574515595825 173 173 175
-0.06580405245286869 -0.12906828263811687 -0.5144523944928195 175 174 174
-0.06608744717669957 -0.12941094380088133 -0.5166152529217534 101 98 96
-0.06696145013951729 -0.1301282315347891 -0.5190757183195234 47 40 36
-0.06565785453622056 -0.12946558160906702 -0.5204553490146395 44 37 30
-0.06458756933471502 -0.1289506774956197 -0.5219495131687483 65 57 47
-0.06343307171090906 -0.12838224193095776 -0.5233998170195635 52 43 34
-0.06146991532340865 -0.1273006330329623 -0.5244397128722611 46 36 28
-0.05920240706494134 -0.1260254790128608 -0.5253201352768871 51 41 31
-0.058455121367447876 -0.12571476354367653 -0.5269684774934058 44 32 22
-0.05825434119568079 -0.12575101111808068 -0.5288960611920774 58 49 37
-0.05688280841887758 -0.12504391447834015 -0.5302246715479664 46 37 27
-0.055885165741657666 -0.12457410481651351 -0.5317432485403195 53 44 33
-0.056028141116097246 -0.12482893957355772 -0.5338507571056641 56 48 35
-0.054639974349180054 -0.12411092049879484 -0.5351663802242687 49 41 30
-0.05053193064147338 -0.12166359016380238 -0.5350609158830526 43 33 23
-0.04956928044761377 -0.1212152523068998 -0.5365881457801647 63 52 41
-0.05145638508154232 -0.12257941512277218 -0.5396119161439038 62 49 36
-0.050627412908140046 -0.12221641933428777 -0.5412133171872612 59 47 31
-0.04914870005134908 -0.12143989834619251 -0.5424700711547733 67 55 39
-0.04794212219566846 -0.12083634579855448 -0.5438683121423464 72 61 43
-0.04694333097089792 -0.12036492486164907 -0.5453753639757569 64 53 34
-0.046157592748872434 -0.12002909243462918 -0.5469953238587772 66 54 35
-0.04523504293789943 -0.11960607583569283 -0.5485413383391755 67 54 35
-0.04505321536724047 -0.11965497853528162 -0.5504863262914402 66 52 36
-0.04438214903661658 -0.11939222422634063 -0.5521682978645157 85 72 56
-0.04376753930720234 -0.11916547199379188 -0.5538810900011751 74 62 45
-0.03987988489429911 -0.11685150142396955 -0.5538068881936151 85 73 57
-0.03908729996332286 -0.11651073182797941 -0.5554160289726302 52 39 23
-0.037716378618166485 -0.11580092668210548 -0.5567065514631307 72 59 39
-0.03994704625169315 -0.11738946314596534 -0.5599834188437955 68 55 36
-0.039037727011958706 -0.11697448490241386 -0.5615317119290327 61 48 31
-0.037439496749265944 -0.11611953442301796 -0.5626957664509007 70 57 40
-0.03779354730985013 -0.11651122823082014 -0.564946498558398 56 43 25
-0.03734634590831393 -0.11639137043199839 -0.5667524055829363 68 54 34
-0.035600932816115316 -0.11544197407731742 -0.5678288171725018 63 48 25
-0.03522105953296975 -0.1153651027613104 -0.5696721207654134 62 47 28
-0.033940749341271836 -0.11471260944274156 -0.5710062758436685 53 37 22
-0.033397753315730194 -0.11453147321083532 -0.5727575221941971 49 33 18
-0.03214411249933066 -0.11389576984678378 -0.5741035460493247 65 50 31
-0.03117494292048803 -0.11344190932674073 -0.5756102867773192 67 52 31
-0.030687547446052177 -0.11329632353350112 -0.577393055235818 67 53 33
-0.030551865268963474 -0.11337598863991963 -0.5793797983644362 60 48 30
-0.03031933699239414 -0.11339382364396469 -0.5813127806062228 63 50 32
-0.0296217275521119 -0.11311389563730578 -0.5829771952822072 58 44 26
-0.029289673970663732 -0.11306819708190055 -0.5848550167380429 62 47 29
-0.02841702817288161 -0.11267614608456727 -0.586417635991362 56 41 21
-0.02871978471560413 -0.1130375768564339 -0.5886707083427244 51 36 17
-0.028357212071646487 -0.11297269866121362 -0.5905353684186617 70 55 36
-0.027485290071542184 -0.11258122004006568 -0.5920997569489669 51 35 20
-0.026968491326744753 -0.11241753154453271 -0.5938745043082222 45 31 15
-0.0265736051903549 -0.11233214653296705 -0.5957227556295568 45 33 17
-0.026322516937417245 -0.11233917768803725 -0.5976583998267221 73 61 46
-0.025930259973909575 -0.11225571497207604 -0.5995111330673433 64 51 35
-0.02691784127102384 -0.11305862943991415 -0.6021972689230457 77 61 45
-0.026772389063482366 -0.11313418386681415 -0.604204962603998 94 78 61
-0.026628295905196553 -0.1132108041280042 -0.6062158680770203 100 87 69
-0.0279158790740463 -0.11420793110854763 -0.609101777021027 95 83 62
-0.027155810016047943 -0.11388911760997125 -0.6107438083851633 102 91 66
-0.027208226728944435 -0.11409285095838537 -0.6128843097989921 108 95 70
-0.027260631551089293 -0.11429684014732651 -0.6150280712827078 120 104 79
-0.0273132010609336 -0.11450119937280925 -0.6171752089855799 121 106 78
-0.027405173178685793 -0.11473118659371984 -0.6193500718098791 126 112 80
-0.027217402499796373 -0.11478133442362616 -0.6213542517316171 134 121 89
-0.026979616472334544 -0.11479945133028663 -0.6233294360585009 132 119 86
-0.02698295802645384 -0.11497307244201248 -0.6254578129539256 132 118 83
-0.028139397216866563 -0.11588999909724454 -0.6283146555402526 143 128 93
-0.028469034514910896 -0.1162746459347896 -0.6306577270863118 146 130 97
-0.02877047099604524 -0.11664147648497852 -0.6329874770119323 138 123 90
-0.0289028033671046 -0.11689960374561813 -0.6352141654218132 142 127 94
-0.028834669980882938 -0.11702870688698815 -0.637316682606764 136 119 87
-0.0289646201874795 -0.1172858578059765 -0.6395488009142909 142 126 93
-0.02899928602980989 -0.11748180446969335 -0.6417234219680611 143 126 93
-0.029480508590391752 -0.11796633160164106 -0.6441891158723377 150 134 99
-0.02990585559558029 -0.11841519809017372 -0.6466239456015093 151 135 98
-0.02969262645943152 -0.11845195132272845 -0.6486494461351774 153 137 100
-0.029500703220267044 -0.11850265021037926 -0.6506910296187065 153 138 100
-0.02944745717614977 -0.11864317028039519 -0.6528255244021252 158 143 104
-0.029057151377606644 -0.11856600562295315 -0.6547419922499427 155 140 101
-0.029610274677332127 -0.1190990870089714 -0.6572804628890782 145 130 91
-0.030080644937484302 -0.11957909147151269 -0.6597699659198246 161 146 107
-0.030207221195088396 -0.11983706203333304 -0.6620370864001632 152 137 98
-0.030306048867774438 -0.12007737581733922 -0.6642895340176873 161 146 107
-0.030405180114055463 -0.12031818044618518 -0.6665458334828613 179 164 123
-0.030504347742820404 -0.12055930369475981 -0.6688058161304713 175 161 119
-0.03060381274935503 -0.12080091530526976 -0.6710696654489076 171 158 115
-0.03081890240950691 -0.12111774593000518 -0.6734150604732703 159 145 102
-0.030757277634841262 -0.12125555983587068 -0.6755776799705466 160 146 103
-0.03072196425893392 -0.12141067175536256 -0.6777611037389505 167 152 110
-0.030673462343933144 -0.1215574798406192 -0.6799386474191513 168 153 110
-0.030630278032555858 -0.12170798252690701 -0.6821228587521015 169 154 112
-0.03061488867426715 -0.12187676865225892 -0.6843291724656468 165 150 108
-0.03061848554748653 -0.12205813651124904 -0.6865517327665718 157 141 100
-0.030675017338061883 -0.12227413860732773 -0.6888140776726362 161 145 103
-0.03058343847400219 -0.12239423715637024 -0.6909775343264923 170 155 111
-0.0295645244600371 -0.12191214619123335 -0.6925004126242312 174 158 114
-0.030079844248390664 -0.12242690756113768 -0.6950900080505436 182 165 121
-0.030258762247776405 -0.1227234660587183 -0.6974503075288057 182 164 120
-0.030366606318298572 -0.12297414708722607 -0.6997649367705576 173 154 111
-0.03029339153861882 -0.12310738158568287 -0.7019560926326535 165 148 105
-0.03035430573145287 -0.1233281151254973 -0.7042448472287524 164 147 104
-0.030757013233283448 -0.12377155757662013 -0.7067790834503769 172 155 112
-0.030752144960954353 -0.1239501194902587 -0.7090291673028907 172 157 114
-0.03159382968882202 -0.12468014743927636 -0.7118855363873093 173 158 115
-0.03241315804602812 -0.12539619967658078 -0.7147331831561128 169 154 113
-0.032168415371319314 -0.12541960756210924 -0.7168251911639326 160 145 105
-0.032306352282789774 -0.12569257671434703 -0.7191946660732554 162 144 104
-0.03359640719796475 -0.12671688508174456 -0.7223994394997411 164 146 106
-0.03409678754302781 -0.1272270495412335 -0.7250420120519244 165 147 107
-0.03214601012356055 -0.12613895644018838 -0.7259103698318771 171 154 115
-0.0329420629547475 -0.12684248886427746 -0.7287741146678344 169 153 117
-0.03374065884210126 -0.12754825654784754 -0.7316468562818661 167 153 119
-0.034554452376282296 -0.12826452308862207 -0.7345379066194901 172 158 125
-0.035370748306526534 -0.12898300859481726 -0.7374380510122849 175 164 129
-0.03607606178370465 -0.12962959044227526 -0.7402635867080485 172 162 133
-0.037108289191463084 -0.1304903124082883 -0.7433378859173343 170 161 140
-0.038220754072044616 -0.13140414563628214 -0.7464800975798594 182 175 160
-0.038427864136377554 -0.1317268128591128 -0.7489566129145466 194 192 181
-0.03944263857093161 -0.1325779998457951 -0.7520411591034645 197 199 193
-0.040834112850913595 -0.13367626491955767 -0.7554164011924991 198 201 202
-0.04686076366419123 -0.14205668043849595 -0.8149703295601247 169 163 143
-0.04685924879742237 -0.14225220080940681 -0.8174060185840639 161 150 125
-0.04692434808513435 -0.1424919200326923 -0.8198993941223345 161 147 119
-0.0464381198829007 -0.1423685408611306 -0.8219489410727548 157 145 111
-0.046889776377779524 -0.14286369697197715 -0.8247640975776069 160 146 112
-0.048271868138900886 -0.14397303491359664 -0.8283457199818105 161 145 110
-0.04666240876785949 -0.14310945824506727 -0.8294854721904241 157 142 107
-0.04561836556467724 -0.14261870866527324 -0.8310859753311661 157 144 110
-0.04588987150431867 -0.1429963478919637 -0.8337700993733356 141 128 96
-0.04364523940148207 -0.14171279206208515 -0.8343779266375355 130 118 88
-0.04419773213448758 -0.14227637221744127 -0.8372992372584875 139 128 99
-0.045361763132898636 -0.14324457495517967 -0.8407360362100271 144 133 104
-0.045922732135314226 -0.14381493974914392 -0.8436790789002433 141 129 103
-0.04732182639224891 -0.14493999526677961 -0.8473304375024862 142 130 106
-0.048727064567037126 -0.14606998864082224 -0.8509977975221079 143 132 107
-0.051384836950670865 -0.14802952339854814 -0.8557309553173008 136 125 103
-0.051903038660078504 -0.14857449718969834 -0.8586739817462489 84 76 57
-0.053851995890767945 -0.15006714602379156 -0.8628356893392148 52 46 28
-0.007348396928147691 -0.06742787931442214 -0.15843034176078888 177 178 177
0.0014509867253596764 -0.062319782100106774 -0.16004297695722247 178 176 170
-7.755606552127536e-05 -0.0633688609785834 -0.16175060388085458 162 157 148
-0.0004154823138407815 -0.06369438556912753 -0.1632783402665642 142 131 114
0.00021915332497468576 -0.0634285439306878 -0.16465511600329502 140 126 100
0.001201694948854637 -0.06295101657625699 -0.16597615112440803 141 126 94
0.00307759360760336 -0.06192974013359494 -0.16715184226529586 146 131 94
0.0035032606407516403 -0.06179084680422432 -0.168559640215506 144 128 91
0.0042216125699537504 -0.06147380630577352 -0.16991979415960567 141 125 89
0.003252148732852858 -0.06218448463188908 -0.17155965705185738 138 123 87
0.005230471844896084 -0.06110019816294865 -0.1727104685733133 139 124 87
0.005449853394574711 -0.06108706841819603 -0.17415436237542897 143 127 91
0.005899299492016272 -0.0609338500417604 -0.17556011377682879 141 126 89
0.007258020320983591 -0.06022651814144038 -0.17680962409019688 144 130 94
0.008473688192316461 -0.059606186087847804 -0.17808154178996316 139 123 89
0.008383166982590104 -0.059782067075479416 -0.17958059701036475 131 115 81
0.009321249817309668 -0.05933085284473916 -0.18089968436955683 127 111 77
0.00974693737846441 -0.0591920826825846 -0.18230914613526367 115 99 65
0.010177415227368175 -0.05905042931582255 -0.18371822724707154 114 98 65
0.010630760796346048 -0.05889485991037913 -0.18512361970282937 122 107 75
0.010417269274297092 -0.05914632042468938 -0.18665168489824135 120 105 72
0.010455558071316928 -0.05924428169647489 -0.18813570129629387 120 105 73
0.010941860832559408 -0.05906882590874395 -0.18953786129598124 115 100 69
0.009904779788249538 -0.05982376979934073 -0.19122694158656417 111 96 65
0.009767349039921283 -0.060029573891293264 -0.19275047982678498 121 106 75
0.01061705833608785 -0.05963243220897455 -0.19408742615695504 126 111 79
0.01067419499492539 -0.05971957748038459 -0.19557643657710683 115 99 68
0.010790131234693148 -0.05977091800684117 -0.19705568528130768 119 102 71
0.010916624316928872 -0.05981592570509262 -0.19853435540576275 122 106 73
0.01078746981266053 -0.0600173839394735 -0.20006504560210095 118 101 70
0.010101406099022922 -0.06055965806590401 -0.20170905840964437 123 106 77
0.010512195706106509 -0.060431237870223586 -0.20313670107212942 119 102 74
0.010549138156491694 -0.060531621982557675 -0.20464064049016195 110 93 64
0.009864288507774793 -0.06107391326205394 -0.20629374757846713 100 83 55
0.010539817730369272 -0.060783756586393074 -0.20767093856417945 106 89 63
0.010929647039492008 -0.06066850995124383 -0.2091071024040501 107 90 65
0.010711766329759162 -0.0609254959969248 -0.21067095486840853 107 90 64
0.011410741157881363 -0.06062106030817879 -0.21204422505437043 105 89 63
0.0122045207320505 -0.06025850761166021 -0.21339699173089516 97 81 55
0.012424265377777341 -0.06024768504047088 -0.21487189534989815 92 76 50
0.012227690022037607 -0.060492147609901514 -0.21643774038485952 96 80 54
0.012353216915959864 -0.06053933820898912 -0.21793616656858875 95 79 53
0.012474886950459077 -0.060589016053282374 -0.21943693746571175 97 81 55
0.012432655594258185 -0.06073934805058439 -0.2209753633707341 103 88 61
0.01260406895590549 -0.060758777443350426 -0.22246838827101487 101 87 58
0.0133300328220501 -0.0604380295824212 -0.22383867984526223 99 85 56
0.01240710651269361 -0.061129270177722086 -0.2255801930322971 97 83 54
0.012340324059651048 -0.06129533155154612 -0.2271322743013416 101 87 58
0.01249295012972941 -0.06132684470868345 -0.22863632800686706 104 90 61
0.01330024130810914 -0.06095640281599274 -0.22999101021826757 104 90 61
0.013468212021452805 -0.06097863524014708 -0.23149329138857466 104 90 61
0.01307482477717381 -0.06134589712125073 -0.23312812379284126 104 90 61
0.01426260241178276 -0.06074169091144331 -0.23439413610459547 102 88 59
0.013920227392431483 -0.061077911159013544 -0.2360207597573093 105 90 61
0.014073262597939687 -0.061109785934214796 -0.23753225111060589 103 89 61
0.013544531081251782 -0.06156104609241343 -0.23920900998211292 99 85 58
0.011936000973111677 -0.06267680115859246 -0.24115074591439944 101 87 60
0.012019642577704784 -0.06275205474543362 -0.24268755918282453 103 89 62
0.011149369890015776 -0.0634144646963809 -0.2444600449276567 106 92 65
0.011271093932092566 -0.06346668307246839 -0.245992431750367 104 90 63
0.011544424553350002 -0.06342569267415293 -0.24748869737537169 100 86 59
0.013319372422714831 -0.06246011273299338 -0.24861017480856523 103 89 61
0.011614599522493677 -0.06363745174569045 -0.25060449727679435 106 92 60
0.01179547128491383 -0.06365374776295984 -0.2521282244054717 111 96 66
0.011976561420073431 -0.06367002196669784 -0.25365328133077875 110 97 65
0.011238826787215897 -0.06425271164517121 -0.2554158797652575 109 95 66
0.011567417863981772 -0.06417840781250136 -0.2569071032524491 107 93 64
0.011310298439672031 -0.06446533071858325 -0.2585517362964897 108 94 65
0.01260295325247257 -0.06379667170420214 -0.2597930855385662 109 94 65
0.013009420215507023 -0.06367449493689757 -0.261265824657707 108 93 64
0.013416025886151539 -0.06355228448307136 -0.2627391647445186 107 92 63
0.013822770458025657 -0.06343004026513273 -0.2642131062622254 105 90 61
0.012937713564782946 -0.06410527297600813 -0.26603499352193544 107 92 63
0.010672376954380225 -0.06563314827541858 -0.26823535260009584 107 92 63
0.010489946966986574 -0.06587546798167929 -0.26987836753609096 103 88 59
0.010592124422497948 -0.06594219859683556 -0.2714460709627592 99 84 55
0.010905944681546972 -0.06587830327687966 -0.2729571250996991 98 85 55
0.010545174386875314 -0.06623137745193526 -0.2746562668110388 99 85 57
0.010566512933518832 -0.06634852613194195 -0.2762520510026315 94 80 53
0.010731746107313686 -0.0663768704477706 -0.2778094106024567 95 81 54
0.010409898676532345 -0.066706550722101 -0.2795058674255209 102 88 60
0.010385228738137658 -0.06685267014867846 -0.2811210241936994 107 94 62
0.010153575239489177 -0.0671270227988767 -0.2827975184254307 107 93 64
0.009983339608472058 -0.06736360170136163 -0.2844592121268804 105 91 62
0.008685883972653796 -0.06829811048224586 -0.28644977797736615 102 88 59
0.007162325978256931 -0.06937313479536034 -0.2885127243363655 99 85 55
0.00736517067695415 -0.06937968376173301 -0.29007744848445105 107 93 62
0.007488810241228702 -0.06943540480589164 -0.29166689594925604 99 85 56
0.00774078490613668 -0.06941175402758992 -0.29321998461264365 97 83 56
0.007408667594874588 -0.06975014861138039 -0.29494838592017397 106 91 64
0.005678110073602027 -0.07095558054052815 -0.2970992741487719 123 108 78
0.0068271811321230225 -0.07037643347096537 -0.29839001818369515 128 114 81
0.004994579223005016 -0.07164605895428466 -0.30058311146848465 134 122 89
0.005046141508036686 -0.07174774528885608 -0.3022100293819119 130 118 84
0.0050244456438180984 -0.07189503797436599 -0.3038613661218497 117 103 71
0.00483547734410579 -0.0721463066232309 -0.3055665133778705 106 91 60
0.004811740456199545 -0.07229524938439055 -0.30722319353373545 99 84 55
0.005116110403568533 -0.07224068159524269 -0.30877972496980977 98 83 55
0.003263231972413738 -0.073525746899667 -0.3110141929270107 106 90 64
0.0029337655914585536 -0.07386533474386679 -0.31277665551596573 120 108 82
-0.0018306952092928264 -0.07696037603834385 -0.3159495623598453 100 93 72
-0.004674611334715195 -0.07886357018841897 -0.3185286882253487 83 76 67
-0.008813466231271244 -0.0815725937589735 -0.32153544797917 59 54 51
-0.02220637853371124 -0.09003593613425948 -0.32754411509771075 59 56 52
-0.027032801355742375 -0.09317656816803305 -0.3308239042909831 72 70 65
-0.031688081846846405 -0.09621233039103799 -0.3340672150001883 63 60 55
-0.03732920825075206 -0.0998629145740314 -0.3376525341090662 60 56 52
-0.043601492391091595 -0.10390804820428043 -0.34146822361097173 106 103 100
-0.047038602677289015 -0.10619060024208324 -0.3443688147855848 164 162 161
-0.05356054993121509 -0.1105399033596329 -0.3500956404674975 179 179 182
-0.056711991030525544 -0.11264803944668225 -0.3529431058552229 179 180 184
-0.05887205596235684 -0.11413968486215711 -0.3554685216087396 178 179 183
-0.0619101879261974 -0.11617928837074773 -0.3583028851767296 179 180 184
-0.06466851157555839 -0.11804557636562563 -0.36105476145613813 179 180 184
-0.07585966393656385 -0.13630010534234804 -0.5034984865870299 194 195 197
-0.0644616245059351 -0.1292331497197527 -0.5000533297214418 194 195 197
-0.06462127494734254 -0.12949739347105912 -0.5021324517133379 195 196 198
-0.06524741430624806 -0.1300580280416503 -0.5044405721257199 196 197 198
-0.06573707835818302 -0.1305324372730355 -0.506687673514534 181 181 180
-0.06680276250915346 -0.13137305899427731 -0.5092203606986221 92 91 87
-0.06614235040904753 -0.1311177355212274 -0.5109150048217426 67 64 61
-0.0662753249452378 -0.13136655904717273 -0.5129998181515377 57 52 48
-0.06536901027011266 -0.1309550988128847 -0.5145749925655552 67 61 55
-0.06439914900573945 -0.13050317226057906 -0.5161178534535369 71 63 56
-0.061221238119817556 -0.12864704067360627 -0.5165609693649303 35 26 18
-0.0617509079331878 -0.1291483874121538 -0.5188463795143079 38 29 19
-0.0605521342822426 -0.12855043945599054 -0.5202697592884755 58 50 38
-0.059611179497251976 -0.128116403728418 -0.5218209687508994 59 52 39
-0.05737495874735846 -0.12685777147267405 -0.5227163083594843 52 44 31
-0.05566526948693945 -0.12593389139460734 -0.5238727313349381 67 58 47
-0.05458997800187565 -0.12541372088698688 -0.5253483861697157 50 39 27
-0.05490281939822275 -0.12577774294250338 -0.5275327695942243 63 52 38
-0.05254691148027385 -0.12444151820449055 -0.5283503386646624 58 47 35
-0.051221326850915544 -0.12376145866385752 -0.5296925383220383 66 55 41
-0.04881605946788317 -0.12239283991499543 -0.5304731857177557 62 53 37
-0.047741750289485185 -0.12187242798632777 -0.5319386860374926 61 52 39
-0.04887824955604622 -0.1227621225239695 -0.5345562676705952 43 31 21
-0.04771108257835549 -0.12218257809146367 -0.5359745389037316 63 51 37
-0.046989424482244246 -0.12188720656083407 -0.5376251757598849 64 51 36
-0.047953252297693566 -0.12266780518740363 -0.5401655329039464 71 58 41
-0.04696628930340846 -0.12220328779765711 -0.5416788000415236 94 81 63
-0.045638698238102654 -0.12152111026556718 -0.5430096529547163 65 52 32
-0.044231713110580384 -0.12078799872755329 -0.5442955125243416 65 53 31
-0.04301916108720155 -0.120178901225193 -0.5456826931814408 75 62 40
-0.04342838758269563 -0.12060629427051288 -0.5479405829407572 82 67 45
-0.04215659342914424 -0.1199592437731574 -0.5492948401067073 61 46 27
-0.04154300386383522 -0.11973295448043936 -0.5510036798297444 77 63 44
-0.04179085201411459 -0.12005776999719575 -0.5531818166232564 78 65 47
-0.038176939213647065 -0.11791181497672641 -0.5532535633664389 91 77 59
-0.037549777863131656 -0.11767656122241246 -0.5549515449773016 71 56 37
-0.03810321420736701 -0.11819717714336525 -0.5572998521539991 79 64 42
-0.03802521060909639 -0.11831384538036684 -0.5593043583968043 69 54 33
-0.036754251641462204 -0.11766656020183389 -0.5606496203778137 63 47 30
-0.03528436430096338 -0.11689162005129912 -0.5618817101113834 89 73 56
-0.03553893754999721 -0.11722162705055346 -0.5640744368340277 60 45 25
-0.03547981175673695 -0.11735085330270917 -0.5660951376780807 63 48 28
-0.03428370078821216 -0.11675121312029044 -0.5674782383583421 60 45 28
-0.033733415991297894 -0.11656564362157905 -0.5692242760263186 57 41 25
-0.032655195525197744 -0.11604140870046724 -0.5706714148158426 55 39 24
-0.032677840397751734 -0.11622352870534902 -0.5727438025004322 60 44 29
-0.03285599773373335 -0.11650572226284422 -0.5749080931347579 61 45 26
-0.030397433345948077 -0.11509518226896771 -0.5755635496533231 70 55 34
-0.029901777811496416 -0.11494475365964742 -0.5773417056907145 52 38 19
-0.02957725803797684 -0.11490433847657341 -0.5792195984785216 44 32 16
-0.029135325478835072 -0.11478859997696256 -0.581030964659359 39 26 11
-0.02851823665638903 -0.11456036092469096 -0.582741448234958 43 30 14
-0.028111145693370698 -0.11446716916697808 -0.584574951736301 45 30 15
-0.027514009750601587 -0.11425185325665879 -0.5862982505035519 52 36 21
-0.0273845622160325 -0.11433743825042406 -0.5882971955442325 62 46 31
-0.026698488436267098 -0.11406504249169994 -0.589969807506334 62 46 31
-0.026181882974620457 -0.11390172916388906 -0.5917429160787755 62 46 31
-0.02590437876261309 -0.11389241831688646 -0.593659032328056 73 59 42
-0.025509425896643123 -0.11380761648702618 -0.5955068239628507 87 75 58
-0.027769392682479355 -0.11543315521071448 -0.5989466663692834 93 81 63
-0.028242457518534186 -0.1159083362376314 -0.6013247112226069 108 95 75
-0.02796161932854979 -0.11589801782192542 -0.6032528405920291 110 95 73
-0.027926848549148564 -0.11604648629700756 -0.6053318011430022 110 96 71
-0.027892017503818395 -0.11619514961051476 -0.6074135970492017 120 105 79
-0.02812531028578036 -0.11651700099354163 -0.6096618111297107 122 107 79
-0.02834856875135372 -0.11683270704564275 -0.6119079273979009 140 123 93
-0.02866107304649912 -0.117206339035226 -0.6142128744841234 133 114 84
-0.02863393772029804 -0.11736106457242107 -0.6163128587417331 139 119 88
-0.029151021166724744 -0.11786746287807189 -0.6187524441333642 140 122 89
-0.028853515627842496 -0.11784812203203303 -0.6206916536892807 134 119 84
-0.028875283066954194 -0.11803521185549475 -0.6228315360716585 139 126 91
-0.02886469606315409 -0.11820164949067867 -0.6249543645604088 153 139 104
-0.028912544751134556 -0.11840611113083709 -0.627116890010547 149 133 97
-0.029295834508222318 -0.11882775290487356 -0.629493884863708 136 120 84
-0.029247104683652714 -0.11897034276996332 -0.6316027431503667 149 133 99
-0.029417685094737606 -0.11925506229149717 -0.6338535169424568 144 129 94
-0.029782126516796847 -0.11966555939158868 -0.6362314701914661 151 137 102
-0.0300902224414559 -0.12003996505408356 -0.6385781816635003 144 126 93
-0.02968486322034261 -0.11995274491356402 -0.6404723993174615 148 129 96
-0.02971937730937521 -0.12015054893357646 -0.6426506800399214 152 133 99
-0.030810534459454475 -0.12103321970380201 -0.6455137208989924 157 140 104
-0.030610673058229204 -0.12107985668969677 -0.6475492598619119 152 137 97
-0.030310532940579726 -0.12106167185889719 -0.649521953344629 155 140 101
-0.030270860205270145 -0.12121253381942315 -0.6516661958875221 159 144 105
-0.030084437635640504 -0.12126845426910476 -0.6537174860397631 163 148 107
-0.02982953508860281 -0.12128013569104328 -0.6557261979174847 159 144 102
-0.03030711222408708 -0.12176735176899073 -0.6582191250830911 148 133 93
-0.03030772923268299 -0.12194537453397421 -0.6604023425599937 158 143 104
-0.031070382294712873 -0.12261848474758014 -0.6630937925713654 157 142 103
-0.031227662234935838 -0.12289892540973607 -0.6653893046465329 169 154 114
-0.03149395791241577 -0.12325051410923675 -0.6677614754748002 174 159 118
-0.031546024191710376 -0.12346323557844803 -0.6699946457337699 168 153 111
-0.03084120609683383 -0.12318420421206881 -0.671722867143701 167 154 110
-0.030180775798081205 -0.12293404159337966 -0.6734810664713144 163 152 107
-0.030273587352190767 -0.12317384362857832 -0.6757488924245565 165 150 107
-0.029555557526907916 -0.12288638626907161 -0.6774702384207614 155 138 95
-0.03030667269720222 -0.1235550698980149 -0.6801917142683083 162 145 102
-0.030675675849556938 -0.12397554145971823 -0.6826588654325084 163 146 103
-0.031045607978270717 -0.12439702036676312 -0.6851315984706171 161 144 101
-0.03141637609290343 -0.12481944745539043 -0.6876098667400014 153 135 94
-0.032596823261289154 -0.12576982879357151 -0.6906516589805205 158 140 102
-0.031953101162899955 -0.1255320336131771 -0.6924395862049955 155 138 96
-0.031931651437389186 -0.12569994325494616 -0.6946599883491517 166 149 105
-0.03169946995452527 -0.12573069389004454 -0.6967367896488899 172 155 111
-0.03165650793755781 -0.12588505547384854 -0.6989481074096278 167 150 106
-0.031698131003839 -0.1260948620856015 -0.7012218712892615 160 143 99
-0.031857266559365216 -0.12638165248970046 -0.7035818379150326 168 151 108
-0.03206494472209159 -0.12670046576055782 -0.7059801422693224 173 156 113
-0.03180384524445895 -0.12671349614769928 -0.7080507754823606 174 157 114
-0.03211698588888534 -0.12710181454104902 -0.7105315483889897 172 157 113
-0.032328911953387995 -0.12742438860813812 -0.7129449868875204 155 140 98
-0.034168834971964546 -0.12881139174356085 -0.716526971434831 147 131 94
-0.03357870598122026 -0.12861059971426692 -0.7183774841644606 153 137 100
-0.033971033439730736 -0.12905237503383482 -0.7209357711944241 163 145 107
-0.03411974298452397 -0.12933520632549372 -0.7233233726585111 166 148 110
-0.03477630039440255 -0.12995068968765494 -0.7260829598864822 159 141 103
