ply
format ascii 1.0
element vertex 832
property float x
property float y
property float z
property float nx
property float ny
property float nz
property uchar diffuse_red
property uchar diffuse_green
property uchar diffuse_blue
property uchar class
property uchar detection
end_header
-0.0915 -0.0841 -0.4594 0.971 -0.238 0.032 64 51 35 0 0
-0.0952 -0.0864 -0.5048 0.752 -0.488 0.443 34 28 15 0 0
-0.1096 -0.0837 -0.5311 0.706 -0.703 0.088 22 21 17 0 0
-0.1481 -0.0739 -0.5722 0.799 0.601 -0.039 4 5 5 0 0
-0.0543 -0.1052 -0.5678 0.398 0.873 0.283 52 46 40 0 0
-0.0252 -0.1176 -0.6003 0.969 -0.234 -0.077 105 84 52 0 0
-0.0310 -0.1234 -0.6987 0.964 -0.214 0.155 173 160 113 0 0
-0.0300 -0.1238 -0.7001 0.895 -0.322 0.308 159 144 96 0 0
-0.0292 -0.1257 -0.7205 0.816 -0.478 0.325 166 148 99 0 0
-0.0560 -0.1210 -0.7762 0.725 -0.643 -0.248 65 53 26 0 0
-0.0479 -0.1247 -0.7878 0.135 -0.786 0.603 115 101 68 0 0
-0.0892 -0.0838 -0.4228 0.957 -0.226 0.181 85 70 47 0 0
-0.0909 -0.0841 -0.4327 0.777 -0.375 0.505 76 61 38 0 0
-0.0921 -0.0856 -0.4574 0.922 -0.356 0.149 64 52 35 0 0
-0.0973 -0.0874 -0.5015 0.761 -0.605 0.235 50 42 33 0 0
-0.0964 -0.0878 -0.5030 0.797 -0.447 0.406 32 25 15 0 0
-0.1080 -0.0857 -0.5260 0.907 -0.255 -0.335 16 15 11 0 0
-0.1088 -0.0858 -0.5303 0.851 -0.524 0.025 23 22 18 0 0
-0.0605 -0.1044 -0.5609 0.557 0.773 0.304 36 35 32 0 0
-0.0593 -0.1049 -0.5623 0.364 0.839 0.405 47 43 41 0 0
-0.0565 -0.1059 -0.5628 0.364 0.839 0.405 51 47 43 0 0
-0.0256 -0.1188 -0.5942 0.989 -0.024 0.147 101 85 58 0 0
-0.0256 -0.1193 -0.6001 0.999 -0.045 0.008 129 108 73 0 0
-0.0284 -0.1195 -0.6155 0.799 -0.457 0.391 146 128 89 0 0
-0.0286 -0.1196 -0.6176 0.867 -0.332 0.373 160 141 103 0 0
-0.0300 -0.1200 -0.6283 0.858 -0.474 0.198 145 127 86 0 0
-0.0305 -0.1221 -0.6568 0.759 -0.639 0.127 162 143 101 0 0
-0.0305 -0.1241 -0.6813 0.882 -0.375 0.286 165 145 98 0 0
-0.0314 -0.1240 -0.6839 0.966 -0.080 0.244 156 136 93 0 0
-0.0303 -0.1244 -0.6853 0.948 -0.212 0.237 163 144 98 0 0
-0.0317 -0.1245 -0.6924 0.863 -0.479 0.163 163 141 96 0 0
-0.0309 -0.1252 -0.6981 0.821 -0.438 0.367 164 149 102 0 0
-0.0302 -0.1261 -0.7059 0.933 -0.320 0.165 180 162 114 0 0
-0.0327 -0.1281 -0.7414 0.925 -0.321 0.202 172 155 108 0 0
-0.0328 -0.1282 -0.7436 0.915 -0.373 0.156 170 152 106 0 0
-0.0370 -0.1326 -0.8165 0.843 -0.337 0.419 169 152 104 0 0
-0.0445 -0.1334 -0.8586 0.815 -0.426 0.393 47 47 35 0 0
-0.0066 -0.1011 -0.2698 0.860 -0.461 0.220 75 50 30 0 0
-0.0076 -0.1012 -0.2763 0.855 -0.275 0.439 75 47 26 0 0
-0.0893 -0.0845 -0.4079 0.910 -0.322 0.262 25 17 12 0 0
-0.0889 -0.0847 -0.4096 0.910 -0.322 0.262 42 30 22 0 0
-0.0907 -0.0858 -0.4304 0.895 -0.378 0.238 83 68 45 0 0
-0.0912 -0.0859 -0.4343 0.876 -0.416 0.244 94 79 56 0 0
-0.1008 -0.0857 -0.4720 0.949 -0.298 -0.107 55 46 37 0 0
-0.0991 -0.0885 -0.5000 0.709 -0.614 0.347 42 33 24 0 0
-0.0989 -0.0887 -0.5019 0.587 -0.654 0.478 56 48 39 0 0
-0.1436 -0.0788 -0.5650 0.954 0.248 -0.165 4 4 4 0 0
-0.0590 -0.1066 -0.5578 0.495 0.787 0.367 37 34 28 0 0
-0.0550 -0.1080 -0.5596 0.342 0.854 0.391 66 62 54 0 0
-0.0302 -0.1215 -0.6241 0.939 -0.330 0.101 162 146 98 0 0
-0.0301 -0.1216 -0.6260 0.794 -0.447 0.412 162 144 98 0 0
-0.0317 -0.1236 -0.6571 0.778 -0.619 0.111 163 144 100 0 0
-0.0311 -0.1274 -0.7019 0.965 -0.237 0.115 160 141 96 0 0
-0.0338 -0.1280 -0.7204 0.907 -0.268 0.325 160 140 95 0 0
-0.0342 -0.1292 -0.7376 0.849 -0.527 0.036 181 163 115 0 0
-0.0330 -0.1299 -0.7410 0.961 -0.205 0.186 171 151 108 0 0
-0.0327 -0.1301 -0.7430 0.945 -0.090 0.316 170 152 108 0 0
-0.0337 -0.1300 -0.7458 0.929 -0.042 0.366 156 142 97 0 0
-0.0403 -0.1335 -0.8161 0.885 -0.434 0.168 163 144 97 0 0
-0.0370 -0.1347 -0.8181 0.966 -0.248 0.079 168 151 102 0 0
-0.0391 -0.1352 -0.8332 0.985 -0.165 0.039 169 151 104 0 0
-0.0400 -0.1351 -0.8361 0.977 -0.200 0.068 166 148 103 0 0
-0.0403 -0.1356 -0.8431 0.920 -0.393 0.000 156 140 97 0 0
-0.0444 -0.1354 -0.8578 0.819 -0.469 0.330 49 48 35 0 0
-0.0449 -0.1360 -0.8674 0.773 -0.583 0.248 115 112 109 0 0
-0.0078 -0.0993 -0.2327 0.495 -0.707 0.505 37 29 19 0 0
-0.0084 -0.1050 -0.3065 0.882 -0.379 0.280 78 49 20 0 0
-0.0952 -0.0821 -0.3809 0.756 -0.357 0.549 81 74 66 0 0
-0.0913 -0.0854 -0.4047 0.885 -0.290 0.365 22 17 13 0 0
-0.0895 -0.0863 -0.4095 0.875 -0.326 0.358 51 39 30 0 0
-0.0901 -0.0867 -0.4170 0.904 -0.329 0.272 68 53 31 0 0
-0.0908 -0.0877 -0.4320 0.717 -0.683 0.140 76 61 38 0 0
-0.0909 -0.0878 -0.4338 0.786 -0.605 -0.132 95 80 58 0 0
-0.1002 -0.0902 -0.5020 0.712 -0.562 0.420 41 33 24 0 0
-0.1420 -0.0813 -0.5637 0.960 0.275 0.052 4 4 4 0 0
-0.0635 -0.1064 -0.5519 0.334 0.743 0.581 10 9 7 0 0
-0.0261 -0.1221 -0.5917 0.906 -0.421 0.033 128 108 72 0 0
-0.0312 -0.1251 -0.6502 0.969 -0.230 0.085 181 164 116 0 0
-0.0309 -0.1253 -0.6520 0.983 -0.179 0.030 168 152 102 0 0
-0.0321 -0.1273 -0.6813 0.967 -0.216 0.138 124 102 63 0 0
-0.0319 -0.1275 -0.6832 0.967 -0.216 0.138 146 123 85 0 0
-0.0337 -0.1272 -0.6865 0.944 -0.176 0.278 155 134 91 0 0
-0.0332 -0.1275 -0.6882 0.957 -0.139 0.256 152 132 86 0 0
-0.0343 -0.1297 -0.7202 0.907 -0.268 0.325 107 90 49 0 0
-0.0354 -0.1308 -0.7379 0.922 -0.384 0.060 179 161 112 0 0
-0.0353 -0.1309 -0.7400 0.922 -0.384 0.060 179 159 111 0 0
-0.0348 -0.1313 -0.7417 0.954 -0.277 -0.115 174 156 109 0 0
-0.0339 -0.1317 -0.7432 0.987 0.063 0.148 160 144 103 0 0
-0.0593 -0.1254 -0.7702 0.291 -0.829 -0.478 100 91 71 0 0
-0.0407 -0.1367 -0.8338 0.981 -0.183 0.063 165 148 102 0 0
-0.0406 -0.1369 -0.8359 0.981 -0.183 0.063 164 147 102 0 0
-0.0426 -0.1375 -0.8511 0.946 -0.261 -0.192 144 129 95 0 0
-0.0067 -0.1081 -0.3170 0.767 -0.561 0.312 83 55 27 0 0
-0.0915 -0.0871 -0.4045 0.856 -0.393 0.335 42 33 26 0 0
-0.0928 -0.0907 -0.4547 0.762 -0.246 0.598 53 45 33 0 0
-0.1034 -0.0882 -0.4667 0.876 -0.102 0.471 40 33 23 0 0
-0.1042 -0.0896 -0.4880 0.666 -0.678 0.312 50 40 27 0 0
-0.0274 -0.1226 -0.5803 0.936 -0.350 0.041 120 101 70 0 0
-0.0292 -0.1236 -0.6008 0.974 -0.207 0.097 139 121 83 0 0
-0.0289 -0.1240 -0.6046 0.878 -0.443 0.179 149 132 86 0 0
-0.0309 -0.1254 -0.6294 0.976 -0.199 0.093 164 149 104 0 0
-0.0304 -0.1265 -0.6411 0.994 -0.110 0.018 141 123 80 0 0
-0.0314 -0.1272 -0.6538 0.970 -0.238 0.040 178 160 114 0 0
-0.0326 -0.1270 -0.6566 0.859 -0.508 0.064 169 149 101 0 0
-0.0326 -0.1290 -0.6811 0.967 -0.216 0.138 117 98 61 0 0
-0.0323 -0.1292 -0.6830 0.967 -0.216 0.138 141 122 85 0 0
-0.0334 -0.1296 -0.6919 0.910 -0.294 0.293 152 131 88 0 0
-0.0338 -0.1297 -0.6943 0.934 -0.329 0.136 120 101 63 0 0
-0.0546 -0.1283 -0.7618 0.368 -0.769 -0.523 79 68 46 0 0
-0.0412 -0.1385 -0.8335 0.987 -0.034 0.156 158 141 101 0 0
-0.0409 -0.1388 -0.8355 0.987 -0.034 0.156 151 135 93 0 0
-0.0090 -0.1053 -0.2713 0.816 -0.578 0.007 64 42 20 0 0
-0.0076 -0.1094 -0.3170 0.767 -0.561 0.312 86 58 30 0 0
-0.0930 -0.0892 -0.4138 0.874 -0.386 0.294 46 33 20 0 0
-0.0916 -0.0899 -0.4169 0.878 -0.374 0.300 71 56 37 0 0
-0.0934 -0.0907 -0.4342 0.810 -0.586 0.039 88 72 53 0 0
-0.0932 -0.0911 -0.4378 0.906 -0.422 0.024 87 72 49 0 0
-0.1058 -0.0892 -0.4654 0.917 0.067 0.394 44 37 27 0 0
-0.1049 -0.0940 -0.5209 0.780 -0.601 -0.174 46 42 36 0 0
-0.1055 -0.0939 -0.5232 0.742 -0.621 -0.252 42 38 32 0 0
-0.1227 -0.0902 -0.5473 0.676 0.582 -0.453 15 15 12 0 0
-0.0288 -0.1230 -0.5691 0.984 -0.127 0.124 86 71 43 0 0
-0.0298 -0.1256 -0.6046 0.938 -0.266 0.222 162 143 100 0 0
-0.0349 -0.1272 -0.6454 0.851 -0.267 0.453 164 146 105 0 0
-0.0339 -0.1278 -0.6488 0.905 -0.350 0.243 146 129 85 0 0
-0.0335 -0.1286 -0.6567 0.859 -0.508 0.064 171 153 108 0 0
-0.0344 -0.1295 -0.6715 0.943 -0.328 0.064 165 145 95 0 0
-0.0344 -0.1310 -0.6900 0.918 -0.265 0.296 141 119 74 0 0
-0.0339 -0.1313 -0.6917 0.918 -0.265 0.296 141 118 75 0 0
-0.0422 -0.1398 -0.8291 0.892 -0.412 0.188 166 148 103 0 0
-0.0414 -0.1402 -0.8308 0.838 -0.411 0.358 124 105 69 0 0
-0.0414 -0.1404 -0.8330 0.812 -0.490 0.318 114 96 62 0 0
-0.0409 -0.1407 -0.8349 0.808 -0.541 0.234 135 119 80 0 0
-0.0432 -0.1403 -0.8389 0.900 -0.434 -0.033 152 135 92 0 0
-0.0371 -0.1443 -0.8634 0.606 -0.630 0.485 157 157 158 0 0
-0.0073 -0.1079 -0.2769 0.957 0.021 0.290 91 72 41 0 0
-0.0105 -0.1089 -0.3016 0.775 -0.541 0.326 93 66 38 0 0
-0.0933 -0.0909 -0.4136 0.849 -0.476 0.230 50 37 21 0 0
-0.1025 -0.0921 -0.4656 0.933 -0.320 -0.161 39 32 24 0 0
-0.1040 -0.0945 -0.5007 0.870 -0.063 0.490 39 33 21 0 0
-0.1025 -0.0953 -0.5038 0.931 -0.114 0.345 56 50 39 0 0
-0.1045 -0.0948 -0.5067 0.790 -0.424 0.443 60 53 42 0 0
-0.1037 -0.0952 -0.5083 0.782 -0.595 0.186 51 43 32 0 0
-0.1162 -0.0939 -0.5417 0.977 -0.176 0.123 23 21 17 0 0
-0.1160 -0.0941 -0.5436 0.945 -0.306 -0.120 20 19 15 0 0
-0.1170 -0.0940 -0.5461 0.952 -0.072 -0.296 16 17 12 0 0
-0.1182 -0.0938 -0.5487 0.935 -0.028 -0.354 11 11 11 0 0
-0.0301 -0.1270 -0.6004 0.929 -0.345 0.135 161 145 99 0 0
-0.0355 -0.1289 -0.6453 0.851 -0.267 0.453 151 132 90 0 0
-0.0350 -0.1292 -0.6470 0.902 -0.281 0.328 166 148 103 0 0
-0.0344 -0.1312 -0.6689 0.970 -0.106 0.217 149 128 84 0 0
-0.0350 -0.1327 -0.6898 0.857 -0.363 0.366 108 88 50 0 0
-0.0344 -0.1330 -0.6915 0.857 -0.363 0.366 144 123 81 0 0
-0.0430 -0.1415 -0.8291 0.892 -0.412 0.188 165 147 101 0 0
-0.0426 -0.1418 -0.8311 0.833 -0.489 0.260 141 123 85 0 0
-0.0105 -0.1080 -0.2713 0.946 -0.304 0.115 73 52 27 0 0
-0.0092 -0.1088 -0.2756 0.969 -0.236 0.072 83 61 35 0 0
-0.0100 -0.1123 -0.3205 0.751 -0.253 0.611 81 50 28 0 0
-0.0949 -0.0919 -0.4102 0.849 -0.476 0.230 56 43 28 0 0
-0.0945 -0.0922 -0.4119 0.849 -0.476 0.230 68 55 36 0 0
-0.0942 -0.0924 -0.4136 0.849 -0.476 0.230 68 53 34 0 0
-0.1043 -0.0933 -0.4641 0.928 -0.084 -0.362 40 33 23 0 0
-0.1062 -0.0952 -0.4955 0.718 -0.384 0.580 37 31 20 0 0
-0.1049 -0.0961 -0.5007 0.903 -0.325 0.282 42 36 24 0 0
-0.1044 -0.0964 -0.5024 0.882 -0.379 0.278 36 29 19 0 0
-0.1142 -0.0960 -0.5363 0.818 -0.403 -0.411 34 31 22 0 0
-0.1163 -0.0959 -0.5433 0.952 -0.072 -0.296 27 24 19 0 0
-0.0359 -0.1306 -0.6450 0.988 -0.143 0.058 160 142 100 0 0
-0.0360 -0.1307 -0.6471 0.916 -0.260 0.305 154 135 91 0 0
-0.0354 -0.1326 -0.6670 0.792 -0.230 0.566 160 139 93 0 0
-0.0352 -0.1330 -0.6709 0.970 -0.234 0.059 165 143 97 0 0
-0.0357 -0.1344 -0.6898 0.857 -0.363 0.366 94 78 42 0 0
-0.0350 -0.1347 -0.6914 0.918 -0.265 0.296 144 126 87 0 0
-0.0455 -0.1424 -0.8259 0.883 -0.430 0.189 159 140 97 0 0
-0.0442 -0.1431 -0.8294 0.808 -0.541 0.234 160 142 95 0 0
-0.0434 -0.1437 -0.8333 0.808 -0.541 0.234 151 134 91 0 0
-0.0431 -0.1440 -0.8352 0.808 -0.541 0.234 151 135 92 0 0
-0.0456 -0.1439 -0.8440 0.856 -0.495 0.148 146 129 92 0 0
-0.0104 -0.1099 -0.2741 0.972 -0.080 0.219 78 53 31 0 0
-0.0105 -0.1137 -0.3204 0.751 -0.253 0.611 85 56 31 0 0
-0.0100 -0.1140 -0.3218 0.796 -0.287 0.533 82 50 26 0 0
-0.0956 -0.0937 -0.4120 0.765 -0.615 0.193 71 58 39 0 0
-0.0997 -0.0949 -0.4431 0.722 -0.687 0.078 59 47 31 0 0
-0.1021 -0.0945 -0.4478 0.847 -0.529 -0.044 49 40 25 0 0
-0.1033 -0.0954 -0.4633 0.771 -0.507 -0.387 45 38 31 0 0
-0.0293 -0.1274 -0.5585 0.973 -0.210 0.098 109 95 64 0 0
-0.0313 -0.1315 -0.6159 0.963 -0.203 0.178 148 130 87 0 0
-0.0481 -0.1433 -0.8228 0.825 -0.553 0.116 134 116 78 0 0
-0.0465 -0.1456 -0.8441 0.856 -0.495 0.148 140 125 87 0 0
-0.0504 -0.1472 -0.8793 0.989 0.081 -0.126 187 185 186 0 0
-0.0129 -0.1142 -0.3160 0.749 -0.476 0.460 89 58 33 0 0
-0.0105 -0.1155 -0.3218 0.796 -0.287 0.533 86 54 29 0 0
-0.0974 -0.0936 -0.3960 0.890 -0.292 0.350 42 37 33 0 0
-0.1023 -0.0963 -0.4475 0.952 -0.216 -0.215 72 63 46 0 0
-0.1115 -0.0997 -0.5243 0.843 -0.513 0.162 55 47 36 0 0
-0.0313 -0.1310 -0.5880 0.944 -0.326 0.053 158 137 98 0 0
-0.0320 -0.1310 -0.5903 0.958 -0.262 0.118 156 140 100 0 0
-0.0339 -0.1335 -0.6268 0.963 -0.269 -0.026 176 161 118 0 0
-0.0374 -0.1355 -0.6652 0.844 -0.135 0.519 155 133 86 0 0
-0.0106 -0.1112 -0.2519 0.826 -0.393 0.405 48 32 18 0 0
-0.0100 -0.1131 -0.2720 0.771 -0.532 0.349 70 46 25 0 0
-0.0117 -0.1130 -0.2771 0.910 -0.415 -0.011 78 54 31 0 0
-0.0117 -0.1169 -0.3235 0.809 -0.303 0.503 85 54 26 0 0
-0.0133 -0.1166 -0.3256 0.974 -0.219 0.055 88 58 30 0 0
-0.0966 -0.0959 -0.3990 0.839 -0.332 0.431 39 32 24 0 0
-0.0988 -0.0980 -0.4327 0.891 -0.397 0.221 76 61 36 0 0
-0.0979 -0.0986 -0.4361 0.785 -0.498 0.368 67 56 34 0 0
-0.1022 -0.0981 -0.4471 0.920 -0.383 -0.077 77 68 50 0 0
-0.1105 -0.1007 -0.5098 0.807 -0.497 0.318 63 54 39 0 0
-0.1124 -0.1013 -0.5244 0.784 -0.571 0.242 57 47 37 0 0
-0.1120 -0.1019 -0.5301 0.910 -0.298 -0.288 63 57 45 0 0
-0.1138 -0.1019 -0.5368 0.953 0.066 -0.296 64 56 45 0 0
-0.0326 -0.1325 -0.5883 0.958 -0.262 0.118 164 145 104 0 0
-0.0325 -0.1327 -0.5901 0.958 -0.262 0.118 153 137 98 0 0
-0.0316 -0.1341 -0.6033 0.980 -0.116 0.160 150 131 86 0 0
-0.0370 -0.1376 -0.6665 0.844 -0.135 0.519 156 136 93 0 0
-0.0367 -0.1395 -0.6867 0.935 -0.252 0.248 135 117 84 0 0
-0.0365 -0.1400 -0.6928 0.841 -0.429 0.329 132 116 82 0 0
-0.0378 -0.1411 -0.7103 0.976 -0.220 -0.009 129 111 74 0 0
-0.0379 -0.1412 -0.7124 0.949 -0.313 -0.023 95 78 51 0 0
-0.0107 -0.1131 -0.2548 0.810 -0.393 0.435 54 36 21 0 0
-0.0109 -0.1144 -0.2720 0.771 -0.532 0.349 69 45 25 0 0
-0.0130 -0.1141 -0.2757 0.940 -0.325 0.102 72 51 27 0 0
-0.0130 -0.1142 -0.2773 0.962 -0.253 0.099 75 53 30 0 0
-0.0125 -0.1145 -0.2787 0.935 -0.342 -0.091 78 57 35 0 0
-0.0123 -0.1183 -0.3234 0.809 -0.303 0.503 84 53 25 0 0
-0.0982 -0.0970 -0.3975 0.852 -0.385 0.354 50 40 30 0 0
-0.0977 -0.0973 -0.3991 0.852 -0.385 0.354 42 33 23 0 0
-0.0989 -0.0973 -0.4032 0.873 -0.271 0.404 37 30 20 0 0
-0.0988 -0.0978 -0.4085 0.775 -0.623 0.110 57 44 28 0 0
-0.0985 -0.1002 -0.4359 0.701 -0.541 0.465 82 71 48 0 0
-0.0987 -0.1003 -0.4379 0.736 -0.676 0.050 86 75 55 0 0
-0.0991 -0.1004 -0.4399 0.802 -0.597 -0.001 95 86 67 0 0
-0.1112 -0.1024 -0.5097 0.859 -0.234 0.456 67 55 40 0 0
-0.1135 -0.1026 -0.5205 0.831 -0.555 0.034 60 51 38 0 0
-0.1135 -0.1029 -0.5245 0.849 -0.521 0.087 60 50 39 0 0
-0.1133 -0.1031 -0.5264 0.869 -0.488 0.080 62 53 42 0 0
-0.0305 -0.1314 -0.5465 0.993 -0.098 0.071 102 82 52 0 0
-0.0312 -0.1330 -0.5678 0.950 -0.308 0.058 136 120 84 0 0
-0.0312 -0.1332 -0.5697 0.950 -0.308 0.058 147 130 93 0 0
-0.0351 -0.1379 -0.6405 0.969 -0.006 0.248 156 139 93 0 0
-0.0367 -0.1396 -0.6657 0.928 -0.099 0.359 159 138 92 0 0
-0.0374 -0.1408 -0.6825 0.989 -0.148 -0.014 145 129 86 0 0
-0.0375 -0.1409 -0.6847 0.943 -0.149 0.298 148 132 91 0 0
-0.0368 -0.1423 -0.6987 0.928 -0.369 0.056 135 114 74 0 0
-0.0143 -0.1129 -0.2478 0.592 -0.655 0.470 38 24 15 0 0
-0.0135 -0.1157 -0.2772 0.923 -0.374 0.096 71 51 32 0 0
-0.0130 -0.1160 -0.2786 0.935 -0.342 -0.091 75 61 47 0 0
-0.1033 -0.0992 -0.4209 0.552 -0.834 0.005 82 69 48 0 0
-0.1142 -0.1046 -0.5244 0.913 -0.315 0.259 70 60 48 0 0
-0.1156 -0.1043 -0.5270 0.860 -0.493 0.134 58 49 38 0 0
-0.0309 -0.1329 -0.5444 0.905 -0.344 0.251 125 106 75 0 0
-0.0332 -0.1369 -0.5994 0.800 -0.441 0.407 169 152 109 0 0
-0.0326 -0.1372 -0.6010 0.800 -0.441 0.407 149 135 91 0 0
-0.0321 -0.1375 -0.6026 0.888 -0.416 0.197 170 155 112 0 0
-0.0357 -0.1367 -0.6067 0.971 -0.240 -0.011 158 141 98 0 0
-0.0358 -0.1368 -0.6087 0.971 -0.240 -0.011 173 158 116 0 0
-0.0358 -0.1394 -0.6384 0.927 -0.250 0.279 166 146 100 0 0
-0.0389 -0.1399 -0.6565 0.921 -0.307 0.240 147 126 81 0 0
-0.0392 -0.1425 -0.6873 0.725 -0.488 0.487 128 108 76 0 0
-0.0388 -0.1431 -0.6933 0.950 -0.256 0.180 138 118 81 0 0
-0.0379 -0.1435 -0.6948 0.858 -0.407 0.312 127 108 66 0 0
-0.0386 -0.1435 -0.6972 0.955 -0.205 0.217 144 124 80 0 0
-0.0520 -0.1517 -0.8436 0.812 -0.538 0.226 146 131 92 0 0
-0.0133 -0.1152 -0.2519 0.871 -0.490 0.031 36 23 13 0 0
-0.0136 -0.1165 -0.2676 0.775 -0.630 0.041 69 47 26 0 0
-0.0134 -0.1168 -0.2707 0.685 -0.636 0.356 66 44 23 0 0
-0.0142 -0.1171 -0.2771 0.902 -0.424 0.081 62 46 31 0 0
-0.0138 -0.1173 -0.2786 0.948 -0.300 0.103 85 77 69 0 0
-0.0153 -0.1188 -0.3013 0.502 -0.019 0.865 99 80 55 0 0
-0.0132 -0.1200 -0.3070 0.780 -0.585 0.220 88 60 31 0 0
-0.0134 -0.1213 -0.3232 0.808 -0.442 0.388 88 59 31 0 0
-0.0136 -0.1219 -0.3314 0.798 -0.438 0.414 95 67 38 0 0
-0.0986 -0.1005 -0.3970 0.821 -0.516 0.244 63 49 30 0 0
-0.1015 -0.1001 -0.4034 0.486 -0.872 0.051 63 50 34 0 0
-0.1051 -0.1005 -0.4213 0.496 -0.868 0.037 95 88 74 0 0
-0.1202 -0.1011 -0.4839 0.337 -0.925 0.178 109 96 74 0 0
-0.1199 -0.1022 -0.4954 0.618 -0.766 0.178 90 77 58 0 0
-0.1133 -0.1069 -0.5255 0.756 -0.652 0.061 67 59 46 0 0
-0.0310 -0.1345 -0.5421 0.811 -0.248 0.529 122 104 74 0 0
-0.0314 -0.1357 -0.5575 0.951 -0.306 0.052 113 94 60 0 0
-0.0340 -0.1361 -0.5723 0.938 -0.315 0.144 129 111 72 0 0
-0.0400 -0.1445 -0.6914 0.927 -0.342 0.151 107 89 53 0 0
-0.0393 -0.1448 -0.6931 0.879 -0.416 0.234 142 123 86 0 0
-0.0408 -0.1458 -0.7107 0.958 -0.284 0.037 95 77 49 0 0
-0.0407 -0.1461 -0.7127 0.968 -0.181 -0.174 75 58 39 0 0
-0.0405 -0.1463 -0.7146 0.987 0.146 0.065 82 66 46 0 0
-0.0559 -0.1523 -0.8415 0.634 -0.354 0.687 149 132 94 0 0
-0.0586 -0.1549 -0.8827 0.508 -0.632 -0.586 189 188 190 0 0
-0.0499 -0.1573 -0.8777 0.557 -0.826 -0.082 192 190 190 0 0
-0.0144 -0.1179 -0.2691 0.963 -0.199 0.181 69 47 27 0 0
-0.0152 -0.1182 -0.2756 0.845 -0.488 0.218 66 46 27 0 0
-0.0150 -0.1185 -0.2771 0.845 -0.488 0.218 60 46 33 0 0
-0.0146 -0.1187 -0.2786 0.868 -0.479 0.132 106 100 94 0 0
-0.0145 -0.1211 -0.3056 0.699 -0.499 0.513 78 51 26 0 0
-0.0144 -0.1212 -0.3072 0.706 -0.693 0.149 83 56 27 0 0
-0.0153 -0.1218 -0.3171 0.902 -0.153 0.403 84 55 27 0 0
-0.1070 -0.1016 -0.4198 0.450 -0.893 -0.015 128 125 118 0 0
-0.1070 -0.1018 -0.4216 0.483 -0.875 0.024 150 148 143 0 0
-0.0417 -0.1312 -0.5228 0.799 0.505 0.328 78 66 49 0 0
-0.0356 -0.1342 -0.5347 0.868 -0.265 0.421 85 71 49 0 0
-0.0317 -0.1360 -0.5421 0.923 -0.215 0.319 120 102 69 0 0
-0.0332 -0.1374 -0.5637 0.909 -0.339 0.240 143 125 91 0 0
-0.0364 -0.1430 -0.6398 0.971 -0.192 0.146 167 151 104 0 0
-0.0405 -0.1462 -0.6912 0.942 -0.251 0.224 117 98 64 0 0
-0.0401 -0.1464 -0.6930 0.942 -0.251 0.224 114 96 63 0 0
-0.0398 -0.1467 -0.6949 0.955 -0.205 0.217 107 85 50 0 0
-0.0411 -0.1476 -0.7103 0.747 -0.626 0.224 99 83 50 0 0
-0.0412 -0.1478 -0.7125 0.795 -0.460 0.395 91 75 52 0 0
-0.0404 -0.1481 -0.7141 0.710 -0.452 0.539 89 74 53 0 0
-0.0702 -0.1481 -0.8226 0.328 -0.632 0.702 144 129 100 0 0
-0.0686 -0.1487 -0.8236 0.456 -0.749 0.481 141 125 96 0 0
-0.0562 -0.1541 -0.8411 0.691 -0.681 0.243 152 136 97 0 0
-0.0561 -0.1579 -0.8845 0.780 -0.625 -0.034 194 192 191 0 0
-0.0325 -0.1162 -0.2962 0.497 -0.838 0.225 91 86 83 0 0
-0.0155 -0.1224 -0.3056 0.851 -0.371 0.371 76 49 24 0 0
-0.0146 -0.1241 -0.3215 0.863 -0.449 0.232 92 62 34 0 0
-0.1080 -0.1031 -0.4199 0.887 -0.291 0.360 183 185 185 0 0
-0.1082 -0.1033 -0.4217 0.857 -0.480 0.185 184 185 185 0 0
-0.1076 -0.1036 -0.4234 0.840 -0.538 0.079 184 185 186 0 0
-0.1105 -0.1029 -0.4263 0.353 -0.921 -0.165 184 185 187 0 0
-0.1210 -0.1063 -0.5028 0.721 -0.550 0.422 85 74 52 0 0
-0.1141 -0.1095 -0.5153 0.651 -0.580 0.489 85 74 57 0 0
-0.1132 -0.1099 -0.5168 0.715 -0.572 0.403 79 70 53 0 0
-0.1138 -0.1099 -0.5191 0.853 -0.411 0.322 73 65 47 0 0
-0.1149 -0.1098 -0.5215 0.901 -0.331 0.280 73 65 49 0 0
-0.1157 -0.1098 -0.5238 0.824 -0.547 0.145 71 64 48 0 0
-0.0341 -0.1367 -0.5373 0.717 -0.348 0.604 84 64 38 0 0
-0.0337 -0.1391 -0.5636 0.794 -0.529 0.301 151 132 90 0 0
-0.0352 -0.1412 -0.5933 0.805 -0.216 0.553 147 128 87 0 0
-0.0374 -0.1418 -0.6082 0.882 -0.450 0.141 167 149 102 0 0
-0.0372 -0.1420 -0.6101 0.882 -0.450 0.141 166 151 108 0 0
-0.0375 -0.1424 -0.6162 0.955 -0.293 -0.034 162 146 103 0 0
-0.0374 -0.1428 -0.6201 0.945 -0.124 0.302 175 159 114 0 0
-0.0383 -0.1440 -0.6365 0.839 -0.433 0.330 167 153 108 0 0
-0.0411 -0.1478 -0.6911 0.940 -0.282 0.191 107 87 53 0 0
-0.0554 -0.1598 -0.8809 0.981 -0.171 -0.096 193 191 192 0 0
-0.0173 -0.1189 -0.2538 0.725 -0.503 0.470 90 80 65 0 0
-0.0168 -0.1201 -0.2646 0.972 -0.079 0.220 65 43 25 0 0
-0.0175 -0.1207 -0.2742 0.906 -0.327 0.270 67 44 24 0 0
-0.0143 -0.1258 -0.3211 0.807 -0.226 0.545 88 58 30 0 0
-0.1061 -0.1031 -0.3915 0.596 -0.785 0.169 95 83 57 0 0
-0.1061 -0.1033 -0.3933 0.703 -0.705 0.093 95 83 57 0 0
-0.1092 -0.1025 -0.3962 0.436 -0.882 0.181 93 80 55 0 0
-0.1109 -0.1029 -0.4059 0.249 -0.962 -0.114 116 115 107 0 0
-0.1131 -0.1040 -0.4270 0.411 -0.894 -0.178 184 185 189 0 0
-0.1119 -0.1045 -0.4284 0.610 -0.780 -0.137 185 186 190 0 0
-0.1375 -0.1014 -0.4844 -0.231 -0.803 0.549 129 117 91 0 0
-0.1149 -0.1113 -0.5172 0.731 -0.588 0.346 84 74 54 0 0
-0.1144 -0.1116 -0.5189 0.731 -0.588 0.346 85 77 57 0 0
-0.1171 -0.1112 -0.5241 0.746 -0.589 0.312 78 70 53 0 0
-0.0359 -0.1411 -0.5739 0.850 -0.508 0.143 105 88 57 0 0
-0.0371 -0.1425 -0.5939 0.883 -0.439 0.167 146 127 82 0 0
-0.0391 -0.1456 -0.6365 0.839 -0.433 0.330 159 144 99 0 0
-0.0424 -0.1477 -0.6729 0.931 -0.354 0.095 144 126 85 0 0
-0.0437 -0.1476 -0.6758 0.708 -0.311 0.634 154 137 97 0 0
-0.0414 -0.1498 -0.6928 0.880 -0.426 0.208 148 127 87 0 0
-0.0552 -0.1618 -0.8800 0.960 -0.247 0.131 195 193 194 0 0
-0.0579 -0.1618 -0.8893 0.982 -0.139 -0.126 198 196 197 0 0
-0.0169 -0.1216 -0.2644 0.992 -0.118 0.041 59 40 21 0 0
-0.0180 -0.1220 -0.2725 0.946 -0.207 0.251 64 42 22 0 0
-0.0173 -0.1225 -0.2755 0.946 -0.207 0.251 66 51 33 0 0
-0.0184 -0.1245 -0.3028 0.800 -0.414 0.433 63 40 25 0 0
-0.1111 -0.1039 -0.3984 0.473 -0.879 0.066 92 84 71 0 0
-0.1110 -0.1041 -0.4002 0.646 -0.759 -0.084 106 101 93 0 0
-0.1175 -0.1031 -0.4117 0.165 -0.977 -0.133 182 182 186 0 0
-0.1245 -0.1083 -0.4958 0.382 -0.570 0.727 126 113 84 0 0
-0.1230 -0.1089 -0.4971 0.382 -0.570 0.727 106 92 65 0 0
-0.1240 -0.1088 -0.4995 0.736 -0.671 0.090 103 89 64 0 0
-0.0368 -0.1426 -0.5739 0.850 -0.508 0.143 135 118 86 0 0
-0.0365 -0.1429 -0.5757 0.916 -0.257 0.307 144 125 90 0 0
-0.0374 -0.1442 -0.5936 0.906 -0.289 0.309 155 133 93 0 0
-0.0374 -0.1444 -0.5956 0.970 -0.203 0.131 159 138 97 0 0
-0.0388 -0.1455 -0.6140 0.864 -0.500 -0.055 168 150 104 0 0
-0.0399 -0.1472 -0.6365 0.839 -0.433 0.330 140 124 80 0 0
-0.0444 -0.1494 -0.6778 0.915 -0.350 0.198 105 86 45 0 0
-0.0173 -0.1240 -0.2753 0.966 0.063 0.249 79 64 49 0 0
-0.0374 -0.1193 -0.2920 0.949 0.049 0.310 171 171 173 0 0
-0.0374 -0.1194 -0.2936 0.884 -0.260 0.389 171 171 173 0 0
-0.0373 -0.1196 -0.2952 0.852 -0.497 0.165 163 163 164 0 0
-0.0365 -0.1200 -0.2966 0.599 -0.695 0.397 119 117 113 0 0
-0.0192 -0.1278 -0.3238 0.874 -0.316 0.369 87 57 29 0 0
-0.1326 -0.1071 -0.4893 0.271 -0.875 0.400 137 125 103 0 0
-0.1253 -0.1103 -0.4997 0.736 -0.671 0.090 94 81 57 0 0
-0.1223 -0.1117 -0.5042 0.506 -0.831 0.233 96 83 63 0 0
-0.0360 -0.1419 -0.5426 0.859 -0.443 0.257 108 87 54 0 0
-0.0374 -0.1439 -0.5700 0.922 -0.377 0.094 149 132 88 0 0
-0.0373 -0.1441 -0.5719 0.922 -0.377 0.094 165 149 105 0 0
-0.0394 -0.1460 -0.6002 0.959 -0.282 -0.016 167 150 107 0 0
-0.0389 -0.1463 -0.6018 0.935 -0.331 0.127 164 149 106 0 0
-0.0394 -0.1468 -0.6099 0.952 -0.223 0.208 140 122 83 0 0
-0.0425 -0.1467 -0.6197 0.756 -0.526 0.389 170 156 111 0 0
-0.0386 -0.1484 -0.6253 0.857 -0.189 0.480 156 137 93 0 0
-0.0453 -0.1510 -0.6778 0.985 -0.068 0.158 94 76 35 0 0
-0.0421 -0.1531 -0.6902 0.895 -0.382 0.230 149 127 84 0 0
-0.0470 -0.1528 -0.7038 0.792 -0.609 0.032 164 144 99 0 0
-0.0476 -0.1528 -0.7063 0.696 -0.682 -0.224 153 134 92 0 0
-0.0368 -0.1217 -0.2981 0.223 -0.521 0.824 91 86 78 0 0
-0.0186 -0.1278 -0.3040 0.847 -0.232 0.478 78 56 39 0 0
-0.0179 -0.1282 -0.3054 0.847 -0.232 0.478 73 45 23 0 0
-0.0202 -0.1291 -0.3238 0.812 -0.488 0.321 87 57 29 0 0
-0.1333 -0.1090 -0.4911 0.724 -0.660 0.201 121 109 88 0 0
-0.1326 -0.1094 -0.4928 0.423 -0.884 0.198 117 104 83 0 0
-0.1315 -0.1098 -0.4943 0.377 -0.605 0.701 110 97 75 0 0
-0.1298 -0.1110 -0.5013 0.034 -0.939 0.343 81 69 45 0 0
-0.1246 -0.1129 -0.5048 0.297 -0.842 0.450 88 76 56 0 0
-0.1236 -0.1133 -0.5063 0.402 -0.915 0.038 82 70 51 0 0
-0.0465 -0.1372 -0.5064 0.921 0.316 -0.228 71 63 48 0 0
-0.0466 -0.1374 -0.5083 0.869 0.494 0.027 73 66 52 0 0
-0.0379 -0.1455 -0.5699 0.942 -0.299 0.151 139 122 81 0 0
-0.0383 -0.1498 -0.6187 0.778 -0.305 0.549 153 139 93 0 0
-0.0391 -0.1501 -0.6251 0.857 -0.189 0.480 164 146 100 0 0
-0.0482 -0.1543 -0.7040 0.792 -0.609 0.032 140 124 86 0 0
-0.0486 -0.1544 -0.7064 0.943 -0.324 -0.080 155 144 116 0 0
-0.0193 -0.1252 -0.2581 0.805 -0.422 0.417 50 40 25 0 0
-0.0208 -0.1323 -0.3434 0.912 -0.277 0.304 100 78 46 0 0
-0.0483 -0.1382 -0.5031 0.835 0.534 0.132 63 53 40 0 0
-0.0474 -0.1386 -0.5046 0.774 0.581 0.252 79 69 56 0 0
-0.0372 -0.1451 -0.5424 0.890 -0.448 0.088 107 90 55 0 0
-0.0370 -0.1455 -0.5461 0.845 -0.421 0.329 107 91 55 0 0
-0.0365 -0.1458 -0.5477 0.845 -0.421 0.329 129 113 75 0 0
-0.0386 -0.1469 -0.5679 0.822 -0.519 0.235 156 139 100 0 0
-0.0390 -0.1470 -0.5700 0.886 -0.351 0.304 162 143 106 0 0
-0.0385 -0.1473 -0.5717 0.886 -0.351 0.304 159 139 102 0 0
-0.0422 -0.1506 -0.6205 0.666 -0.448 0.597 155 139 93 0 0
-0.0438 -0.1530 -0.6535 0.939 -0.339 0.051 168 151 106 0 0
-0.0437 -0.1532 -0.6555 0.939 -0.339 0.051 130 113 69 0 0
-0.0422 -0.1541 -0.6606 0.972 -0.234 0.024 151 132 84 0 0
-0.0416 -0.1548 -0.6663 0.990 -0.138 -0.043 136 120 77 0 0
-0.0446 -0.1545 -0.6723 0.929 -0.353 -0.110 131 110 66 0 0
-0.0456 -0.1546 -0.6770 0.963 -0.269 -0.034 101 83 46 0 0
-0.0496 -0.1554 -0.7003 0.971 -0.236 0.034 139 122 86 0 0
-0.0496 -0.1556 -0.7023 0.971 -0.236 0.034 129 116 86 0 0
-0.0192 -0.1268 -0.2579 0.772 -0.463 0.436 82 73 58 0 0
-0.0187 -0.1270 -0.2593 0.926 -0.250 0.283 43 33 20 0 0
-0.0197 -0.1280 -0.2736 0.833 -0.535 0.142 61 40 25 0 0
-0.0243 -0.1327 -0.3410 0.947 -0.172 0.271 89 62 35 0 0
-0.0236 -0.1330 -0.3424 0.979 -0.134 0.157 92 66 37 0 0
-0.0200 -0.1346 -0.3478 0.874 -0.435 0.217 116 101 63 0 0
-0.0652 -0.1344 -0.4996 0.172 -0.504 0.846 82 74 56 0 0
-0.0653 -0.1346 -0.5015 0.177 -0.809 0.561 93 85 66 0 0
-0.0361 -0.1455 -0.5227 0.859 -0.462 0.223 128 108 79 0 0
-0.0398 -0.1484 -0.5681 0.895 0.081 0.438 146 125 86 0 0
-0.0402 -0.1502 -0.5895 0.862 -0.457 0.219 148 132 89 0 0
-0.0402 -0.1507 -0.5953 0.889 -0.107 0.445 164 148 105 0 0
-0.0396 -0.1528 -0.6165 0.754 -0.518 0.405 172 156 107 0 0
-0.0445 -0.1547 -0.6534 0.893 -0.446 0.063 169 151 106 0 0
-0.0444 -0.1549 -0.6553 0.939 -0.339 0.051 133 113 73 0 0
-0.0205 -0.1294 -0.2736 0.865 -0.495 0.081 61 39 23 0 0
-0.0204 -0.1296 -0.2752 0.852 -0.515 0.095 66 49 39 0 0
-0.0220 -0.1316 -0.3026 0.905 -0.285 0.316 57 38 24 0 0
-0.0356 -0.1472 -0.5202 0.981 -0.159 0.111 119 99 70 0 0
-0.0378 -0.1483 -0.5400 0.803 -0.581 0.135 131 113 74 0 0
-0.0388 -0.1554 -0.6215 0.814 -0.297 0.498 125 106 61 0 0
-0.0441 -0.1562 -0.6486 0.967 -0.225 0.118 174 157 109 0 0
-0.0444 -0.1563 -0.6508 0.959 -0.284 -0.010 162 144 97 0 0
-0.0450 -0.1563 -0.6532 0.939 -0.339 0.051 175 158 110 0 0
-0.0450 -0.1565 -0.6552 0.939 -0.339 0.051 149 132 89 0 0
-0.0212 -0.1310 -0.2751 0.938 -0.327 -0.118 60 43 29 0 0
-0.0210 -0.1311 -0.2767 0.825 -0.565 -0.016 89 77 67 0 0
-0.0249 -0.1360 -0.3423 0.781 -0.427 0.456 89 63 35 0 0
-0.0387 -0.1484 -0.5251 0.804 -0.556 0.211 123 106 70 0 0
-0.0388 -0.1508 -0.5515 0.942 -0.328 0.075 109 95 56 0 0
-0.0411 -0.1551 -0.6066 0.775 -0.521 0.358 163 148 106 0 0
-0.0404 -0.1557 -0.6101 0.684 -0.560 0.468 149 132 89 0 0
-0.0445 -0.1579 -0.6484 0.967 -0.225 0.118 164 147 99 0 0
-0.0455 -0.1578 -0.6510 0.918 -0.395 0.024 145 129 85 0 0
-0.0461 -0.1579 -0.6534 0.893 -0.446 0.063 158 142 95 0 0
-0.0460 -0.1581 -0.6554 0.893 -0.446 0.063 167 153 104 0 0
-0.0460 -0.1583 -0.6574 0.893 -0.446 0.063 163 147 101 0 0
-0.0220 -0.1325 -0.2767 0.825 -0.565 -0.016 60 42 29 0 0
-0.0216 -0.1356 -0.3100 0.754 -0.391 0.527 97 71 44 0 0
-0.0242 -0.1372 -0.3352 0.742 -0.365 0.562 89 60 32 0 0
-0.0242 -0.1382 -0.3467 0.962 -0.169 0.213 118 98 65 0 0
-0.0439 -0.1541 -0.5844 0.614 -0.779 -0.128 41 35 27 0 0
-0.0423 -0.1546 -0.5855 0.843 -0.532 -0.080 46 38 26 0 0
-0.0421 -0.1569 -0.6087 0.767 -0.610 0.198 167 151 108 0 0
-0.0472 -0.1592 -0.6515 0.931 -0.319 0.176 152 134 92 0 0
-0.0242 -0.1358 -0.3025 0.824 -0.553 0.124 61 36 18 0 0
-0.0227 -0.1374 -0.3149 0.781 -0.270 0.564 81 49 24 0 0
-0.0235 -0.1382 -0.3265 0.779 -0.574 0.253 93 66 37 0 0
-0.0232 -0.1385 -0.3281 0.779 -0.574 0.253 88 61 32 0 0
-0.0230 -0.1387 -0.3296 0.930 -0.295 0.219 88 58 30 0 0
-0.0407 -0.1512 -0.5234 0.827 -0.517 0.219 103 85 56 0 0
-0.0398 -0.1542 -0.5530 0.967 -0.256 0.015 114 97 62 0 0
-0.0447 -0.1582 -0.6117 0.951 -0.308 -0.023 158 138 95 0 0
-0.0476 -0.1609 -0.6513 0.945 -0.140 0.294 157 138 93 0 0
-0.0233 -0.1389 -0.3149 0.781 -0.270 0.564 81 51 25 0 0
-0.0234 -0.1400 -0.3279 0.957 -0.286 -0.050 83 56 27 0 0
-0.0420 -0.1526 -0.5237 0.927 -0.162 0.339 117 100 68 0 0
-0.0416 -0.1529 -0.5253 0.928 -0.296 0.226 133 117 84 0 0
-0.0412 -0.1560 -0.5571 0.847 -0.343 0.406 127 112 78 0 0
-0.0408 -0.1563 -0.5588 0.909 -0.305 0.286 116 99 65 0 0
-0.0535 -0.1549 -0.5850 0.487 -0.869 -0.088 80 77 64 0 0
-0.0450 -0.1579 -0.5899 0.670 -0.417 0.614 68 56 41 0 0
-0.0429 -0.1586 -0.5907 0.747 -0.461 0.480 67 53 30 0 0
-0.0427 -0.1595 -0.6003 0.877 -0.327 0.352 166 149 104 0 0
-0.0451 -0.1599 -0.6115 0.954 -0.249 0.167 130 109 68 0 0
-0.0501 -0.1479 -0.4792 0.900 0.370 0.230 82 70 51 0 0
-0.0386 -0.1528 -0.4958 0.986 -0.133 0.099 102 86 53 0 0
-0.0398 -0.1560 -0.5334 0.819 -0.478 0.317 147 129 89 0 0
-0.0416 -0.1576 -0.5569 0.868 -0.400 0.295 112 96 63 0 0
-0.0412 -0.1579 -0.5586 0.888 -0.434 0.154 137 119 85 0 0
-0.0521 -0.1565 -0.5779 0.396 -0.710 -0.582 208 210 215 0 0
-0.0587 -0.1550 -0.5835 0.378 -0.693 -0.614 202 203 203 0 0
-0.0560 -0.1560 -0.5859 0.237 -0.956 0.173 78 75 63 0 0
-0.0592 -0.1554 -0.5897 0.105 -0.203 0.974 74 70 58 0 0
-0.0949 -0.1712 -0.8722 0.181 -0.497 0.848 187 187 188 0 0
-0.0242 -0.1417 -0.3130 0.887 -0.260 0.382 78 48 22 0 0
-0.0422 -0.1566 -0.5286 0.890 -0.257 0.376 120 104 68 0 0
-0.0417 -0.1569 -0.5301 0.890 -0.257 0.376 134 118 84 0 0
-0.0418 -0.1585 -0.5471 0.950 -0.288 0.122 101 85 54 0 0
-0.0424 -0.1590 -0.5550 0.888 -0.434 0.154 118 96 57 0 0
-0.0422 -0.1592 -0.5568 0.888 -0.434 0.154 126 105 64 0 0
-0.0421 -0.1594 -0.5586 0.762 -0.585 0.277 130 110 71 0 0
-0.0511 -0.1583 -0.5750 0.379 -0.752 -0.539 205 205 206 0 0
-0.0558 -0.1573 -0.5795 0.349 -0.764 -0.543 208 209 212 0 0
-0.0620 -0.1560 -0.5849 0.349 -0.741 -0.574 205 206 208 0 0
-0.0454 -0.1635 -0.6127 0.908 -0.103 0.405 155 134 87 0 0
-0.0276 -0.1467 -0.3597 0.850 -0.510 0.133 119 99 64 0 0
-0.0433 -0.1575 -0.5231 0.962 -0.195 0.191 118 102 67 0 0
-0.0429 -0.1578 -0.5248 0.979 -0.171 0.108 124 108 72 0 0
-0.0477 -0.1627 -0.5921 0.858 -0.477 0.191 100 91 68 0 0
-0.0469 -0.1659 -0.6229 0.779 -0.472 0.414 154 136 87 0 0
-0.1022 -0.1733 -0.8743 0.378 -0.314 0.871 190 190 190 0 0
-0.0244 -0.1458 -0.3222 0.793 -0.562 0.234 85 58 34 0 0
-0.0240 -0.1460 -0.3238 0.790 -0.218 0.573 77 48 24 0 0
-0.0288 -0.1485 -0.3649 0.842 -0.538 -0.031 97 81 48 0 0
-0.0395 -0.1576 -0.4932 0.932 -0.347 0.101 112 94 61 0 0
-0.0407 -0.1590 -0.5121 0.880 -0.463 0.100 125 106 73 0 0
-0.0404 -0.1593 -0.5138 0.906 -0.422 0.028 98 79 48 0 0
-0.0439 -0.1591 -0.5230 0.955 -0.245 0.165 113 96 57 0 0
-0.0438 -0.1625 -0.5587 0.803 -0.546 0.238 92 78 48 0 0
-0.0534 -0.1611 -0.5734 0.414 -0.646 -0.641 204 203 200 0 0
-0.0595 -0.1598 -0.5787 0.412 -0.650 -0.639 204 206 205 0 0
-0.0489 -0.1642 -0.5922 0.941 -0.126 0.315 103 93 71 0 0
-0.1014 -0.1754 -0.8730 0.592 -0.638 0.493 190 190 190 0 0
-0.0243 -0.1476 -0.3236 0.819 -0.133 0.559 66 37 14 0 0
-0.0674 -0.1428 -0.4063 0.546 0.791 -0.276 188 187 189 0 0
-0.0690 -0.1426 -0.4087 0.544 0.799 -0.256 187 187 191 0 0
-0.0691 -0.1429 -0.4122 0.637 0.708 -0.305 186 187 191 0 0
-0.0758 -0.1436 -0.4400 0.508 0.861 0.009 192 193 197 0 0
-0.0753 -0.1439 -0.4415 0.508 0.861 0.009 192 193 197 0 0
-0.0416 -0.1581 -0.4865 0.939 -0.170 0.299 99 79 48 0 0
-0.0411 -0.1584 -0.4881 0.939 -0.170 0.299 94 75 44 0 0
-0.0415 -0.1605 -0.5121 0.880 -0.463 0.100 116 95 62 0 0
-0.0414 -0.1607 -0.5139 0.880 -0.463 0.100 104 84 54 0 0
-0.0444 -0.1607 -0.5228 0.955 -0.245 0.165 100 81 46 0 0
-0.0452 -0.1636 -0.5552 0.690 -0.663 0.292 68 55 37 0 0
-0.0467 -0.1641 -0.5655 0.942 -0.335 0.012 108 94 66 0 0
-0.0706 -0.1591 -0.5863 0.378 -0.679 -0.629 208 210 208 0 0
-0.0246 -0.1447 -0.2771 0.937 -0.199 0.286 62 39 22 0 0
-0.0267 -0.1453 -0.2903 0.950 -0.216 0.226 62 36 17 0 0
-0.0297 -0.1500 -0.3480 0.867 -0.395 0.305 94 67 32 0 0
-0.0314 -0.1515 -0.3685 0.920 -0.333 0.206 88 65 37 0 0
-0.0311 -0.1517 -0.3701 0.955 -0.222 0.199 112 93 61 0 0
-0.0417 -0.1597 -0.4862 0.829 -0.269 0.490 99 80 47 0 0
-0.0415 -0.1600 -0.4879 0.888 -0.404 0.218 88 71 38 0 0
-0.0413 -0.1602 -0.4897 0.931 -0.336 0.142 108 91 58 0 0
-0.0445 -0.1626 -0.5243 0.968 -0.234 0.086 113 94 66 0 0
-0.0493 -0.1688 -0.6032 0.907 -0.391 0.155 152 131 86 0 0
-0.0934 -0.1817 -0.8723 0.916 0.043 -0.399 195 195 195 0 0
-0.0310 -0.1513 -0.3481 0.832 -0.477 0.284 87 61 30 0 0
-0.0298 -0.1521 -0.3527 0.892 -0.374 0.255 98 79 45 0 0
-0.0420 -0.1617 -0.4896 0.962 -0.257 0.095 94 75 43 0 0
-0.0414 -0.1621 -0.4911 0.873 -0.325 0.363 117 98 65 0 0
-0.0416 -0.1622 -0.4931 0.875 -0.482 0.046 114 95 62 0 0
-0.0437 -0.1640 -0.5180 0.840 -0.536 0.083 117 101 65 0 0
-0.0464 -0.1648 -0.5343 0.999 -0.036 -0.036 116 100 67 0 0
-0.0652 -0.1645 -0.5883 0.292 0.254 0.922 36 29 22 0 0
-0.0272 -0.1484 -0.2900 0.841 -0.250 0.479 67 40 21 0 0
-0.0415 -0.1637 -0.4908 0.964 -0.234 0.128 119 100 67 0 0
-0.0425 -0.1637 -0.4931 0.875 -0.482 0.046 116 97 65 0 0
-0.0461 -0.1659 -0.5262 0.910 -0.416 -0.010 112 94 61 0 0
-0.0464 -0.1665 -0.5338 0.986 -0.025 0.167 153 144 124 0 0
-0.0639 -0.1630 -0.5504 0.489 -0.517 -0.703 194 194 190 0 0
-0.0620 -0.1669 -0.5841 0.123 -0.480 0.868 32 28 18 0 0
-0.0486 -0.1715 -0.5922 0.952 -0.082 0.294 93 79 43 0 0
-0.0281 -0.1513 -0.3060 0.724 -0.673 0.148 76 48 27 0 0
-0.0317 -0.1531 -0.3347 0.879 -0.415 0.234 79 50 25 0 0
-0.0418 -0.1654 -0.4906 0.981 -0.113 0.157 109 90 57 0 0
-0.0468 -0.1674 -0.5261 0.910 -0.416 -0.010 142 123 85 0 0
-0.0476 -0.1680 -0.5340 0.833 -0.375 -0.405 179 177 171 0 0
-0.0587 -0.1657 -0.5435 0.430 -0.631 -0.645 198 198 199 0 0
-0.0496 -0.1727 -0.5884 0.927 -0.279 0.252 59 50 32 0 0
-0.0495 -0.1729 -0.5903 0.856 -0.356 0.374 76 62 37 0 0
-0.0286 -0.1517 -0.2947 0.914 -0.295 0.279 73 46 25 0 0
-0.0283 -0.1519 -0.2962 0.914 -0.295 0.279 67 39 18 0 0
-0.0279 -0.1522 -0.2977 0.921 -0.322 0.217 78 50 28 0 0
-0.0281 -0.1523 -0.2993 0.956 -0.238 0.170 75 47 25 0 0
-0.0281 -0.1524 -0.3009 0.984 -0.180 -0.018 73 43 22 0 0
-0.0314 -0.1524 -0.3099 0.978 0.003 0.209 77 49 27 0 0
-0.0311 -0.1526 -0.3114 0.978 0.003 0.209 70 44 24 0 0
-0.0319 -0.1546 -0.3345 0.905 -0.321 0.278 78 48 24 0 0
-0.0493 -0.1693 -0.5345 0.548 -0.728 -0.413 198 198 198 0 0
-0.0649 -0.1662 -0.5481 0.494 -0.505 -0.708 198 198 200 0 0
-0.0522 -0.1746 -0.5972 0.901 -0.433 0.003 138 121 76 0 0
-0.0529 -0.1748 -0.6015 0.946 -0.315 -0.069 151 133 87 0 0
-0.0279 -0.1539 -0.2990 0.840 -0.515 0.171 77 49 27 0 0
-0.0314 -0.1540 -0.3097 0.935 -0.349 0.067 78 57 38 0 0
-0.0311 -0.1542 -0.3112 0.995 0.020 0.095 106 94 83 0 0
-0.0300 -0.1546 -0.3125 0.947 0.180 -0.266 149 144 136 0 0
-0.0304 -0.1547 -0.3142 0.498 -0.679 -0.539 169 167 162 0 0
-0.0385 -0.1605 -0.3968 0.960 -0.271 -0.065 140 123 83 0 0
-0.0395 -0.1606 -0.4006 0.969 -0.145 -0.198 124 110 73 0 0
-0.0437 -0.1639 -0.4459 0.925 0.363 0.116 96 81 53 0 0
-0.0447 -0.1647 -0.4570 0.971 -0.058 0.232 107 91 54 0 0
-0.0444 -0.1650 -0.4586 0.975 -0.101 0.200 90 74 39 0 0
-0.0455 -0.1677 -0.4897 0.821 -0.481 0.309 114 95 62 0 0
-0.0484 -0.1696 -0.5168 0.821 -0.552 -0.147 92 79 61 0 0
-0.0474 -0.1709 -0.5275 0.926 -0.377 -0.031 146 130 87 0 0
-0.0530 -0.1758 -0.5933 0.925 -0.375 -0.066 118 99 65 0 0
-0.0533 -0.1761 -0.5974 0.974 -0.223 -0.043 161 145 100 0 0
-0.0540 -0.1763 -0.6017 0.964 -0.225 -0.145 140 128 92 0 0
-0.0290 -0.1552 -0.2991 0.819 -0.483 0.309 77 49 27 0 0
-0.0303 -0.1551 -0.3011 0.803 -0.596 0.002 79 48 27 0 0
-0.0300 -0.1561 -0.3106 0.833 0.521 0.188 167 164 160 0 0
-0.0302 -0.1562 -0.3123 0.833 -0.338 -0.438 173 172 171 0 0
-0.0431 -0.1541 -0.3277 0.167 -0.860 0.483 77 72 64 0 0
-0.0355 -0.1616 -0.3817 0.843 -0.536 0.033 94 70 40 0 0
-0.0360 -0.1616 -0.3836 0.940 -0.322 0.109 93 71 42 0 0
-0.0389 -0.1621 -0.3966 0.731 -0.653 0.196 123 104 64 0 0
-0.0387 -0.1623 -0.3982 0.731 -0.653 0.196 141 122 78 0 0
-0.0397 -0.1622 -0.4004 0.727 -0.679 0.107 125 107 63 0 0
-0.0433 -0.1667 -0.4560 0.928 -0.369 0.060 143 128 84 0 0
-0.0430 -0.1670 -0.4576 0.849 -0.528 0.034 118 102 60 0 0
-0.0486 -0.1722 -0.5258 0.935 -0.318 0.155 81 67 33 0 0
-0.0582 -0.1724 -0.5553 0.457 0.181 0.871 60 53 46 0 0
-0.0535 -0.1761 -0.5796 0.928 -0.372 -0.018 99 85 59 0 0
-0.0535 -0.1773 -0.5912 0.925 -0.375 -0.066 116 102 67 0 0
-0.0537 -0.1774 -0.5932 0.925 -0.375 -0.066 132 116 84 0 0
-0.0537 -0.1778 -0.5971 0.974 -0.223 -0.043 152 143 118 0 0
-0.0305 -0.1574 -0.3089 0.896 0.328 0.299 139 134 129 0 0
-0.0366 -0.1563 -0.3156 0.335 -0.788 -0.517 172 172 174 0 0
-0.0424 -0.1636 -0.4045 0.987 -0.155 0.031 114 94 54 0 0
-0.0424 -0.1637 -0.4062 0.987 -0.155 0.031 136 116 73 0 0
-0.0428 -0.1645 -0.4151 0.999 -0.011 -0.039 103 86 59 0 0
-0.0446 -0.1665 -0.4403 0.963 -0.255 0.093 113 94 60 0 0
-0.0445 -0.1667 -0.4420 0.963 -0.255 0.093 107 84 48 0 0
-0.0444 -0.1669 -0.4437 0.902 -0.238 0.359 123 103 60 0 0
-0.0438 -0.1672 -0.4452 0.902 -0.238 0.359 124 103 62 0 0
-0.0443 -0.1682 -0.4561 0.669 -0.735 0.109 134 118 73 0 0
-0.0337 -0.1638 -0.3653 0.856 -0.448 0.259 89 63 36 0 0
-0.0431 -0.1649 -0.4027 0.937 -0.169 0.305 119 100 62 0 0
-0.0433 -0.1652 -0.4063 0.912 -0.367 0.182 105 85 47 0 0
-0.0449 -0.1681 -0.4400 0.914 -0.300 0.274 120 101 67 0 0
-0.0445 -0.1684 -0.4416 0.914 -0.300 0.274 106 82 49 0 0
-0.0760 -0.1709 -0.5541 0.823 0.054 -0.566 133 132 129 0 0
-0.0535 -0.1787 -0.5691 0.939 -0.340 -0.057 120 102 58 0 0
-0.0336 -0.1589 -0.2997 0.799 -0.429 0.422 81 55 32 0 0
-0.0335 -0.1592 -0.3029 0.811 -0.462 0.359 75 49 26 0 0
-0.0348 -0.1651 -0.3655 0.921 -0.317 0.224 86 60 33 0 0
-0.0352 -0.1654 -0.3689 0.885 -0.394 0.249 98 78 48 0 0
-0.0358 -0.1654 -0.3709 0.837 -0.237 0.493 106 85 58 0 0
-0.0447 -0.1700 -0.4414 0.849 -0.517 0.109 92 70 38 0 0
-0.0445 -0.1703 -0.4431 0.857 -0.490 0.158 90 68 33 0 0
-0.0449 -0.1704 -0.4450 0.823 -0.545 0.159 97 75 41 0 0
-0.0460 -0.1722 -0.4668 0.845 -0.488 0.219 99 80 46 0 0
-0.0457 -0.1725 -0.4685 0.854 -0.439 0.280 105 86 52 0 0
-0.0626 -0.1753 -0.5430 0.630 -0.203 -0.749 195 198 200 0 0
-0.0590 -0.1811 -0.5910 0.635 -0.770 -0.063 214 215 216 0 0
-0.0343 -0.1606 -0.3029 0.811 -0.462 0.359 74 49 26 0 0
-0.0666 -0.1543 -0.3290 0.064 -0.229 0.971 168 167 163 0 0
-0.0535 -0.1582 -0.3316 0.185 -0.235 0.954 68 64 59 0 0
-0.0354 -0.1666 -0.3654 0.921 -0.317 0.224 84 58 31 0 0
-0.0359 -0.1670 -0.3706 0.820 -0.529 0.219 108 89 60 0 0
-0.0428 -0.1704 -0.4227 0.959 -0.172 0.224 100 82 57 0 0
-0.0432 -0.1705 -0.4246 0.958 -0.195 0.211 97 78 52 0 0
-0.0428 -0.1714 -0.4332 0.963 -0.267 -0.026 108 87 55 0 0
-0.0442 -0.1729 -0.4514 0.966 -0.254 0.057 116 95 60 0 0
-0.0471 -0.1735 -0.4652 0.922 -0.336 0.190 107 88 56 0 0
-0.0468 -0.1737 -0.4668 0.922 -0.336 0.190 111 93 61 0 0
-0.0471 -0.1757 -0.4868 0.808 -0.585 0.078 117 97 62 0 0
-0.0492 -0.1759 -0.4951 0.782 -0.346 0.519 109 89 55 0 0
-0.0485 -0.1763 -0.4966 0.900 -0.339 0.272 101 81 49 0 0
-0.0503 -0.1764 -0.5029 0.668 -0.300 -0.681 175 173 167 0 0
-0.0640 -0.1771 -0.5470 0.494 0.749 0.442 53 45 29 0 0
-0.0555 -0.1813 -0.5655 0.791 -0.581 -0.190 149 129 81 0 0
-0.0607 -0.1825 -0.5915 0.643 -0.762 -0.075 214 216 217 0 0
-0.0655 -0.1562 -0.3284 0.594 -0.436 0.676 166 165 162 0 0
-0.0389 -0.1678 -0.3697 0.800 -0.499 0.334 93 69 41 0 0
-0.0384 -0.1680 -0.3712 0.800 -0.499 0.334 100 77 47 0 0
-0.0407 -0.1697 -0.3940 0.740 -0.449 0.501 109 86 54 0 0
-0.0399 -0.1701 -0.3954 0.724 -0.358 0.590 101 80 48 0 0
-0.0434 -0.1717 -0.4209 0.987 -0.110 0.118 111 89 57 0 0
-0.0454 -0.1745 -0.4534 0.847 -0.518 0.120 118 98 63 0 0
-0.0476 -0.1754 -0.4686 0.819 -0.545 0.179 105 84 53 0 0
-0.0509 -0.1770 -0.4937 0.855 -0.214 0.472 99 80 43 0 0
-0.0499 -0.1775 -0.4950 0.782 -0.346 0.519 113 96 59 0 0
-0.0492 -0.1778 -0.4965 0.900 -0.339 0.272 102 84 50 0 0
-0.0532 -0.1801 -0.5299 0.800 -0.257 0.542 120 104 68 0 0
-0.0544 -0.1602 -0.3214 0.379 -0.410 -0.829 170 170 172 0 0
-0.0379 -0.1679 -0.3524 0.941 -0.337 -0.022 85 58 32 0 0
-0.0460 -0.1742 -0.4356 0.902 -0.068 0.426 113 93 60 0 0
-0.0461 -0.1760 -0.4533 0.918 -0.396 0.013 108 88 55 0 0
-0.0514 -0.1786 -0.4935 0.855 -0.214 0.472 115 94 59 0 0
-0.0506 -0.1790 -0.4950 0.782 -0.346 0.519 115 94 59 0 0
-0.0504 -0.1792 -0.4967 0.899 -0.356 0.255 100 79 46 0 0
-0.0501 -0.1795 -0.4983 0.899 -0.356 0.255 102 81 49 0 0
-0.0518 -0.1793 -0.5010 0.760 -0.646 -0.068 133 121 103 0 0
-0.0535 -0.1818 -0.5296 0.883 -0.101 0.459 123 108 70 0 0
-0.0682 -0.1589 -0.3287 0.139 0.294 0.946 138 135 132 0 0
-0.0402 -0.1688 -0.3512 0.966 -0.256 0.023 84 57 30 0 0
-0.0405 -0.1691 -0.3546 0.983 -0.182 0.034 85 58 31 0 0
-0.0401 -0.1694 -0.3562 0.974 -0.169 0.153 82 55 28 0 0
-0.0373 -0.1704 -0.3585 0.838 -0.529 0.133 84 57 30 0 0
-0.0434 -0.1743 -0.4133 0.989 -0.148 -0.027 110 90 57 0 0
-0.0470 -0.1773 -0.4516 0.831 -0.380 0.407 108 88 53 0 0
-0.0462 -0.1776 -0.4530 0.823 -0.394 0.409 101 81 49 0 0
-0.0487 -0.1784 -0.4666 0.736 -0.568 0.368 119 99 67 0 0
-0.0486 -0.1786 -0.4683 0.826 -0.494 0.273 106 86 53 0 0
-0.0482 -0.1788 -0.4700 0.836 -0.477 0.273 114 94 61 0 0
-0.0498 -0.1792 -0.4779 0.860 -0.492 0.139 87 67 35 0 0
-0.0496 -0.1794 -0.4796 0.860 -0.492 0.139 101 81 51 0 0
-0.0510 -0.1806 -0.4947 0.731 -0.622 0.281 117 95 60 0 0
-0.0507 -0.1809 -0.4965 0.787 -0.571 0.233 89 66 33 0 0
-0.0510 -0.1810 -0.4984 0.841 -0.378 0.387 113 93 63 0 0
-0.0544 -0.1833 -0.5297 0.864 -0.319 0.389 109 93 57 0 0
-0.0589 -0.1848 -0.5565 0.981 -0.191 -0.034 125 104 66 0 0
-0.0590 -0.1850 -0.5584 0.981 -0.191 -0.034 138 120 85 0 0
-0.0591 -0.1852 -0.5604 0.981 -0.191 -0.034 140 124 92 0 0
-0.0592 -0.1853 -0.5623 0.981 -0.191 -0.034 133 119 89 0 0
-0.0386 -0.1651 -0.2951 0.917 -0.375 0.133 63 38 21 0 0
-0.0363 -0.1707 -0.3430 0.806 -0.256 0.534 81 56 29 0 0
-0.0413 -0.1702 -0.3513 0.633 -0.658 0.408 87 60 33 0 0
-0.0401 -0.1713 -0.3592 0.913 -0.407 0.028 94 67 39 0 0
-0.0442 -0.1763 -0.4185 0.926 -0.344 0.157 107 85 55 0 0
-0.0482 -0.1785 -0.4500 0.844 -0.366 0.393 110 88 57 0 0
-0.0477 -0.1788 -0.4515 0.831 -0.380 0.407 107 87 51 0 0
-0.0484 -0.1803 -0.4679 0.940 -0.339 0.043 97 77 44 0 0
-0.0484 -0.1805 -0.4697 0.940 -0.339 0.043 101 80 47 0 0
-0.0520 -0.1819 -0.4930 0.953 -0.190 0.237 116 96 61 0 0
-0.0518 -0.1822 -0.4947 0.952 -0.252 0.173 112 91 55 0 0
-0.0517 -0.1824 -0.4965 0.920 -0.382 0.085 110 90 55 0 0
-0.0517 -0.1826 -0.4983 0.911 -0.327 0.252 116 98 69 0 0
-0.0513 -0.1828 -0.5000 0.995 -0.045 -0.092 185 177 165 0 0
-0.0559 -0.1837 -0.5207 0.918 -0.089 0.387 77 69 62 0 0
-0.0552 -0.1841 -0.5222 0.849 -0.116 0.515 55 46 37 0 0
-0.0541 -0.1845 -0.5235 0.712 -0.156 0.685 81 73 57 0 0
-0.0533 -0.1849 -0.5249 0.835 -0.292 0.466 79 65 42 0 0
-0.0587 -0.1864 -0.5540 0.888 -0.433 -0.155 131 113 79 0 0
-0.0592 -0.1865 -0.5562 0.981 -0.191 -0.034 119 103 74 0 0
-0.0593 -0.1867 -0.5582 0.981 -0.191 -0.034 135 125 102 0 0
-0.0350 -0.1684 -0.3018 0.713 -0.505 0.486 63 37 20 0 0
-0.0382 -0.1715 -0.3401 0.790 -0.159 0.592 82 56 28 0 0
-0.0391 -0.1718 -0.3453 0.811 -0.575 0.109 94 69 42 0 0
-0.0385 -0.1721 -0.3468 0.663 -0.538 0.520 84 58 31 0 0
-0.0379 -0.1724 -0.3482 0.808 -0.588 0.025 85 56 30 0 0
-0.0438 -0.1752 -0.3906 0.982 -0.191 0.001 96 73 42 0 0
-0.0448 -0.1768 -0.4081 0.901 -0.433 0.026 130 112 74 0 0
-0.0449 -0.1778 -0.4184 0.908 -0.349 0.232 95 71 40 0 0
-0.0445 -0.1794 -0.4322 0.890 -0.391 0.234 127 108 71 0 0
-0.0482 -0.1802 -0.4496 0.940 -0.091 0.327 116 93 62 0 0
-0.0483 -0.1803 -0.4514 0.812 -0.402 0.423 125 103 63 0 0
-0.0494 -0.1803 -0.4537 0.976 -0.145 0.165 114 95 52 0 0
-0.0496 -0.1832 -0.4824 0.905 -0.419 0.075 117 96 64 0 0
-0.0526 -0.1842 -0.5002 0.897 -0.354 0.264 166 156 143 0 0
-0.0562 -0.1854 -0.5204 0.918 -0.089 0.387 67 61 53 0 0
-0.0555 -0.1857 -0.5219 0.918 -0.089 0.387 56 49 38 0 0
-0.0549 -0.1860 -0.5235 0.850 -0.143 0.507 84 77 57 0 0
-0.0595 -0.1880 -0.5540 0.888 -0.433 -0.155 138 130 111 0 0
-0.0592 -0.1884 -0.5577 0.998 0.057 0.024 205 202 197 0 0
-0.0591 -0.1886 -0.5595 0.998 0.057 0.024 205 205 204 0 0
-0.0390 -0.1738 -0.3483 0.682 -0.660 0.316 82 55 28 0 0
-0.0389 -0.1740 -0.3499 0.855 -0.518 0.021 86 60 33 0 0
-0.0393 -0.1754 -0.3650 0.955 -0.250 0.159 94 68 41 0 0
-0.0453 -0.1781 -0.4062 0.979 -0.154 0.130 101 81 48 0 0
-0.0454 -0.1801 -0.4253 0.921 -0.390 0.007 112 91 57 0 0
-0.0483 -0.1807 -0.4387 0.899 -0.426 0.101 103 85 48 0 0
-0.0504 -0.1841 -0.4770 0.731 -0.614 0.296 107 86 57 0 0
-0.0544 -0.1857 -0.5025 0.610 -0.225 -0.760 191 188 184 0 0
-0.0596 -0.1895 -0.5517 0.987 -0.160 -0.027 165 159 143 0 0
-0.0596 -0.1897 -0.5536 0.989 -0.149 0.004 198 200 198 0 0
-0.0402 -0.1739 -0.3369 0.802 -0.488 0.344 81 51 26 0 0
-0.0400 -0.1752 -0.3484 0.645 -0.606 0.466 79 52 25 0 0
-0.0389 -0.1770 -0.3629 0.835 -0.489 0.251 82 56 29 0 0
-0.0397 -0.1770 -0.3649 0.955 -0.250 0.159 88 62 35 0 0
-0.0455 -0.1797 -0.4060 0.936 -0.096 0.339 102 82 49 0 0
-0.0470 -0.1816 -0.4273 0.942 -0.262 0.210 94 72 36 0 0
-0.0480 -0.1826 -0.4400 0.708 -0.581 0.402 99 80 45 0 0
-0.0598 -0.1865 -0.5065 0.594 -0.141 -0.792 195 195 192 0 0
-0.0659 -0.1853 -0.5113 0.594 -0.141 -0.792 195 194 191 0 0
-0.0578 -0.1883 -0.5185 0.740 0.575 0.348 50 41 32 0 0
-0.0556 -0.1899 -0.5286 0.906 -0.421 0.037 122 101 63 0 0
-0.0559 -0.1902 -0.5325 0.766 -0.561 0.313 121 104 66 0 0
-0.0594 -0.1903 -0.5418 0.981 -0.194 0.012 125 106 64 0 0
-0.0594 -0.1904 -0.5437 0.981 -0.194 0.012 125 108 68 0 0
-0.0596 -0.1906 -0.5456 0.987 -0.160 -0.027 123 111 80 0 0
-0.0597 -0.1908 -0.5476 0.987 -0.160 -0.027 147 142 122 0 0
-0.0597 -0.1910 -0.5495 0.987 -0.160 -0.027 185 184 175 0 0
-0.0598 -0.1912 -0.5515 0.989 -0.149 0.004 205 205 205 0 0
-0.0396 -0.1772 -0.3513 0.929 -0.116 0.353 84 58 30 0 0
-0.0427 -0.1769 -0.3556 0.882 -0.369 0.294 83 58 28 0 0
-0.0406 -0.1780 -0.3616 0.912 -0.235 0.335 87 61 34 0 0
-0.0400 -0.1785 -0.3647 0.937 -0.302 0.176 86 60 33 0 0
-0.0416 -0.1792 -0.3753 0.915 -0.379 0.137 93 70 39 0 0
-0.0417 -0.1803 -0.3855 0.847 -0.514 0.138 86 62 34 0 0
-0.0443 -0.1800 -0.3898 0.932 -0.344 0.116 93 71 42 0 0
-0.0461 -0.1820 -0.4128 0.784 -0.439 0.439 89 65 37 0 0
-0.0586 -0.1896 -0.5167 0.730 0.643 0.232 44 35 24 0 0
-0.0567 -0.1902 -0.5176 0.740 0.575 0.348 43 34 23 0 0
-0.0582 -0.1916 -0.5351 0.782 -0.609 -0.135 135 117 79 0 0
-0.0587 -0.1917 -0.5372 0.782 -0.609 -0.135 135 113 72 0 0
-0.0598 -0.1917 -0.5397 0.958 -0.285 0.030 145 123 82 0 0
-0.0597 -0.1919 -0.5415 0.964 -0.264 -0.031 130 112 78 0 0
-0.0598 -0.1921 -0.5435 0.964 -0.264 -0.031 126 117 95 0 0
-0.0597 -0.1923 -0.5453 0.998 -0.046 -0.036 180 178 169 0 0
-0.0597 -0.1925 -0.5472 0.999 -0.052 0.007 203 204 201 0 0
-0.0416 -0.1768 -0.3369 0.825 -0.279 0.491 79 50 25 0 0
-0.0455 -0.1809 -0.3849 0.884 -0.235 0.403 86 65 36 0 0
-0.0452 -0.1811 -0.3865 0.901 -0.384 0.204 84 62 34 0 0
-0.0447 -0.1814 -0.3880 0.972 -0.225 0.069 77 55 26 0 0
-0.0459 -0.1822 -0.3986 0.830 -0.535 0.157 90 67 36 0 0
-0.0466 -0.1835 -0.4126 0.782 -0.610 0.132 100 77 46 0 0
-0.0493 -0.1838 -0.4224 0.804 -0.578 0.141 99 79 46 0 0
-0.0516 -0.1848 -0.4373 0.814 -0.354 0.460 93 71 40 0 0
-0.0509 -0.1851 -0.4388 0.779 -0.408 0.476 113 94 62 0 0
-0.0544 -0.1887 -0.4814 0.885 -0.278 0.374 93 72 42 0 0
-0.0574 -0.1916 -0.5157 0.806 0.554 0.208 48 37 21 0 0
-0.0590 -0.1930 -0.5332 0.782 -0.609 -0.135 123 103 64 0 0
-0.0594 -0.1931 -0.5353 0.782 -0.609 -0.135 121 103 64 0 0
-0.0600 -0.1934 -0.5394 0.987 -0.149 0.061 129 116 93 0 0
-0.0599 -0.1936 -0.5412 0.987 -0.160 -0.027 172 163 154 0 0
-0.0595 -0.1939 -0.5429 0.939 0.294 0.179 201 200 199 0 0
-0.0597 -0.1940 -0.5449 0.998 -0.046 -0.036 202 205 207 0 0
-0.0417 -0.1779 -0.3317 0.973 -0.212 0.092 71 43 21 0 0
-0.0435 -0.1813 -0.3687 0.864 -0.385 0.325 91 65 37 0 0
-0.0461 -0.1824 -0.3848 0.781 -0.559 0.279 78 59 34 0 0
-0.0457 -0.1826 -0.3864 0.781 -0.559 0.279 87 67 39 0 0
-0.0450 -0.1830 -0.3878 0.932 -0.363 -0.004 81 61 29 0 0
-0.0451 -0.1831 -0.3895 0.932 -0.363 -0.004 80 60 29 0 0
-0.0438 -0.1840 -0.3941 0.903 -0.422 0.080 94 71 41 0 0
