ply
format ascii 1.0
element vertex 863
property float x
property float y
property float z
property float nx
property float ny
property float nz
property uchar diffuse_red
property uchar diffuse_green
property uchar diffuse_blue
property uchar class
property uchar detection
end_header
-0.1229 0.0491 -0.4873 -0.554 0.367 0.747 20 18 19 0 0
-0.1158 0.1642 -0.4956 -0.251 0.882 0.398 97 82 52 0 0
-0.1158 0.1632 -0.5234 -0.102 0.788 0.607 150 131 89 0 0
-0.1157 0.1644 -0.5244 0.212 0.924 0.320 159 141 95 0 0
-0.1163 0.1528 -0.5537 0.031 0.902 -0.431 111 95 61 0 0
-0.1216 0.0596 -0.6510 -0.197 0.736 0.647 44 37 32 0 0
-0.1215 0.0611 -0.6520 -0.236 0.730 0.642 37 32 28 0 0
-0.1214 0.0624 -0.6532 -0.475 0.756 0.450 79 75 71 0 0
-0.1170 0.1257 -0.7795 -0.339 0.920 0.198 69 60 42 0 0
-0.1158 0.1445 -0.7961 -0.106 0.974 0.201 68 55 33 0 0
-0.1158 0.1449 -0.7979 -0.106 0.974 0.201 54 42 24 0 0
-0.1156 0.1480 -0.7974 -0.178 0.891 0.418 49 38 21 0 0
-0.1149 0.1588 -0.8074 0.258 0.669 0.697 77 63 34 0 0
-0.1148 0.1591 -0.8093 -0.282 0.958 -0.046 99 84 52 0 0
-0.1142 0.1679 -0.8359 0.139 0.853 0.503 123 109 68 0 0
-0.1141 0.1687 -0.8373 0.139 0.853 0.503 152 133 89 0 0
-0.1217 0.0545 -0.3306 0.214 0.915 0.341 90 75 50 0 0
-0.1206 0.0672 -0.3932 0.083 0.978 0.189 68 52 32 0 0
-0.1205 0.0682 -0.4129 0.265 0.957 0.116 75 57 35 0 0
-0.1206 0.0636 -0.4386 0.306 0.942 0.142 13 11 10 0 0
-0.1207 0.0617 -0.4412 0.696 0.714 0.076 10 8 8 0 0
-0.1147 0.1585 -0.4935 -0.112 0.918 0.382 84 68 42 0 0
-0.1146 0.1594 -0.4947 -0.109 0.781 0.616 90 74 47 0 0
-0.1145 0.1604 -0.4958 0.040 0.823 0.567 93 78 50 0 0
-0.1145 0.1612 -0.4971 0.040 0.823 0.567 94 79 51 0 0
-0.1143 0.1624 -0.5186 0.030 0.983 0.181 142 124 83 0 0
-0.1142 0.1634 -0.5215 0.111 0.987 0.115 149 130 88 0 0
-0.1142 0.1633 -0.5233 -0.102 0.788 0.607 154 135 94 0 0
-0.1143 0.1629 -0.5252 0.105 0.993 0.058 154 136 91 0 0
-0.1147 0.1531 -0.5500 0.127 0.916 -0.380 131 116 78 0 0
-0.1147 0.1539 -0.5530 0.206 0.908 -0.364 113 97 64 0 0
-0.1147 0.1530 -0.5553 0.206 0.908 -0.364 103 86 54 0 0
-0.1202 0.0556 -0.6333 -0.242 0.844 0.478 31 22 14 0 0
-0.1203 0.0541 -0.6382 -0.116 0.979 0.168 28 20 15 0 0
-0.1203 0.0536 -0.6425 -0.124 0.879 0.460 35 27 20 0 0
-0.1202 0.0544 -0.6440 -0.124 0.879 0.460 36 28 19 0 0
-0.1201 0.0554 -0.6455 0.134 0.924 0.359 33 24 15 0 0
-0.1198 0.0601 -0.6506 0.100 0.795 0.599 61 54 50 0 0
-0.1198 0.0615 -0.6517 0.005 0.711 0.703 37 32 28 0 0
-0.1139 0.1565 -0.6812 0.042 0.992 -0.120 141 122 87 0 0
-0.1137 0.1584 -0.7093 -0.119 0.929 0.351 107 90 61 0 0
-0.1136 0.1595 -0.7105 0.249 0.631 0.734 150 129 96 0 0
-0.1131 0.1596 -0.8088 -0.282 0.958 -0.046 76 62 34 0 0
-0.1125 0.1677 -0.8360 0.114 0.898 0.424 138 125 83 0 0
-0.1231 0.0085 -0.2810 -0.211 0.850 0.482 106 100 86 0 0
-0.1230 0.0091 -0.2825 0.071 0.990 0.125 105 97 83 0 0
-0.1190 0.0654 -0.4224 0.082 0.996 -0.019 68 47 24 0 0
-0.1190 0.0657 -0.4274 0.222 0.975 0.020 86 71 43 0 0
-0.1201 0.0424 -0.4669 0.117 0.915 -0.385 37 33 32 0 0
-0.1202 0.0415 -0.4691 0.117 0.915 -0.385 39 35 34 0 0
-0.1131 0.1591 -0.4914 0.454 0.886 0.090 81 65 40 0 0
-0.1131 0.1589 -0.4932 0.063 0.751 0.657 85 69 43 0 0
-0.1131 0.1599 -0.4943 0.269 0.818 0.509 86 70 44 0 0
-0.1130 0.1604 -0.4958 0.214 0.914 0.345 87 71 45 0 0
-0.1134 0.1484 -0.5579 -0.466 0.870 -0.163 110 94 59 0 0
-0.1184 0.0566 -0.6446 0.058 0.798 0.600 35 28 21 0 0
-0.1168 0.0827 -0.6504 -0.323 -0.074 0.944 72 68 58 0 0
-0.1137 0.1347 -0.6517 -0.124 0.451 0.884 188 169 133 0 0
-0.1117 0.1632 -0.7135 0.035 0.874 0.484 136 118 88 0 0
-0.1124 0.1444 -0.7918 0.102 0.947 0.305 101 87 64 0 0
-0.1124 0.1450 -0.7935 0.024 0.985 0.171 89 79 58 0 0
-0.1115 0.1579 -0.8102 -0.224 0.951 0.213 73 64 38 0 0
-0.1113 0.1604 -0.8230 -0.365 0.931 0.009 184 171 130 0 0
-0.1103 0.1747 -0.8535 -0.071 0.950 0.305 119 107 74 0 0
-0.1184 0.0568 -0.3394 0.040 0.918 0.395 86 70 47 0 0
-0.1183 0.0586 -0.3404 -0.107 0.955 0.278 100 87 63 0 0
-0.1183 0.0589 -0.3419 -0.039 0.962 0.269 78 66 42 0 0
-0.1182 0.0593 -0.3434 -0.131 0.923 0.362 68 53 29 0 0
-0.1182 0.0596 -0.3449 -0.126 0.992 0.027 71 55 30 0 0
-0.1188 0.0473 -0.3653 0.021 0.945 0.327 92 79 58 0 0
-0.1174 0.0654 -0.4207 0.131 0.984 0.119 51 35 22 0 0
-0.1174 0.0660 -0.4221 0.232 0.952 0.199 77 59 37 0 0
-0.1174 0.0663 -0.4237 0.232 0.952 0.199 69 51 29 0 0
-0.1186 0.0402 -0.4696 -0.254 0.960 0.117 37 33 32 0 0
-0.1186 0.0394 -0.4717 -0.156 0.988 0.026 42 38 37 0 0
-0.1121 0.1440 -0.5622 -0.522 0.722 -0.454 70 53 33 0 0
-0.1169 0.0546 -0.6219 -0.143 0.984 -0.106 35 24 18 0 0
-0.1109 0.1542 -0.6634 -0.083 0.900 0.428 98 83 51 0 0
-0.1109 0.1549 -0.6648 -0.083 0.900 0.428 95 81 50 0 0
-0.1107 0.1567 -0.6752 0.113 0.994 -0.010 154 135 88 0 0
-0.1111 0.1474 -0.7014 0.550 0.835 -0.004 23 18 14 0 0
-0.1104 0.1578 -0.7096 0.121 0.988 0.096 144 129 96 0 0
-0.1104 0.1580 -0.7115 0.121 0.988 0.096 123 108 78 0 0
-0.1103 0.1598 -0.7121 0.000 0.713 0.701 121 105 76 0 0
-0.1102 0.1617 -0.7127 -0.176 0.684 0.708 145 130 93 0 0
-0.1107 0.1450 -0.7934 0.064 0.973 0.221 61 50 30 0 0
-0.1083 0.1785 -0.8651 0.074 0.851 0.520 171 171 171 0 0
-0.1191 0.0222 -0.2918 -0.253 0.897 0.361 39 32 22 0 0
-0.1167 0.0593 -0.3418 -0.086 0.964 0.250 78 65 42 0 0
-0.1167 0.0597 -0.3432 -0.086 0.964 0.250 73 58 35 0 0
-0.1166 0.0599 -0.3496 -0.103 0.971 -0.214 76 61 38 0 0
-0.1162 0.0625 -0.3914 -0.003 0.815 0.580 50 34 17 0 0
-0.1162 0.0630 -0.3929 0.110 0.922 0.372 46 31 14 0 0
-0.1159 0.0647 -0.4209 0.087 0.975 0.204 39 25 13 0 0
-0.1158 0.0654 -0.4223 0.311 0.907 0.284 73 57 35 0 0
-0.1168 0.0429 -0.4630 0.085 0.988 -0.125 30 29 27 0 0
-0.1169 0.0414 -0.4690 -0.260 0.965 0.024 29 25 24 0 0
-0.1169 0.0404 -0.4712 -0.203 0.958 -0.202 32 28 27 0 0
-0.1164 0.0481 -0.4840 -0.447 0.496 0.744 17 15 16 0 0
-0.1102 0.1513 -0.5562 0.258 0.924 0.281 111 95 61 0 0
-0.1151 0.0555 -0.6213 -0.034 0.999 -0.006 37 24 17 0 0
-0.1091 0.1565 -0.6752 0.113 0.994 -0.010 151 133 89 0 0
-0.1089 0.1564 -0.7067 0.096 0.671 0.735 92 82 54 0 0
-0.1087 0.1590 -0.7107 0.047 0.838 0.544 125 108 76 0 0
-0.1087 0.1598 -0.7120 -0.003 0.748 0.664 134 118 91 0 0
-0.1082 0.1667 -0.7247 0.033 0.998 0.057 155 137 89 0 0
-0.1085 0.1613 -0.7349 -0.197 0.861 -0.468 107 94 56 0 0
-0.1093 0.1399 -0.7891 0.136 0.756 0.641 68 56 39 0 0
-0.1091 0.1440 -0.7920 0.099 0.877 0.470 45 32 17 0 0
-0.1069 0.1753 -0.8528 0.111 0.921 0.375 113 99 64 0 0
-0.1186 0.0056 -0.2736 -0.430 0.769 0.473 150 146 140 0 0
-0.1151 0.0602 -0.3495 -0.018 1.000 0.020 76 63 44 0 0
-0.1150 0.0602 -0.3527 -0.335 0.911 0.240 93 82 58 0 0
-0.1147 0.0625 -0.3864 0.080 0.866 0.493 61 42 24 0 0
-0.1146 0.0632 -0.3961 0.205 0.883 0.422 58 39 23 0 0
-0.1144 0.0653 -0.4088 0.193 0.961 0.197 70 52 30 0 0
-0.1144 0.0643 -0.4176 0.092 0.996 0.016 70 55 34 0 0
-0.1143 0.0646 -0.4192 0.002 0.999 -0.033 60 44 29 0 0
-0.1143 0.0649 -0.4225 0.311 0.907 0.284 71 56 35 0 0
-0.1152 0.0438 -0.4608 -0.069 0.952 -0.299 20 19 17 0 0
-0.1152 0.0428 -0.4630 0.122 0.980 -0.155 33 29 28 0 0
-0.1084 0.1600 -0.5232 0.519 0.835 0.185 144 125 82 0 0
-0.1085 0.1554 -0.5431 0.042 0.989 -0.141 168 149 104 0 0
-0.1085 0.1535 -0.5495 -0.081 0.907 -0.414 138 120 81 0 0
-0.1086 0.1522 -0.5556 -0.095 0.796 0.597 114 99 68 0 0
-0.1134 0.0551 -0.6215 0.143 0.985 -0.096 33 21 15 0 0
-0.1075 0.1562 -0.6754 -0.024 0.998 0.054 148 130 87 0 0
-0.1075 0.1565 -0.6772 0.027 0.983 -0.181 142 121 79 0 0
-0.1078 0.1474 -0.7053 -0.031 0.855 0.517 26 21 14 0 0
-0.1073 0.1560 -0.7069 0.244 0.645 0.724 86 77 49 0 0
-0.1066 0.1671 -0.7243 -0.305 0.951 0.052 123 108 72 0 0
-0.1074 0.1442 -0.7897 0.228 0.670 0.707 33 23 12 0 0
-0.1074 0.1439 -0.7921 0.099 0.877 0.470 36 25 17 0 0
-0.1073 0.1446 -0.7936 0.099 0.877 0.470 33 24 15 0 0
-0.1072 0.1461 -0.7944 0.052 0.871 0.489 39 29 15 0 0
-0.1061 0.1638 -0.8199 -0.421 0.693 0.585 221 204 154 0 0
-0.1055 0.1702 -0.8552 -0.048 0.834 0.550 140 122 79 0 0
-0.1137 0.0585 -0.3371 0.169 0.948 0.270 90 78 52 0 0
-0.1135 0.0603 -0.3526 -0.276 0.948 0.158 88 76 52 0 0
-0.1132 0.0616 -0.3850 0.127 0.956 0.266 58 40 20 0 0
-0.1131 0.0621 -0.3865 0.127 0.956 0.266 61 43 23 0 0
-0.1135 0.0437 -0.4625 -0.285 0.938 -0.196 32 28 27 0 0
-0.1117 0.0549 -0.6216 0.143 0.985 -0.096 33 22 16 0 0
-0.1112 0.0618 -0.6472 -0.206 0.958 0.201 59 54 48 0 0
-0.1111 0.0623 -0.6489 -0.299 0.904 0.306 46 40 34 0 0
-0.1111 0.0629 -0.6505 -0.140 0.752 0.644 31 24 18 0 0
-0.1059 0.1566 -0.6751 0.080 0.995 -0.060 118 99 65 0 0
-0.1061 0.1475 -0.7052 -0.031 0.855 0.517 24 19 12 0 0
-0.1058 0.1479 -0.7513 -0.056 0.831 -0.553 100 86 54 0 0
-0.1038 0.1721 -0.8469 -0.167 0.929 0.329 116 99 59 0 0
-0.1035 0.1746 -0.8620 0.011 0.999 -0.048 69 63 48 0 0
-0.1144 0.0231 -0.2850 -0.028 0.894 0.447 37 27 18 0 0
-0.1143 0.0255 -0.2891 -0.199 0.837 0.509 27 19 17 0 0
-0.1122 0.0588 -0.3353 -0.324 0.830 0.454 97 84 56 0 0
-0.1121 0.0587 -0.3370 -0.030 0.956 0.293 98 85 61 0 0
-0.1121 0.0598 -0.3399 -0.148 0.831 0.537 72 57 37 0 0
-0.1119 0.0608 -0.3524 -0.276 0.948 0.158 83 69 46 0 0
-0.1123 0.0504 -0.3674 -0.238 0.929 0.283 50 37 22 0 0
-0.1117 0.0613 -0.3784 0.126 0.951 0.281 82 67 41 0 0
-0.1116 0.0613 -0.3818 0.166 0.978 0.128 67 47 26 0 0
-0.1116 0.0615 -0.3834 0.166 0.978 0.128 65 47 25 0 0
-0.1109 0.0595 -0.4876 -0.200 0.833 0.515 70 68 63 0 0
-0.1064 0.1432 -0.4976 0.906 0.135 0.402 73 60 36 0 0
-0.1055 0.1574 -0.5193 0.295 0.919 0.262 139 121 81 0 0
-0.1055 0.1578 -0.5225 0.029 0.941 0.338 150 133 90 0 0
-0.1054 0.1584 -0.5239 0.135 0.921 0.366 150 133 89 0 0
-0.1054 0.1563 -0.5408 -0.234 0.971 -0.056 163 146 102 0 0
-0.1052 0.1424 -0.6540 0.508 0.690 0.516 238 224 185 0 0
-0.1043 0.1561 -0.6734 0.141 0.980 -0.140 94 79 47 0 0
-0.1043 0.1564 -0.6751 0.124 0.992 -0.021 110 93 60 0 0
-0.1045 0.1475 -0.7051 -0.031 0.855 0.517 27 21 15 0 0
-0.1039 0.1578 -0.7094 0.364 0.372 0.854 147 129 96 0 0
-0.1039 0.1591 -0.7104 -0.002 0.791 0.612 116 100 71 0 0
-0.1038 0.1602 -0.7116 0.002 0.781 0.624 114 97 68 0 0
-0.1020 0.1724 -0.8466 -0.003 0.874 0.486 116 99 58 0 0
-0.1019 0.1744 -0.8491 -0.025 0.939 0.342 143 123 78 0 0
-0.1103 0.0612 -0.3522 -0.276 0.948 0.158 86 72 48 0 0
-0.1100 0.0614 -0.3850 0.160 0.950 0.269 62 43 22 0 0
-0.1099 0.0544 -0.4456 -0.038 0.982 -0.185 14 10 9 0 0
-0.1098 0.0542 -0.4527 0.427 0.820 0.380 19 17 15 0 0
-0.1098 0.0543 -0.4544 0.056 0.977 0.205 16 14 12 0 0
-0.1099 0.0485 -0.4746 -0.323 0.720 0.614 18 13 15 0 0
-0.1093 0.0589 -0.4878 0.191 0.720 0.667 61 57 51 0 0
-0.1050 0.1406 -0.5006 0.777 0.015 0.630 74 60 34 0 0
-0.1038 0.1571 -0.5368 0.082 0.993 -0.086 170 153 107 0 0
-0.1038 0.1565 -0.5406 -0.029 0.994 -0.107 160 141 97 0 0
-0.1039 0.1543 -0.5471 0.106 0.951 -0.291 139 121 84 0 0
-0.1040 0.1521 -0.5519 0.280 0.819 -0.500 97 83 56 0 0
-0.1043 0.1445 -0.5617 -0.713 0.689 0.126 81 68 46 0 0
-0.1076 0.0634 -0.6502 -0.052 0.821 0.568 58 51 44 0 0
-0.1040 0.1334 -0.6523 0.105 0.562 0.820 187 171 139 0 0
-0.1037 0.1404 -0.6553 -0.291 0.600 0.745 216 197 158 0 0
-0.1034 0.1446 -0.6582 0.140 0.869 0.474 195 174 125 0 0
-0.1026 0.1546 -0.6900 -0.087 0.995 -0.057 97 81 53 0 0
-0.1028 0.1480 -0.7047 -0.362 0.776 0.516 24 17 12 0 0
-0.1025 0.1468 -0.7541 -0.493 0.803 -0.335 70 60 38 0 0
-0.1031 0.1296 -0.7823 0.111 0.640 0.760 53 46 36 0 0
-0.1016 0.1548 -0.8019 0.035 0.881 0.471 102 91 72 0 0
-0.1007 0.1690 -0.8216 -0.277 0.900 0.336 71 58 38 0 0
-0.1007 0.1695 -0.8233 -0.252 0.920 0.301 78 62 40 0 0
-0.1004 0.1724 -0.8465 -0.003 0.874 0.486 130 113 70 0 0
-0.1128 -0.0033 -0.2692 -0.175 0.256 0.951 133 126 115 0 0
-0.1124 0.0034 -0.2708 -0.243 0.305 0.921 127 115 93 0 0
-0.1090 0.0608 -0.3346 0.091 0.911 0.402 115 99 77 0 0
-0.1089 0.0614 -0.3360 0.122 0.918 0.378 80 64 47 0 0
-0.1088 0.0607 -0.3524 -0.074 0.958 0.277 82 70 46 0 0
-0.1088 0.0606 -0.3540 -0.268 0.759 0.593 89 77 54 0 0
-0.1087 0.0616 -0.3553 -0.268 0.759 0.593 69 56 38 0 0
-0.1084 0.0603 -0.3987 0.108 0.989 0.103 76 56 35 0 0
-0.1083 0.0541 -0.4456 -0.145 0.989 -0.040 14 10 9 0 0
-0.1082 0.0542 -0.4491 -0.174 0.971 0.162 16 12 11 0 0
-0.1077 0.0590 -0.4859 -0.094 0.991 0.091 59 52 44 0 0
-0.1074 0.0642 -0.4907 -0.345 0.880 0.326 41 35 31 0 0
-0.1073 0.0658 -0.4917 -0.085 0.730 0.678 52 48 44 0 0
-0.1037 0.1355 -0.4997 0.889 0.039 0.456 81 68 52 0 0
-0.1027 0.1447 -0.5615 -0.152 0.968 -0.198 72 60 40 0 0
-0.1026 0.1298 -0.6507 0.105 0.798 0.594 103 87 60 0 0
-0.1025 0.1312 -0.6518 0.278 0.514 0.811 152 137 105 0 0
-0.1019 0.1423 -0.6559 -0.152 0.554 0.818 216 195 153 0 0
-0.1019 0.1433 -0.6571 -0.025 0.883 0.468 242 227 182 0 0
-0.1018 0.1442 -0.6584 -0.147 0.884 0.444 218 199 154 0 0
-0.1012 0.1532 -0.6793 0.102 0.980 0.171 126 106 69 0 0
-0.1011 0.1544 -0.6842 0.063 0.996 0.068 127 110 75 0 0
-0.1011 0.1523 -0.6955 0.371 0.926 0.069 55 44 29 0 0
-0.1011 0.1524 -0.6974 0.198 0.978 0.072 19 13 9 0 0
-0.1012 0.1487 -0.7041 0.025 0.993 0.114 25 17 12 0 0
-0.0999 0.1553 -0.8014 -0.178 0.861 0.476 120 109 93 0 0
-0.0999 0.1564 -0.8026 -0.134 0.892 0.431 76 63 47 0 0
-0.0998 0.1572 -0.8041 -0.134 0.892 0.431 60 42 26 0 0
-0.1080 0.0526 -0.3179 -0.172 0.870 0.463 102 87 61 0 0
-0.1079 0.0536 -0.3192 -0.176 0.925 0.337 82 69 44 0 0
-0.1072 0.0608 -0.3588 -0.120 0.891 -0.437 81 68 49 0 0
-0.1068 0.0601 -0.3987 0.108 0.989 0.103 82 65 42 0 0
-0.1069 0.0587 -0.4026 0.028 0.878 0.479 84 68 46 0 0
-0.1068 0.0604 -0.4053 -0.260 0.922 0.287 76 60 41 0 0
-0.1066 0.0609 -0.4153 0.179 0.979 -0.096 71 56 34 0 0
-0.1068 0.0473 -0.4697 -0.465 0.884 -0.059 36 32 29 0 0
-0.1057 0.0643 -0.4906 -0.298 0.622 0.724 45 39 34 0 0
-0.1051 0.0752 -0.4979 0.391 0.841 0.373 14 11 9 0 0
-0.1010 0.1553 -0.5290 0.368 0.930 -0.009 144 125 85 0 0
-0.1009 0.1554 -0.5324 0.130 0.925 0.358 152 133 91 0 0
-0.1012 0.1436 -0.5621 -0.112 0.922 -0.371 81 69 49 0 0
-0.1023 0.1049 -0.6436 -0.310 0.076 0.948 75 68 58 0 0
-0.1002 0.1447 -0.6580 0.103 0.668 0.737 230 213 169 0 0
-0.0995 0.1544 -0.6842 0.147 0.984 0.101 126 110 74 0 0
-0.0994 0.1544 -0.6861 0.063 0.996 0.068 108 91 61 0 0
-0.0994 0.1546 -0.6879 0.053 0.995 0.089 122 106 73 0 0
-0.0995 0.1515 -0.6980 0.300 0.912 -0.282 19 12 8 0 0
-0.0995 0.1486 -0.7041 0.025 0.993 0.114 28 21 14 0 0
-0.0986 0.1505 -0.7948 0.008 0.921 0.391 75 63 45 0 0
-0.0983 0.1550 -0.8016 -0.063 0.970 0.235 148 137 119 0 0
-0.1064 0.0542 -0.3190 -0.080 0.845 0.529 84 70 45 0 0
-0.1062 0.0569 -0.3230 -0.159 0.840 0.519 41 33 17 0 0
-0.1059 0.0546 -0.3674 -0.031 0.909 0.416 52 40 27 0 0
-0.1051 0.0627 -0.4061 -0.160 0.775 0.612 53 37 21 0 0
-0.1051 0.0609 -0.4136 0.282 0.959 0.015 60 44 28 0 0
-0.1044 0.0585 -0.4860 0.015 0.988 -0.151 77 70 62 0 0
-0.1040 0.0664 -0.4913 -0.119 0.789 0.603 38 33 29 0 0
-0.0997 0.1426 -0.5626 -0.136 0.875 -0.464 80 67 48 0 0
-0.0984 0.1476 -0.6599 0.100 0.828 0.551 164 143 102 0 0
-0.0978 0.1573 -0.6763 -0.029 0.997 0.073 120 104 70 0 0
-0.0977 0.1558 -0.6910 0.401 0.889 0.220 91 76 51 0 0
-0.0980 0.1297 -0.7800 -0.170 0.863 0.476 24 16 12 0 0
-0.0962 0.1605 -0.8096 0.242 0.947 0.211 47 36 18 0 0
-0.0963 0.1578 -0.8183 -0.009 0.831 0.555 64 53 33 0 0
-0.0957 0.1692 -0.8213 -0.012 0.948 0.317 75 54 29 0 0
-0.1057 0.0404 -0.3007 -0.348 0.814 0.465 140 125 92 0 0
-0.1040 0.0593 -0.3789 0.069 0.947 0.313 83 64 39 0 0
-0.1034 0.0615 -0.4201 0.409 0.887 0.214 60 45 29 0 0
-0.1034 0.0602 -0.4223 0.058 0.996 0.062 62 47 30 0 0
-0.1028 0.0607 -0.4814 0.198 0.749 0.632 66 62 54 0 0
-0.1027 0.0617 -0.4827 0.198 0.749 0.632 73 66 56 0 0
-0.1026 0.0628 -0.4840 0.198 0.749 0.632 74 66 57 0 0
-0.1025 0.0652 -0.4865 -0.041 0.993 0.113 55 48 41 0 0
-0.1025 0.0655 -0.4881 -0.038 0.998 0.045 32 24 21 0 0
-0.1024 0.0659 -0.4897 -0.155 0.948 0.278 26 20 17 0 0
-0.1024 0.0667 -0.4911 -0.216 0.859 0.464 32 28 24 0 0
-0.0985 0.1457 -0.5150 0.885 0.418 0.205 83 70 43 0 0
-0.0994 0.1094 -0.5855 -0.151 0.561 -0.814 26 16 10 0 0
-0.1016 0.0512 -0.6294 -0.020 0.992 0.124 26 19 13 0 0
-0.0995 0.0938 -0.6428 -0.691 0.124 0.712 67 60 53 0 0
-0.0961 0.1552 -0.6914 0.401 0.889 0.220 90 76 52 0 0
-0.0962 0.1523 -0.6974 0.382 0.924 -0.009 21 13 7 0 0
-0.0954 0.1624 -0.7256 -0.155 0.980 -0.127 85 69 58 0 0
-0.0963 0.1293 -0.7802 -0.034 0.695 0.718 22 15 9 0 0
-0.0958 0.1386 -0.7875 0.190 0.684 0.704 31 22 12 0 0
-0.0953 0.1487 -0.7920 0.243 0.907 0.344 54 42 25 0 0
-0.0952 0.1493 -0.7935 0.204 0.925 0.322 70 58 42 0 0
-0.0952 0.1499 -0.7952 0.204 0.925 0.322 74 62 47 0 0
-0.0948 0.1550 -0.8100 0.235 0.890 0.390 93 77 53 0 0
-0.0947 0.1561 -0.8112 0.109 0.911 0.398 62 52 29 0 0
-0.0947 0.1567 -0.8128 0.210 0.945 0.251 40 31 16 0 0
-0.0945 0.1593 -0.8213 -0.275 0.663 0.696 214 192 147 0 0
-0.0941 0.1691 -0.8192 0.043 0.826 0.562 78 57 33 0 0
-0.0938 0.1724 -0.8269 -0.304 0.946 0.114 134 118 75 0 0
-0.0933 0.1762 -0.8602 0.312 0.858 0.408 59 55 45 0 0
-0.1056 0.0150 -0.2694 -0.220 0.624 0.750 190 169 122 0 0
-0.1056 0.0165 -0.2706 -0.220 0.624 0.750 191 171 126 0 0
-0.1055 0.0180 -0.2718 -0.239 0.582 0.777 176 156 116 0 0
-0.1053 0.0195 -0.2793 -0.138 0.869 0.475 31 21 11 0 0
-0.1022 0.0594 -0.3921 0.197 0.944 0.263 88 71 46 0 0
-0.1021 0.0598 -0.4021 -0.019 0.960 0.280 84 68 48 0 0
-0.1021 0.0596 -0.4038 0.259 0.916 0.307 81 66 43 0 0
-0.1018 0.0527 -0.4513 -0.191 0.822 0.536 26 22 20 0 0
-0.1017 0.0535 -0.4633 -0.229 0.970 -0.082 27 23 20 0 0
-0.1012 0.0589 -0.4804 -0.110 0.772 0.626 35 34 27 0 0
-0.1010 0.0632 -0.4856 -0.119 0.837 0.534 63 54 45 0 0
-0.1009 0.0652 -0.4864 -0.041 0.993 0.113 53 46 39 0 0
-0.1008 0.0654 -0.4881 -0.041 0.993 0.113 30 22 20 0 0
-0.1006 0.0698 -0.4932 0.011 0.683 0.730 95 90 83 0 0
-0.0996 0.0549 -0.6351 -0.215 0.877 0.429 42 35 25 0 0
-0.0991 0.0649 -0.6430 -0.075 0.990 0.123 60 56 46 0 0
-0.0978 0.0942 -0.6425 -0.225 0.267 0.937 67 60 52 0 0
-0.0975 0.0996 -0.6410 -0.408 0.121 0.905 69 62 54 0 0
-0.0950 0.1515 -0.6648 -0.041 0.882 0.469 101 85 54 0 0
-0.0947 0.1554 -0.6736 0.036 0.977 0.212 105 87 52 0 0
-0.0943 0.1534 -0.7124 0.279 0.777 0.564 99 84 57 0 0
-0.0943 0.1544 -0.7136 0.233 0.778 0.583 155 139 114 0 0
-0.0942 0.1557 -0.7146 0.076 0.605 0.793 119 104 79 0 0
-0.0939 0.1540 -0.7421 0.008 0.861 -0.508 93 78 47 0 0
-0.0941 0.1486 -0.7504 0.147 0.871 -0.468 122 105 77 0 0
-0.0942 0.1371 -0.7866 0.112 0.595 0.796 34 25 14 0 0
-0.0928 0.1584 -0.8198 -0.134 0.726 0.674 175 156 113 0 0
-0.0924 0.1690 -0.8192 0.043 0.826 0.562 76 54 30 0 0
-0.0921 0.1728 -0.8265 -0.444 0.861 0.248 132 115 76 0 0
-0.0917 0.1740 -0.8579 -0.180 0.984 0.014 93 90 71 0 0
-0.1051 -0.0072 -0.2635 -0.392 0.715 0.579 158 148 132 0 0
-0.1039 0.0183 -0.2685 -0.089 0.805 0.587 206 186 141 0 0
-0.1038 0.0197 -0.2792 -0.138 0.869 0.475 58 46 32 0 0
-0.1009 0.0636 -0.3576 0.034 0.999 0.021 94 81 51 0 0
-0.1000 0.0539 -0.4613 0.122 0.971 0.204 30 26 23 0 0
-0.1000 0.0543 -0.4629 0.122 0.971 0.204 27 23 20 0 0
-0.0998 0.0541 -0.4771 0.270 0.758 0.594 56 48 45 0 0
-0.0998 0.0550 -0.4785 0.085 0.878 0.470 42 33 31 0 0
-0.0996 0.0590 -0.4803 -0.147 0.926 0.348 46 44 37 0 0
-0.0990 0.0696 -0.4933 -0.253 0.692 0.677 87 82 76 0 0
-0.0989 0.0707 -0.4945 -0.238 0.766 0.598 66 58 54 0 0
-0.0989 0.0719 -0.4957 -0.242 0.850 0.468 39 31 26 0 0
-0.0988 0.0724 -0.4973 -0.245 0.901 0.359 70 64 59 0 0
-0.0988 0.0728 -0.4989 -0.146 0.972 0.187 58 53 49 0 0
-0.0987 0.0730 -0.5006 -0.090 0.978 0.190 26 23 19 0 0
-0.0987 0.0734 -0.5022 -0.207 0.942 0.266 31 27 24 0 0
-0.0986 0.0753 -0.5031 -0.064 0.934 0.351 37 33 30 0 0
-0.0986 0.0751 -0.5050 -0.234 0.842 0.487 32 28 25 0 0
-0.0986 0.0741 -0.5072 0.149 0.888 0.435 27 23 20 0 0
-0.0950 0.1510 -0.5277 0.535 0.795 0.285 102 85 55 0 0
-0.0949 0.1525 -0.5321 0.382 0.923 -0.039 124 106 71 0 0
-0.0979 0.0542 -0.6335 0.143 0.988 0.052 40 33 23 0 0
-0.0979 0.0552 -0.6349 -0.215 0.877 0.429 46 39 29 0 0
-0.0974 0.0641 -0.6414 -0.278 0.938 0.209 65 61 50 0 0
-0.0973 0.0650 -0.6428 -0.217 0.909 0.356 53 49 40 0 0
-0.0973 0.0660 -0.6442 -0.223 0.733 0.642 43 38 32 0 0
-0.0961 0.0949 -0.6420 0.244 0.426 0.871 64 57 49 0 0
-0.0959 0.0992 -0.6412 0.025 0.086 0.996 68 61 54 0 0
-0.0940 0.1386 -0.6543 0.045 0.886 0.462 188 166 132 0 0
-0.0937 0.1454 -0.6593 0.039 0.671 0.740 223 205 164 0 0
-0.0934 0.1511 -0.6650 -0.080 0.880 0.467 110 94 65 0 0
-0.0931 0.1551 -0.6738 0.329 0.850 0.411 89 69 37 0 0
-0.0930 0.1555 -0.6793 0.155 0.983 0.094 117 98 65 0 0
-0.0930 0.1553 -0.6814 -0.386 0.918 0.086 134 116 80 0 0
-0.0930 0.1471 -0.7070 -0.399 0.807 0.435 19 12 8 0 0
-0.0926 0.1545 -0.7135 0.035 0.758 0.651 143 127 101 0 0
-0.0926 0.1557 -0.7146 -0.264 0.556 0.788 132 115 88 0 0
-0.0925 0.1474 -0.7512 0.265 0.879 -0.396 105 92 68 0 0
-0.0925 0.1459 -0.7545 0.334 0.893 -0.301 99 87 63 0 0
-0.0925 0.1449 -0.7573 0.334 0.893 -0.301 90 78 58 0 0
-0.0926 0.1425 -0.7613 0.266 0.851 -0.454 57 47 34 0 0
-0.0926 0.1404 -0.7650 0.152 0.849 -0.506 28 20 16 0 0
-0.0911 0.1595 -0.8210 -0.048 0.755 0.654 153 141 107 0 0
-0.0900 0.1747 -0.8571 -0.164 0.978 0.129 93 88 67 0 0
-0.0899 0.1760 -0.8603 0.018 0.945 0.327 61 57 45 0 0
-0.1036 -0.0079 -0.2604 -0.332 0.604 0.724 179 177 172 0 0
-0.1035 -0.0066 -0.2617 -0.192 0.557 0.808 158 153 142 0 0
-0.1034 -0.0047 -0.2629 -0.269 0.418 0.868 154 142 124 0 0
-0.1025 0.0163 -0.2658 0.108 0.923 0.369 210 190 146 0 0
-0.1008 0.0446 -0.3042 -0.176 0.974 0.141 77 58 37 0 0
-0.0996 0.0622 -0.3451 -0.029 0.969 0.243 113 98 72 0 0
-0.0992 0.0604 -0.3767 -0.047 0.902 0.429 56 40 23 0 0
-0.0990 0.0571 -0.4064 -0.029 0.994 0.105 71 56 36 0 0
-0.0984 0.0538 -0.4613 0.016 0.974 0.226 26 22 20 0 0
-0.0971 0.0731 -0.4987 -0.218 0.942 0.256 52 47 43 0 0
-0.0971 0.0736 -0.5002 -0.092 0.929 0.359 50 45 42 0 0
-0.0971 0.0743 -0.5017 -0.059 0.883 0.466 35 31 28 0 0
-0.0970 0.0752 -0.5048 0.297 0.893 0.337 29 25 22 0 0
-0.0937 0.1474 -0.5243 0.076 0.669 0.739 98 83 56 0 0
-0.0965 0.0516 -0.6230 -0.455 0.890 -0.036 27 19 15 0 0
-0.0944 0.0941 -0.6424 0.414 0.413 0.811 66 59 51 0 0
-0.0943 0.0979 -0.6420 0.380 0.275 0.883 69 62 55 0 0
-0.0942 0.0996 -0.6429 0.211 0.118 0.970 67 60 51 0 0
-0.0913 0.1558 -0.6810 0.228 0.757 0.612 119 100 69 0 0
-0.0914 0.1462 -0.7076 0.038 0.840 0.541 18 11 7 0 0
-0.0910 0.1542 -0.7136 0.120 0.767 0.630 148 132 101 0 0
-0.0905 0.1631 -0.7229 -0.285 0.949 -0.139 86 74 57 0 0
-0.0905 0.1627 -0.7252 -0.165 0.960 -0.227 90 78 56 0 0
-0.0910 0.1393 -0.7658 0.357 0.814 -0.459 32 24 19 0 0
-0.0911 0.1342 -0.7740 -0.072 0.895 -0.440 20 12 9 0 0
-0.0902 0.1475 -0.7970 -0.080 0.902 0.425 68 54 36 0 0
-0.0896 0.1564 -0.8151 0.091 0.881 0.463 62 52 36 0 0
-0.0890 0.1670 -0.8294 -0.123 0.803 0.582 107 88 54 0 0
-0.0883 0.1750 -0.8568 -0.100 0.995 -0.002 82 78 62 0 0
-0.0882 0.1760 -0.8603 0.018 0.945 0.327 60 55 46 0 0
-0.1020 -0.0084 -0.2589 0.336 0.911 0.240 143 138 134 0 0
-0.1018 -0.0046 -0.2628 -0.564 0.322 0.760 144 129 108 0 0
-0.0993 0.0438 -0.3028 0.125 0.980 0.155 110 95 63 0 0
-0.0993 0.0441 -0.3043 0.125 0.980 0.155 69 53 29 0 0
-0.0980 0.0624 -0.3450 -0.135 0.978 0.160 83 69 48 0 0
-0.0978 0.0633 -0.3560 -0.283 0.954 0.096 89 76 52 0 0
-0.0978 0.0634 -0.3576 -0.283 0.954 0.096 93 80 51 0 0
-0.0978 0.0629 -0.3594 -0.084 0.984 -0.156 96 83 52 0 0
-0.0972 0.0572 -0.4216 0.469 0.877 0.103 72 59 43 0 0
-0.0972 0.0572 -0.4233 0.512 0.841 0.175 74 61 45 0 0
-0.0968 0.0535 -0.4613 0.128 0.989 0.075 22 18 17 0 0
-0.0952 0.0765 -0.5114 -0.192 0.954 0.231 32 31 27 0 0
-0.0952 0.0763 -0.5133 -0.046 0.976 0.213 20 19 17 0 0
-0.0921 0.1480 -0.5257 0.404 0.710 0.577 90 73 46 0 0
-0.0919 0.1488 -0.5393 0.321 0.935 -0.152 153 133 93 0 0
-0.0918 0.1491 -0.5462 0.006 1.000 -0.031 153 134 92 0 0
-0.0926 0.0967 -0.6427 0.619 0.368 0.694 73 66 58 0 0
-0.0921 0.1095 -0.6443 -0.132 0.268 0.954 72 65 55 0 0
-0.0911 0.1321 -0.6508 0.215 0.575 0.789 179 157 117 0 0
-0.0897 0.1556 -0.6811 0.407 0.883 0.233 118 101 71 0 0
-0.0894 0.1538 -0.7139 -0.031 0.617 0.786 158 142 112 0 0
-0.0889 0.1636 -0.7224 -0.285 0.949 -0.139 88 77 59 0 0
-0.0888 0.1631 -0.7249 -0.165 0.960 -0.227 88 74 51 0 0
-0.0888 0.1622 -0.7276 -0.158 0.942 -0.297 100 85 58 0 0
-0.0885 0.1475 -0.7991 -0.078 0.886 0.456 74 61 42 0 0
-0.0882 0.1531 -0.8072 0.125 0.949 0.291 93 79 60 0 0
-0.0873 0.1665 -0.8276 -0.210 0.807 0.553 114 91 56 0 0
-0.0866 0.1750 -0.8568 0.161 0.841 0.517 62 58 44 0 0
-0.0865 0.1771 -0.8592 0.161 0.671 0.723 55 53 43 0 0
-0.0991 0.0198 -0.2790 -0.044 0.964 0.261 72 60 47 0 0
-0.0988 0.0263 -0.2821 -0.036 0.808 0.588 174 154 118 0 0
-0.0968 0.0605 -0.3263 0.056 0.838 0.543 61 51 36 0 0
-0.0957 0.0557 -0.4187 0.316 0.874 0.370 42 33 24 0 0
-0.0957 0.0560 -0.4203 0.281 0.756 0.591 83 71 59 0 0
-0.0938 0.0757 -0.4991 -0.450 0.847 0.283 29 25 21 0 0
-0.0938 0.0762 -0.5007 -0.450 0.847 0.283 29 25 22 0 0
-0.0937 0.0766 -0.5023 -0.391 0.880 0.267 27 24 21 0 0
-0.0937 0.0764 -0.5041 -0.125 0.907 0.403 24 23 19 0 0
-0.0936 0.0772 -0.5110 -0.301 0.904 0.303 32 31 28 0 0
-0.0935 0.0775 -0.5162 -0.138 0.979 0.148 12 11 9 0 0
-0.0927 0.0558 -0.6343 -0.285 0.925 0.252 63 59 50 0 0
-0.0926 0.0566 -0.6358 -0.267 0.867 0.420 56 53 44 0 0
-0.0926 0.0570 -0.6376 0.090 0.862 0.499 68 63 55 0 0
-0.0913 0.0880 -0.6442 -0.324 0.358 0.876 66 59 49 0 0
-0.0901 0.1184 -0.6462 -0.035 0.450 0.893 68 58 46 0 0
-0.0877 0.1542 -0.7135 -0.072 0.782 0.620 145 129 105 0 0
-0.0876 0.1587 -0.7122 -0.064 0.684 0.727 166 151 124 0 0
-0.0875 0.1603 -0.7130 -0.134 0.561 0.817 126 112 86 0 0
-0.0872 0.1642 -0.7220 -0.168 0.975 -0.145 76 65 47 0 0
-0.0868 0.1481 -0.7985 0.139 0.834 0.534 72 60 39 0 0
-0.0864 0.1530 -0.8093 -0.006 0.979 0.205 39 30 18 0 0
-0.0861 0.1575 -0.8183 0.024 0.984 0.176 149 133 96 0 0
-0.0861 0.1580 -0.8200 0.137 0.936 0.323 92 77 51 0 0
-0.0856 0.1672 -0.8270 -0.179 0.872 0.456 112 92 56 0 0
-0.0855 0.1683 -0.8324 -0.031 0.974 0.223 62 48 21 0 0
-0.0849 0.1745 -0.8571 0.367 0.747 0.555 48 44 31 0 0
-0.0848 0.1765 -0.8597 0.373 0.694 0.616 57 54 44 0 0
-0.0965 0.0408 -0.2972 -0.179 0.902 0.392 96 81 51 0 0
-0.0953 0.0604 -0.3263 0.056 0.838 0.543 77 66 49 0 0
-0.0947 0.0597 -0.3669 0.217 0.965 -0.144 45 33 21 0 0
-0.0943 0.0566 -0.4064 0.169 0.980 0.104 62 45 30 0 0
-0.0939 0.0521 -0.4408 -0.184 0.847 0.498 21 16 14 0 0
-0.0935 0.0556 -0.4639 -0.349 0.872 0.343 28 23 20 0 0
-0.0934 0.0554 -0.4657 -0.461 0.755 0.466 36 28 26 0 0
-0.0917 0.0802 -0.5202 0.300 0.796 0.525 12 11 9 0 0
-0.0913 0.0507 -0.6274 -0.084 0.883 0.462 36 27 19 0 0
-0.0910 0.0546 -0.6330 -0.194 0.883 0.427 66 58 50 0 0
-0.0910 0.0556 -0.6344 -0.358 0.884 0.301 61 54 46 0 0
-0.0909 0.0562 -0.6361 -0.358 0.884 0.301 69 63 55 0 0
-0.0877 0.1342 -0.6531 0.108 0.864 0.491 125 106 74 0 0
-0.0867 0.1539 -0.6706 0.046 0.934 0.354 71 54 27 0 0
-0.0866 0.1494 -0.6913 -0.091 0.907 0.410 102 85 55 0 0
-0.0866 0.1486 -0.6958 0.584 0.809 -0.060 62 45 23 0 0
-0.0858 0.1466 -0.7517 -0.003 0.835 -0.550 54 43 26 0 0
-0.0856 0.1393 -0.7887 -0.353 0.623 0.699 55 41 28 0 0
-0.0855 0.1409 -0.7896 -0.320 0.733 0.601 48 35 19 0 0
-0.0851 0.1482 -0.7984 0.094 0.796 0.599 113 100 79 0 0
-0.0839 0.1667 -0.8338 -0.088 0.973 0.212 68 55 29 0 0
-0.0961 0.0191 -0.2712 -0.074 0.690 0.720 108 92 63 0 0
-0.0960 0.0201 -0.2726 -0.022 0.993 0.115 89 74 52 0 0
-0.0945 0.0463 -0.3098 -0.038 0.891 0.452 81 68 51 0 0
-0.0938 0.0600 -0.3264 0.011 0.888 0.460 87 74 58 0 0
-0.0930 0.0585 -0.3789 0.219 0.933 0.285 82 68 44 0 0
-0.0927 0.0563 -0.4065 0.169 0.980 0.104 77 63 44 0 0
-0.0901 0.0798 -0.5204 -0.249 0.830 0.499 25 23 23 0 0
-0.0901 0.0797 -0.5223 -0.235 0.920 0.313 15 14 14 0 0
-0.0901 0.0795 -0.5242 0.156 0.987 0.037 19 18 16 0 0
-0.0879 0.0892 -0.6433 -0.203 0.298 0.933 71 64 54 0 0
-0.0862 0.1329 -0.6520 -0.066 0.645 0.761 156 136 106 0 0
-0.0861 0.1340 -0.6532 -0.080 0.868 0.490 126 107 80 0 0
-0.0861 0.1347 -0.6547 -0.112 0.934 0.340 145 126 97 0 0
-0.0855 0.1476 -0.6614 0.091 0.848 0.522 118 94 65 0 0
-0.0851 0.1536 -0.6707 0.188 0.934 0.305 80 63 35 0 0
-0.0850 0.1514 -0.6820 -0.074 0.997 0.036 99 80 50 0 0
-0.0850 0.1519 -0.6835 -0.027 0.996 0.080 100 83 53 0 0
-0.0849 0.1523 -0.6852 -0.187 0.972 0.141 112 95 65 0 0
-0.0849 0.1523 -0.6872 -0.061 0.991 -0.116 114 97 66 0 0
-0.0849 0.1489 -0.6936 -0.116 0.940 0.320 93 76 49 0 0
-0.0848 0.1471 -0.7068 -0.094 0.894 0.439 19 15 8 0 0
-0.0842 0.1601 -0.7130 -0.069 0.511 0.857 124 110 87 0 0
-0.0839 0.1612 -0.7321 0.302 0.895 -0.329 147 127 92 0 0
-0.0841 0.1474 -0.7510 -0.051 0.824 -0.564 49 38 23 0 0
-0.0838 0.1421 -0.7886 -0.133 0.795 0.592 58 46 27 0 0
-0.0836 0.1443 -0.7909 0.162 0.840 0.518 87 74 56 0 0
-0.0835 0.1466 -0.7975 0.024 0.937 0.349 61 49 30 0 0
-0.0822 0.1670 -0.8335 -0.034 0.941 0.336 85 73 40 0 0
-0.0821 0.1690 -0.8339 -0.031 0.741 0.670 143 125 81 0 0
-0.0820 0.1701 -0.8351 -0.031 0.741 0.670 165 145 107 0 0
-0.0820 0.1710 -0.8364 -0.063 0.693 0.718 135 116 80 0 0
-0.0945 0.0214 -0.2722 -0.004 0.918 0.397 89 74 52 0 0
-0.0944 0.0216 -0.2737 0.010 0.858 0.513 72 57 36 0 0
-0.0941 0.0272 -0.2802 -0.198 0.825 0.530 101 84 67 0 0
-0.0923 0.0590 -0.3267 0.166 0.903 0.397 71 57 47 0 0
-0.0916 0.0661 -0.3516 -0.194 0.963 0.187 68 55 38 0 0
-0.0916 0.0567 -0.3728 0.210 0.974 -0.091 86 68 41 0 0
-0.0916 0.0555 -0.3782 0.066 0.837 0.543 98 81 56 0 0
-0.0915 0.0573 -0.3792 0.190 0.893 0.408 83 67 48 0 0
-0.0915 0.0580 -0.3806 0.200 0.877 0.437 65 49 35 0 0
-0.0912 0.0552 -0.4051 0.289 0.890 0.352 83 70 47 0 0
-0.0911 0.0561 -0.4082 0.236 0.932 0.275 79 65 46 0 0
-0.0907 0.0511 -0.4411 -0.139 0.986 0.093 17 13 12 0 0
-0.0900 0.0598 -0.4707 -0.050 0.870 0.490 38 30 28 0 0
-0.0899 0.0602 -0.4723 -0.168 0.880 0.444 40 32 30 0 0
-0.0894 0.0708 -0.4853 -0.132 0.880 0.457 77 70 60 0 0
-0.0885 0.0816 -0.5140 -0.369 0.926 0.076 31 32 29 0 0
-0.0885 0.0812 -0.5178 -0.334 0.922 -0.196 35 33 34 0 0
-0.0885 0.0802 -0.5202 -0.249 0.830 0.499 34 32 33 0 0
-0.0884 0.0801 -0.5220 -0.048 0.924 0.379 32 30 31 0 0
-0.0884 0.0793 -0.5242 0.229 0.969 0.096 21 20 18 0 0
-0.0884 0.0795 -0.5260 0.300 0.945 0.128 30 29 27 0 0
-0.0876 0.1019 -0.5271 -0.669 0.525 0.525 71 66 64 0 0
-0.0876 0.1024 -0.5286 -0.552 0.674 0.491 90 85 82 0 0
-0.0864 0.1346 -0.5275 0.599 0.167 0.783 103 94 83 0 0
-0.0863 0.1369 -0.5280 0.564 0.133 0.815 103 92 79 0 0
-0.0863 0.1166 -0.5791 0.223 0.591 -0.775 24 15 10 0 0
-0.0852 0.1177 -0.6465 0.265 0.444 0.856 78 69 53 0 0
-0.0845 0.1342 -0.6530 -0.308 0.802 0.512 100 85 62 0 0
-0.0844 0.1346 -0.6547 -0.172 0.907 0.384 132 117 89 0 0
-0.0839 0.1470 -0.6617 0.115 0.934 0.337 150 127 91 0 0
-0.0833 0.1517 -0.6856 -0.074 0.997 0.036 115 98 69 0 0
-0.0823 0.1607 -0.7325 0.177 0.921 -0.347 133 114 80 0 0
-0.0821 0.1422 -0.7884 0.043 0.857 0.514 63 51 33 0 0
-0.0805 0.1657 -0.8324 -0.097 0.988 0.121 55 43 26 0 0
-0.0805 0.1670 -0.8334 -0.034 0.941 0.336 106 90 56 0 0
-0.0802 0.1717 -0.8379 0.043 0.863 0.503 138 120 76 0 0
-0.0929 0.0212 -0.2738 -0.231 0.945 0.231 68 53 33 0 0
-0.0924 0.0305 -0.2856 -0.035 0.887 0.460 179 161 123 0 0
-0.0900 0.0669 -0.3530 -0.214 0.976 0.047 89 77 53 0 0
-0.0901 0.0577 -0.3675 0.364 0.921 -0.136 36 22 11 0 0
-0.0899 0.0570 -0.3793 0.200 0.877 0.437 84 69 48 0 0
-0.0897 0.0543 -0.4004 -0.172 0.955 0.243 63 47 32 0 0
-0.0896 0.0548 -0.4052 0.236 0.932 0.275 83 68 45 0 0
-0.0895 0.0551 -0.4102 0.019 0.975 0.220 77 62 45 0 0
-0.0895 0.0554 -0.4118 0.019 0.975 0.220 68 52 37 0 0
-0.0886 0.0573 -0.4612 -0.357 0.840 0.409 28 24 21 0 0
-0.0884 0.0593 -0.4691 0.049 0.857 0.513 32 26 23 0 0
-0.0868 0.0834 -0.5149 -0.585 0.811 0.015 33 34 31 0 0
-0.0868 0.0824 -0.5190 -0.773 0.634 0.010 34 33 31 0 0
-0.0868 0.0819 -0.5210 -0.818 0.574 0.043 39 38 36 0 0
-0.0868 0.0815 -0.5231 -0.623 0.715 -0.316 37 36 34 0 0
-0.0868 0.0806 -0.5253 -0.646 0.691 -0.324 37 36 34 0 0
-0.0867 0.0831 -0.5259 -0.365 0.682 0.634 43 43 41 0 0
-0.0866 0.0845 -0.5270 -0.224 0.302 0.927 37 36 35 0 0
-0.0865 0.0882 -0.5269 -0.185 0.007 0.983 27 25 26 0 0
-0.0859 0.1042 -0.5276 -0.032 0.556 0.830 96 91 87 0 0
-0.0858 0.1065 -0.5282 -0.067 0.132 0.989 98 92 87 0 0
-0.0857 0.1092 -0.5286 -0.067 0.132 0.989 97 90 85 0 0
-0.0828 0.1348 -0.6526 -0.060 0.741 0.669 63 51 33 0 0
-0.0807 0.1634 -0.7224 0.066 0.997 -0.027 104 89 60 0 0
-0.0807 0.1631 -0.7246 -0.042 0.958 -0.283 117 101 63 0 0
-0.0807 0.1591 -0.7357 0.472 0.877 0.088 126 109 77 0 0
-0.0806 0.1385 -0.7829 -0.221 0.973 -0.069 39 29 16 0 0
-0.0806 0.1383 -0.7852 -0.048 0.989 0.137 31 22 13 0 0
-0.0803 0.1441 -0.7910 0.063 0.832 0.551 58 47 23 0 0
-0.0788 0.1667 -0.8337 -0.098 0.932 0.350 118 99 64 0 0
-0.0786 0.1687 -0.8383 -0.074 0.880 0.469 136 117 78 0 0
-0.0786 0.1695 -0.8398 -0.030 0.881 0.473 134 115 72 0 0
-0.0932 -0.0203 -0.2453 -0.238 0.969 0.063 178 178 178 0 0
-0.0913 0.0223 -0.2719 -0.360 0.893 0.270 92 76 53 0 0
-0.0901 0.0438 -0.3041 -0.035 0.959 0.280 81 72 53 0 0
-0.0884 0.0559 -0.3796 0.068 0.979 0.194 98 84 57 0 0
-0.0880 0.0549 -0.4052 -0.036 0.990 0.138 75 59 38 0 0
-0.0880 0.0550 -0.4068 -0.051 0.999 -0.018 73 56 37 0 0
-0.0879 0.0541 -0.4106 0.083 0.928 0.363 78 62 46 0 0
-0.0879 0.0546 -0.4120 0.083 0.928 0.363 65 49 34 0 0
-0.0851 0.0840 -0.5181 -0.779 0.623 -0.073 34 32 30 0 0
-0.0851 0.0828 -0.5205 -0.698 0.680 -0.225 39 37 35 0 0
-0.0849 0.0874 -0.5254 -0.507 0.025 0.861 25 24 24 0 0
-0.0843 0.1033 -0.5280 -0.334 0.605 0.722 92 87 81 0 0
-0.0827 0.1415 -0.5484 0.410 0.849 0.335 125 102 70 0 0
-0.0835 0.0720 -0.6381 0.010 0.467 0.884 64 55 46 0 0
-0.0812 0.1359 -0.6537 -0.232 0.752 0.617 54 42 30 0 0
-0.0803 0.1527 -0.6693 0.288 0.860 0.421 61 48 31 0 0
-0.0791 0.1642 -0.7197 -0.068 0.927 0.369 79 66 39 0 0
-0.0791 0.1367 -0.7758 -0.492 0.870 0.037 17 12 8 0 0
-0.0789 0.1400 -0.7775 -0.217 0.976 -0.028 18 11 7 0 0
-0.0789 0.1398 -0.7818 -0.176 0.981 -0.075 45 36 26 0 0
-0.0775 0.1589 -0.8232 -0.056 0.913 0.405 82 59 34 0 0
-0.0771 0.1674 -0.8351 -0.089 0.854 0.512 147 130 96 0 0
-0.0770 0.1680 -0.8368 -0.074 0.880 0.469 102 87 54 0 0
-0.0770 0.1683 -0.8387 -0.017 0.966 0.257 118 103 65 0 0
-0.0769 0.1692 -0.8399 0.126 0.962 0.243 132 116 77 0 0
-0.0766 0.1705 -0.8562 -0.127 0.960 0.249 122 110 79 0 0
-0.0765 0.1714 -0.8575 -0.050 0.957 0.287 85 78 58 0 0
-0.0902 0.0144 -0.2643 -0.491 0.374 0.786 134 115 90 0 0
-0.0870 0.0642 -0.3570 0.116 0.897 -0.426 83 69 44 0 0
-0.0814 0.1412 -0.5379 -0.008 0.772 0.635 96 81 50 0 0
-0.0811 0.1432 -0.5527 0.274 0.953 -0.129 139 120 86 0 0
-0.0825 0.0537 -0.6333 0.030 0.914 0.405 62 53 45 0 0
-0.0818 0.0717 -0.6402 -0.277 0.674 0.685 62 53 44 0 0
-0.0796 0.1348 -0.6525 -0.040 0.702 0.711 63 50 34 0 0
-0.0784 0.1445 -0.7045 -0.219 0.963 0.160 21 15 10 0 0
-0.0780 0.1508 -0.7118 0.385 0.595 0.706 96 82 57 0 0
-0.0780 0.1520 -0.7129 0.385 0.595 0.706 110 93 70 0 0
-0.0776 0.1458 -0.7479 0.350 0.856 -0.380 109 93 65 0 0
-0.0776 0.1440 -0.7514 0.116 0.850 -0.513 83 69 45 0 0
-0.0773 0.1378 -0.7771 -0.408 0.897 0.171 15 10 7 0 0
-0.0773 0.1373 -0.7796 -0.073 0.768 0.637 21 16 11 0 0
-0.0772 0.1387 -0.7827 -0.027 0.904 0.428 45 37 25 0 0
-0.0771 0.1394 -0.7841 -0.089 0.863 0.497 43 33 21 0 0
-0.0767 0.1473 -0.7946 -0.129 0.876 0.464 34 25 14 0 0
-0.0758 0.1591 -0.8230 -0.082 0.934 0.349 88 63 36 0 0
-0.0758 0.1594 -0.8248 -0.035 0.891 0.453 109 88 56 0 0
-0.0757 0.1610 -0.8299 -0.018 0.979 0.204 56 44 25 0 0
-0.0756 0.1615 -0.8317 -0.079 0.989 0.128 55 43 24 0 0
-0.0753 0.1690 -0.8379 -0.025 0.944 0.330 117 101 68 0 0
-0.0752 0.1695 -0.8396 -0.026 0.949 0.313 121 107 71 0 0
-0.0749 0.1711 -0.8577 0.036 0.955 0.295 74 67 46 0 0
-0.0900 -0.0199 -0.2435 -0.379 0.662 0.646 178 178 179 0 0
-0.0897 -0.0107 -0.2463 0.077 0.866 0.495 178 177 175 0 0
-0.0889 0.0084 -0.2594 -0.316 0.948 0.050 92 74 50 0 0
-0.0887 0.0117 -0.2633 -0.513 0.726 0.458 117 101 80 0 0
-0.0880 0.0245 -0.2791 -0.087 0.770 0.632 39 28 18 0 0
-0.0864 0.0536 -0.3201 0.103 0.907 0.409 172 155 123 0 0
-0.0863 0.0550 -0.3229 -0.066 0.881 0.469 166 144 107 0 0
-0.0860 0.0604 -0.3292 -0.034 0.976 0.217 56 47 36 0 0
-0.0855 0.0655 -0.3484 -0.145 0.950 0.278 40 33 22 0 0
-0.0854 0.0581 -0.3688 0.180 0.973 -0.145 95 80 55 0 0
-0.0854 0.0577 -0.3706 0.087 0.946 -0.313 83 67 43 0 0
-0.0843 0.0576 -0.4296 -0.535 0.842 0.064 48 40 29 0 0
-0.0843 0.0571 -0.4315 -0.522 0.837 0.163 42 34 24 0 0
-0.0841 0.0553 -0.4427 -0.110 0.992 -0.060 9 8 6 0 0
-0.0796 0.1412 -0.5485 0.141 0.945 0.295 138 120 84 0 0
-0.0771 0.1511 -0.6703 0.438 0.779 0.448 67 54 35 0 0
-0.0771 0.1479 -0.6783 0.128 0.964 0.234 89 75 47 0 0
-0.0764 0.1498 -0.7125 0.227 0.598 0.769 105 90 62 0 0
-0.0763 0.1520 -0.7128 0.237 0.660 0.713 123 106 77 0 0
-0.0759 0.1449 -0.7486 0.269 0.866 -0.421 112 96 67 0 0
-0.0759 0.1428 -0.7523 0.276 0.838 -0.471 83 68 44 0 0
-0.0759 0.1418 -0.7551 0.239 0.800 -0.551 56 42 26 0 0
-0.0756 0.1372 -0.7774 0.088 0.836 0.542 19 14 10 0 0
-0.0754 0.1395 -0.7840 -0.038 0.881 0.472 36 26 16 0 0
-0.0754 0.1414 -0.7846 0.062 0.748 0.661 32 22 12 0 0
-0.0741 0.1592 -0.8228 0.035 0.973 0.230 86 65 37 0 0
-0.0741 0.1595 -0.8248 0.035 0.901 0.432 108 90 59 0 0
-0.0741 0.1602 -0.8263 0.035 0.901 0.432 102 90 64 0 0
-0.0731 0.1717 -0.8594 -0.122 0.989 0.082 38 33 26 0 0
-0.0838 0.0580 -0.3705 -0.115 0.953 -0.281 76 61 41 0 0
-0.0821 0.0607 -0.4560 -0.372 0.907 0.197 42 37 34 0 0
-0.0795 0.1059 -0.5248 -0.427 0.381 0.820 77 71 68 0 0
-0.0781 0.1400 -0.5491 0.143 0.980 0.140 127 109 76 0 0
-0.0790 0.0540 -0.6330 -0.243 0.926 0.289 60 52 43 0 0
-0.0790 0.0549 -0.6344 -0.153 0.963 0.220 66 57 52 0 0
-0.0789 0.0556 -0.6360 0.245 0.898 0.366 64 55 47 0 0
-0.0784 0.0738 -0.6369 -0.528 0.465 0.711 62 53 44 0 0
-0.0783 0.0754 -0.6378 -0.528 0.465 0.711 61 52 43 0 0
-0.0766 0.1265 -0.6501 -0.043 0.780 0.625 170 149 114 0 0
-0.0764 0.1294 -0.6580 0.184 0.811 0.556 56 40 26 0 0
-0.0754 0.1477 -0.6804 0.191 0.969 0.159 107 92 63 0 0
-0.0743 0.1394 -0.7569 0.429 0.765 -0.480 59 45 29 0 0
-0.0739 0.1408 -0.7745 -0.368 0.923 -0.113 18 13 10 0 0
-0.0732 0.1511 -0.7977 -0.142 0.900 0.411 93 80 57 0 0
-0.0731 0.1515 -0.7995 0.103 0.927 0.360 91 75 52 0 0
-0.0730 0.1533 -0.8044 -0.074 0.930 0.360 81 66 44 0 0
-0.0729 0.1539 -0.8060 -0.074 0.930 0.360 78 64 46 0 0
-0.0729 0.1545 -0.8076 -0.074 0.930 0.360 55 42 26 0 0
-0.0728 0.1545 -0.8097 -0.126 0.873 0.471 55 42 26 0 0
-0.0727 0.1577 -0.8113 0.231 0.873 0.429 74 59 36 0 0
-0.0725 0.1593 -0.8227 0.019 0.922 0.386 103 86 55 0 0
-0.0724 0.1599 -0.8243 0.036 0.911 0.412 102 88 58 0 0
-0.0719 0.1677 -0.8411 -0.046 0.938 0.343 127 108 71 0 0
-0.0714 0.1718 -0.8591 -0.122 0.989 0.082 37 32 26 0 0
-0.0849 0.0254 -0.2803 0.028 0.661 0.750 52 39 28 0 0
-0.0832 0.0546 -0.3230 0.242 0.878 0.413 198 181 139 0 0
-0.0829 0.0618 -0.3303 -0.178 0.845 0.505 70 61 40 0 0
-0.0824 0.0656 -0.3531 -0.072 0.995 0.064 81 65 41 0 0
-0.0823 0.0581 -0.3687 -0.109 0.973 -0.201 100 85 64 0 0
-0.0822 0.0573 -0.3723 -0.280 0.915 -0.291 92 76 57 0 0
-0.0822 0.0573 -0.3740 -0.396 0.918 0.034 92 76 54 0 0
-0.0816 0.0583 -0.4037 -0.360 0.899 0.250 47 34 24 0 0
-0.0809 0.0525 -0.4472 -0.046 0.850 0.526 16 14 15 0 0
-0.0782 0.1011 -0.5200 -0.766 0.637 0.088 48 43 39 0 0
-0.0765 0.1400 -0.5491 0.264 0.964 0.039 126 107 75 0 0
-0.0767 0.0747 -0.6362 -0.528 0.465 0.711 63 54 46 0 0
-0.0766 0.0754 -0.6378 -0.414 0.606 0.679 64 55 47 0 0
-0.0765 0.0783 -0.6379 -0.454 0.480 0.751 60 51 42 0 0
-0.0759 0.1011 -0.6394 -0.552 0.354 0.755 52 45 37 0 0
-0.0750 0.1268 -0.6499 -0.111 0.899 0.423 184 167 129 0 0
-0.0749 0.1275 -0.6514 -0.111 0.899 0.423 154 134 101 0 0
-0.0746 0.1314 -0.6604 0.103 0.762 0.639 49 35 24 0 0
-0.0734 0.1414 -0.7105 0.484 0.620 0.618 90 76 52 0 0
-0.0734 0.1418 -0.7122 0.355 0.386 0.852 92 76 48 0 0
-0.0731 0.1504 -0.7119 -0.184 0.423 0.887 100 84 60 0 0
-0.0728 0.1595 -0.7170 0.192 0.887 0.419 159 141 110 0 0
-0.0723 0.1330 -0.7807 0.192 0.479 0.856 20 14 11 0 0
-0.0719 0.1413 -0.7867 -0.321 0.773 0.547 45 32 19 0 0
-0.0715 0.1501 -0.7964 -0.073 0.977 0.202 71 57 38 0 0
-0.0713 0.1509 -0.8042 0.177 0.948 0.265 79 65 41 0 0
-0.0713 0.1510 -0.8063 -0.003 0.747 0.664 82 67 46 0 0
-0.0711 0.1567 -0.8099 0.220 0.904 0.366 62 47 28 0 0
-0.0708 0.1582 -0.8215 0.095 0.972 0.214 102 83 52 0 0
-0.0708 0.1589 -0.8230 0.046 0.949 0.312 114 99 69 0 0
-0.0707 0.1593 -0.8248 0.084 0.914 0.396 71 59 32 0 0
-0.0707 0.1599 -0.8264 0.084 0.914 0.396 61 49 24 0 0
-0.0697 0.1713 -0.8618 0.055 0.997 0.049 45 41 31 0 0
-0.0823 0.0463 -0.3047 0.028 0.950 0.311 67 54 35 0 0
-0.0808 0.0653 -0.3532 -0.096 0.992 0.087 91 75 49 0 0
-0.0807 0.0576 -0.3722 -0.378 0.925 -0.026 77 62 43 0 0
-0.0805 0.0545 -0.3849 -0.113 0.953 0.282 62 50 34 0 0
-0.0804 0.0558 -0.3878 -0.302 0.895 0.327 59 46 29 0 0
-0.0795 0.0612 -0.4246 -0.267 0.858 0.439 62 49 37 0 0
-0.0790 0.0647 -0.4472 -0.731 0.680 -0.059 52 50 46 0 0
-0.0752 0.1376 -0.5414 0.125 0.950 0.288 113 100 71 0 0
-0.0750 0.1395 -0.5493 0.264 0.964 0.039 134 115 82 0 0
-0.0749 0.1402 -0.5507 0.347 0.929 0.130 138 119 85 0 0
-0.0750 0.0756 -0.6356 0.016 0.459 0.888 61 52 44 0 0
-0.0724 0.1434 -0.6736 0.342 0.893 0.292 89 72 48 0 0
-0.0724 0.1440 -0.6750 0.218 0.966 0.140 60 44 28 0 0
-0.0723 0.1443 -0.6768 0.218 0.966 0.140 55 45 35 0 0
-0.0708 0.1291 -0.7774 0.160 0.710 0.685 16 11 7 0 0
-0.0704 0.1415 -0.7780 -0.188 0.963 0.196 28 20 14 0 0
-0.0703 0.1417 -0.7842 -0.025 0.920 0.391 41 29 17 0 0
-0.0702 0.1425 -0.7856 -0.196 0.924 0.328 42 28 15 0 0
-0.0702 0.1431 -0.7873 -0.342 0.859 0.381 54 41 26 0 0
-0.0696 0.1534 -0.8041 0.009 0.953 0.302 90 75 55 0 0
-0.0684 0.1709 -0.8403 0.089 0.835 0.543 133 114 70 0 0
-0.0684 0.1715 -0.8420 0.152 0.906 0.394 129 114 73 0 0
-0.0835 -0.0087 -0.2363 -0.124 0.963 -0.239 177 176 173 0 0
-0.0814 0.0382 -0.2817 0.070 0.817 0.572 208 194 151 0 0
-0.0812 0.0393 -0.2924 0.064 0.919 0.389 83 68 48 0 0
-0.0811 0.0407 -0.2951 0.122 0.736 0.666 112 96 75 0 0
-0.0798 0.0594 -0.3342 0.134 0.986 0.096 64 53 42 0 0
-0.0798 0.0602 -0.3355 0.013 0.960 0.280 55 44 35 0 0
-0.0794 0.0629 -0.3523 -0.218 0.924 0.314 88 71 47 0 0
-0.0791 0.0586 -0.3685 -0.084 0.995 -0.054 87 72 50 0 0
-0.0791 0.0584 -0.3702 0.008 0.997 -0.074 88 73 54 0 0
-0.0790 0.0582 -0.3752 -0.176 0.975 0.134 86 73 52 0 0
-0.0778 0.0631 -0.4272 -0.513 0.766 0.387 51 43 32 0 0
-0.0733 0.0756 -0.6356 -0.185 0.407 0.894 61 52 43 0 0
-0.0732 0.0766 -0.6369 -0.589 0.592 0.550 56 48 38 0 0
-0.0717 0.1272 -0.6515 0.028 0.851 0.525 122 108 77 0 0
-0.0716 0.1281 -0.6528 0.214 0.775 0.594 147 132 92 0 0
-0.0716 0.1283 -0.6546 0.186 0.806 0.563 162 144 103 0 0
-0.0712 0.1324 -0.6654 0.176 0.895 0.409 58 46 35 0 0
-0.0708 0.1429 -0.6739 0.342 0.893 0.292 112 95 67 0 0
-0.0706 0.1430 -0.6855 0.244 0.970 0.024 93 78 48 0 0
-0.0704 0.1439 -0.6927 0.411 0.909 -0.069 57 42 21 0 0
-0.0688 0.1389 -0.7780 -0.377 0.649 0.661 25 17 13 0 0
-0.0678 0.1551 -0.8069 0.070 0.800 0.596 66 53 36 0 0
-0.0667 0.1711 -0.8401 -0.057 0.847 0.528 141 121 76 0 0
-0.0662 0.1727 -0.8626 0.236 0.679 0.695 82 78 71 0 0
-0.0660 0.1600 -0.8877 -0.077 0.889 0.451 184 184 184 0 0
-0.0820 -0.0112 -0.2352 -0.497 0.524 0.692 178 179 175 0 0
-0.0806 0.0227 -0.2667 0.070 0.897 0.437 216 205 176 0 0
-0.0805 0.0234 -0.2681 0.070 0.897 0.437 191 181 148 0 0
-0.0805 0.0241 -0.2695 0.070 0.897 0.437 175 161 123 0 0
-0.0803 0.0285 -0.2731 -0.102 0.847 0.522 75 63 38 0 0
-0.0799 0.0382 -0.2832 0.170 0.968 0.182 180 166 131 0 0
-0.0793 0.0442 -0.3004 -0.315 0.863 0.395 96 81 52 0 0
-0.0789 0.0496 -0.3179 -0.088 0.921 0.379 63 45 30 0 0
-0.0788 0.0509 -0.3191 0.021 0.973 0.230 69 53 37 0 0
-0.0783 0.0598 -0.3340 0.029 0.957 0.288 76 66 51 0 0
-0.0782 0.0602 -0.3354 -0.056 0.941 0.334 69 58 43 0 0
-0.0778 0.0632 -0.3522 -0.218 0.924 0.314 91 74 49 0 0
-0.0768 0.0597 -0.4030 0.065 0.971 0.230 78 65 45 0 0
-0.0767 0.0613 -0.4091 -0.107 0.969 0.222 62 46 32 0 0
-0.0766 0.0622 -0.4104 -0.233 0.890 0.391 60 44 30 0 0
-0.0756 0.0645 -0.4542 -0.536 0.844 0.008 38 33 30 0 0
-0.0725 0.0457 -0.6257 -0.364 0.226 0.904 33 26 18 0 0
-0.0718 0.0646 -0.6363 -0.219 0.079 0.973 65 56 47 0 0
-0.0708 0.1034 -0.6397 0.425 0.854 0.301 45 39 29 0 0
-0.0700 0.1267 -0.6517 -0.082 0.872 0.482 75 64 45 0 0
-0.0698 0.1296 -0.6595 0.159 0.769 0.619 79 66 43 0 0
-0.0693 0.1406 -0.6695 0.146 0.723 0.675 77 64 43 0 0
-0.0689 0.1437 -0.6870 0.342 0.936 -0.082 92 77 55 0 0
-0.0688 0.1436 -0.6909 0.133 0.930 -0.343 66 53 35 0 0
-0.0688 0.1432 -0.6932 0.411 0.909 -0.069 71 56 35 0 0
-0.0687 0.1431 -0.6953 0.392 0.899 -0.194 72 56 34 0 0
-0.0685 0.1384 -0.7106 -0.075 0.690 0.720 78 68 45 0 0
-0.0677 0.1578 -0.7282 0.380 0.865 -0.328 148 129 91 0 0
-0.0675 0.1329 -0.7659 0.011 0.822 -0.570 43 34 23 0 0
-0.0667 0.1413 -0.7950 0.051 0.944 0.327 57 45 29 0 0
-0.0665 0.1434 -0.7996 -0.180 0.728 0.662 76 61 42 0 0
-0.0661 0.1558 -0.8084 -0.026 0.970 0.242 48 35 16 0 0
-0.0660 0.1562 -0.8101 0.015 0.982 0.188 71 58 38 0 0
-0.0651 0.1686 -0.8402 0.120 0.922 0.369 142 121 77 0 0
-0.0805 -0.0098 -0.2317 0.059 0.866 0.497 178 178 178 0 0
-0.0773 0.0496 -0.3179 -0.018 0.954 0.299 65 49 33 0 0
-0.0773 0.0500 -0.3193 -0.018 0.954 0.299 72 56 42 0 0
-0.0772 0.0509 -0.3207 0.066 0.962 0.264 84 68 51 0 0
-0.0767 0.0597 -0.3356 0.027 0.940 0.339 61 53 35 0 0
-0.0758 0.0557 -0.3810 -0.054 0.912 0.407 54 42 28 0 0
-0.0755 0.0599 -0.3911 -0.475 0.880 0.022 92 79 62 0 0
-0.0715 0.1136 -0.5222 -0.442 0.811 0.384 29 23 19 0 0
-0.0714 0.1146 -0.5235 -0.009 0.897 0.442 34 26 20 0 0
-0.0707 0.0474 -0.6287 -0.149 0.963 0.224 41 33 24 0 0
-0.0690 0.1058 -0.6440 0.283 0.909 0.306 72 63 56 0 0
-0.0687 0.1152 -0.6476 -0.252 0.908 0.335 77 65 49 0 0
-0.0680 0.1342 -0.6622 0.272 0.923 0.272 73 60 38 0 0
-0.0671 0.1415 -0.6963 0.209 0.904 -0.373 70 58 33 0 0
-0.0661 0.1608 -0.7239 0.182 0.979 0.092 145 126 84 0 0
-0.0658 0.1344 -0.7626 0.030 0.844 -0.536 53 44 28 0 0
-0.0656 0.1268 -0.7812 -0.156 0.937 0.312 16 11 7 0 0
-0.0656 0.1283 -0.7822 0.017 0.925 0.380 15 10 8 0 0
-0.0652 0.1363 -0.7884 -0.003 0.398 0.917 49 37 24 0 0
-0.0644 0.1549 -0.8091 0.117 0.957 0.265 63 47 29 0 0
-0.0633 0.1708 -0.8403 -0.196 0.873 0.447 133 115 72 0 0
-0.0630 0.1716 -0.8547 0.368 0.897 0.244 100 90 65 0 0
-0.0629 0.1720 -0.8587 0.264 0.955 0.134 37 36 31 0 0
-0.0789 -0.0099 -0.2317 0.059 0.866 0.497 178 178 178 0 0
-0.0781 0.0104 -0.2523 -0.011 0.721 0.693 139 122 96 0 0
-0.0780 0.0116 -0.2536 -0.011 0.721 0.693 159 144 119 0 0
-0.0774 0.0232 -0.2681 0.044 0.806 0.590 157 134 107 0 0
-0.0774 0.0242 -0.2694 -0.081 0.789 0.609 185 166 131 0 0
-0.0773 0.0252 -0.2707 -0.081 0.789 0.609 192 171 135 0 0
-0.0768 0.0356 -0.2869 0.160 0.935 0.318 88 73 52 0 0
-0.0766 0.0384 -0.2925 0.217 0.883 0.417 85 72 46 0 0
-0.0760 0.0491 -0.3100 -0.179 0.940 0.290 57 44 24 0 0
-0.0759 0.0490 -0.3116 0.039 0.914 0.404 59 46 28 0 0
-0.0756 0.0517 -0.3220 0.090 0.921 0.379 92 76 54 0 0
-0.0752 0.0596 -0.3355 0.027 0.940 0.339 59 44 30 0 0
-0.0751 0.0591 -0.3373 -0.043 0.979 0.198 52 41 29 0 0
-0.0742 0.0558 -0.3809 -0.024 0.966 0.256 49 37 25 0 0
-0.0698 0.1148 -0.5234 -0.215 0.883 0.417 37 28 21 0 0
-0.0687 0.1353 -0.5568 0.421 0.881 0.216 144 127 89 0 0
-0.0686 0.1356 -0.5584 0.421 0.881 0.216 131 113 79 0 0
-0.0686 0.1352 -0.5605 0.503 0.864 0.016 133 117 84 0 0
-0.0681 0.0795 -0.6350 0.661 0.666 0.345 63 55 44 0 0
-0.0675 0.1010 -0.6411 0.504 0.500 0.704 41 34 25 0 0
-0.0674 0.1038 -0.6432 0.121 0.721 0.682 42 34 28 0 0
-0.0674 0.1050 -0.6445 0.055 0.721 0.691 63 54 45 0 0
-0.0670 0.1157 -0.6511 0.033 0.664 0.747 105 92 65 0 0
-0.0669 0.1178 -0.6517 0.329 0.679 0.656 100 86 59 0 0
-0.0662 0.1366 -0.6663 0.494 0.498 0.713 50 37 26 0 0
-0.0657 0.1424 -0.6857 0.333 0.923 0.194 62 51 32 0 0
-0.0651 0.1415 -0.7142 -0.093 0.621 0.778 97 85 62 0 0
-0.0639 0.1270 -0.7810 -0.156 0.937 0.312 18 13 9 0 0
-0.0638 0.1282 -0.7821 -0.037 0.960 0.279 17 12 9 0 0
-0.0631 0.1439 -0.7991 -0.133 0.960 0.248 64 49 32 0 0
-0.0616 0.1698 -0.8454 0.326 0.913 0.243 140 122 81 0 0
-0.0611 0.1719 -0.8631 0.212 0.970 0.122 93 88 82 0 0
-0.0774 -0.0100 -0.2317 -0.318 0.679 0.662 177 178 178 0 0
-0.0759 0.0220 -0.2668 -0.045 0.894 0.445 154 132 110 0 0
-0.0753 0.0350 -0.2854 0.035 0.877 0.480 142 124 90 0 0
-0.0750 0.0376 -0.2926 -0.077 0.957 0.278 132 118 95 0 0
-0.0745 0.0482 -0.3087 -0.041 0.996 0.076 64 48 27 0 0
-0.0741 0.0515 -0.3220 0.074 0.946 0.315 124 109 86 0 0
-0.0741 0.0519 -0.3235 0.042 0.761 0.648 145 128 101 0 0
-0.0739 0.0542 -0.3276 0.016 0.915 0.402 193 173 140 0 0
-0.0737 0.0591 -0.3324 0.021 0.955 0.297 73 60 43 0 0
-0.0737 0.0596 -0.3339 0.021 0.955 0.297 60 46 32 0 0
-0.0736 0.0599 -0.3354 -0.116 0.953 0.280 68 53 38 0 0
