ply
format ascii 1.0
element vertex 860
property float x
property float y
property float z
property float nx
property float ny
property float nz
property uchar diffuse_red
property uchar diffuse_green
property uchar diffuse_blue
property uchar class
property uchar detection
end_header
-0.0182 0.0384 -0.6444 0.912 -0.070 0.405 104 95 81 0 0
-0.0155 0.0373 -0.6490 0.848 -0.113 0.519 62 54 40 0 0
0.0241 0.0224 -0.7285 0.823 -0.206 0.529 89 75 49 0 0
0.0262 0.0216 -0.7334 0.955 -0.136 0.265 68 51 31 0 0
0.0263 0.0215 -0.7355 0.867 -0.266 0.422 66 46 26 0 0
0.0273 0.0206 -0.7563 0.906 -0.356 0.228 161 141 99 0 0
0.0302 0.0182 -0.8115 0.960 -0.277 -0.031 166 147 104 0 0
0.0264 0.0185 -0.8440 0.961 -0.243 -0.129 136 121 84 0 0
0.0261 0.0185 -0.8466 0.961 -0.243 -0.129 126 112 79 0 0
0.0257 0.0186 -0.8492 0.970 -0.178 -0.167 113 99 74 0 0
0.0239 0.0191 -0.8530 0.930 -0.154 -0.334 66 60 45 0 0
0.0422 0.0288 -0.2284 0.935 0.133 0.330 48 34 25 0 0
0.0454 0.0261 -0.2882 0.825 -0.412 0.388 99 76 51 0 0
0.0468 0.0254 -0.2957 0.854 -0.509 0.110 79 49 25 0 0
0.0447 0.0259 -0.3044 0.944 -0.267 0.194 93 70 39 0 0
0.0434 0.0260 -0.3161 0.910 -0.301 -0.285 128 108 69 0 0
-0.0366 0.0503 -0.3591 0.411 0.829 0.380 64 55 46 0 0
-0.0349 0.0498 -0.3603 0.385 0.789 0.478 89 79 70 0 0
-0.0345 0.0496 -0.3637 0.647 0.695 0.315 94 86 76 0 0
-0.0247 0.0455 -0.3940 0.857 -0.330 0.395 33 25 22 0 0
-0.0333 0.0470 -0.4393 0.284 -0.821 0.496 19 17 14 0 0
-0.0325 0.0467 -0.4409 0.444 -0.693 0.568 12 11 9 0 0
-0.0303 0.0460 -0.4437 0.664 -0.695 0.276 14 10 8 0 0
-0.0301 0.0458 -0.4454 0.896 -0.442 -0.049 46 40 32 0 0
-0.0313 0.0461 -0.4496 0.899 -0.419 0.129 78 68 56 0 0
-0.0308 0.0459 -0.4513 0.697 -0.261 0.667 59 51 38 0 0
-0.0282 0.0449 -0.4577 0.986 -0.133 0.099 48 34 25 0 0
-0.0273 0.0442 -0.4704 0.993 -0.087 0.086 81 63 43 0 0
-0.0271 0.0437 -0.4855 0.870 -0.416 0.265 92 73 49 0 0
-0.0270 0.0437 -0.4873 0.882 -0.426 0.203 105 89 66 0 0
-0.0267 0.0435 -0.4891 0.864 -0.454 0.217 99 82 62 0 0
-0.0259 0.0432 -0.4907 0.704 -0.529 0.474 97 81 60 0 0
-0.0275 0.0428 -0.5242 0.871 -0.486 0.066 97 82 50 0 0
-0.0407 0.0454 -0.5807 0.093 -0.745 0.661 204 207 212 0 0
-0.0623 0.0510 -0.6279 0.085 0.299 0.951 78 74 68 0 0
-0.0362 0.0427 -0.6255 0.215 0.081 0.973 91 84 74 0 0
-0.0255 0.0392 -0.6297 0.595 -0.112 0.796 97 86 69 0 0
-0.0236 0.0386 -0.6306 0.824 -0.281 0.491 118 107 89 0 0
-0.0232 0.0384 -0.6325 0.959 -0.219 0.178 88 77 59 0 0
-0.0229 0.0382 -0.6343 0.959 -0.219 0.178 90 79 62 0 0
-0.0226 0.0381 -0.6362 0.959 -0.219 0.178 80 69 54 0 0
-0.0226 0.0380 -0.6383 0.848 -0.155 0.507 64 53 37 0 0
-0.0184 0.0365 -0.6442 0.912 -0.070 0.405 115 106 92 0 0
-0.0173 0.0361 -0.6456 0.791 -0.155 0.592 94 84 71 0 0
-0.0163 0.0358 -0.6470 0.791 -0.155 0.592 88 76 60 0 0
-0.0084 0.0325 -0.6735 0.880 -0.233 0.415 32 23 18 0 0
-0.0072 0.0321 -0.6749 0.796 -0.169 0.581 68 58 44 0 0
0.0229 0.0207 -0.7353 0.914 -0.297 0.275 63 47 25 0 0
0.0234 0.0205 -0.7371 0.914 -0.297 0.275 64 44 23 0 0
0.0240 0.0203 -0.7389 0.851 -0.357 0.385 96 75 47 0 0
0.0266 0.0192 -0.7478 0.961 -0.210 0.181 155 135 97 0 0
0.0262 0.0192 -0.7524 0.922 -0.294 0.253 153 134 92 0 0
0.0267 0.0190 -0.7542 0.922 -0.294 0.253 148 128 88 0 0
0.0298 0.0165 -0.8092 0.960 -0.277 -0.031 154 135 92 0 0
0.0296 0.0164 -0.8138 0.960 -0.277 -0.031 159 140 98 0 0
0.0298 0.0163 -0.8158 0.958 -0.286 0.020 162 143 102 0 0
0.0269 0.0165 -0.8386 0.983 -0.146 -0.111 157 140 96 0 0
0.0263 0.0165 -0.8459 0.995 -0.062 0.073 128 114 81 0 0
0.0464 0.0239 -0.2957 0.735 -0.573 0.363 82 52 27 0 0
-0.0325 0.0471 -0.3645 0.683 0.659 0.314 81 74 64 0 0
-0.0328 0.0450 -0.4426 0.274 -0.831 0.485 19 18 16 0 0
-0.0316 0.0445 -0.4440 0.287 -0.829 0.480 13 11 11 0 0
-0.0318 0.0445 -0.4459 0.929 -0.370 0.010 17 14 9 0 0
-0.0316 0.0443 -0.4514 0.688 -0.656 0.311 36 30 19 0 0
-0.0282 0.0430 -0.4593 0.827 -0.559 0.058 49 35 26 0 0
-0.0283 0.0422 -0.4877 0.926 -0.282 0.252 95 79 54 0 0
-0.0279 0.0421 -0.4894 0.926 -0.282 0.252 91 75 51 0 0
-0.0663 0.0503 -0.6276 0.284 0.369 0.885 68 65 58 0 0
-0.0619 0.0489 -0.6272 0.085 0.299 0.951 75 71 65 0 0
-0.0572 0.0474 -0.6267 0.077 0.383 0.921 65 60 54 0 0
-0.0260 0.0374 -0.6296 0.712 -0.136 0.688 87 75 56 0 0
-0.0241 0.0368 -0.6306 0.796 -0.249 0.552 91 78 58 0 0
-0.0235 0.0365 -0.6322 0.916 -0.153 0.370 122 109 88 0 0
-0.0233 0.0364 -0.6342 0.967 0.033 0.253 104 92 71 0 0
-0.0220 0.0360 -0.6355 0.920 -0.163 0.356 83 72 53 0 0
-0.0187 0.0347 -0.6439 0.912 -0.070 0.405 109 98 83 0 0
-0.0180 0.0344 -0.6456 0.912 -0.070 0.405 117 106 92 0 0
-0.0168 0.0340 -0.6469 0.791 -0.155 0.592 102 90 74 0 0
-0.0153 0.0335 -0.6481 0.774 -0.209 0.598 77 64 47 0 0
-0.0149 0.0333 -0.6500 0.794 -0.314 0.520 71 57 37 0 0
-0.0155 0.0334 -0.6524 0.936 -0.335 0.107 71 57 37 0 0
-0.0077 0.0303 -0.6748 0.897 -0.043 0.439 37 26 14 0 0
0.0006 0.0274 -0.6842 0.380 -0.872 0.307 73 63 43 0 0
0.0079 0.0245 -0.7048 0.566 -0.755 0.331 85 73 48 0 0
0.0121 0.0227 -0.7211 0.789 -0.512 0.338 104 90 70 0 0
0.0137 0.0221 -0.7221 0.722 -0.391 0.570 129 115 90 0 0
0.0226 0.0189 -0.7373 0.896 -0.348 0.275 85 65 41 0 0
0.0241 0.0183 -0.7405 0.894 -0.254 0.369 95 76 47 0 0
0.0250 0.0179 -0.7442 0.883 -0.315 0.350 139 117 86 0 0
0.0291 0.0147 -0.8092 0.965 -0.262 -0.020 153 134 91 0 0
0.0291 0.0146 -0.8137 0.958 -0.274 0.088 155 136 94 0 0
0.0272 0.0147 -0.8310 0.993 -0.114 -0.029 163 144 101 0 0
0.0431 0.0250 -0.2386 0.877 -0.184 0.444 35 25 16 0 0
0.0455 0.0226 -0.2958 0.735 -0.573 0.363 81 51 27 0 0
-0.0286 0.0412 -0.4629 0.816 -0.458 0.352 49 34 20 0 0
-0.0289 0.0406 -0.4857 0.870 -0.394 0.296 67 47 27 0 0
-0.0285 0.0404 -0.4894 0.895 -0.358 0.267 89 71 46 0 0
-0.0286 0.0398 -0.5125 0.923 -0.368 0.110 121 107 79 0 0
-0.0283 0.0396 -0.5142 0.976 -0.172 0.131 117 103 74 0 0
-0.0287 0.0397 -0.5164 0.977 0.004 0.214 126 111 84 0 0
-0.0301 0.0397 -0.5307 0.970 -0.230 -0.076 95 81 54 0 0
-0.0334 0.0405 -0.5402 0.977 -0.185 -0.105 103 91 63 0 0
-0.0047 0.0273 -0.6788 0.684 -0.229 0.693 104 89 68 0 0
0.0225 0.0169 -0.7391 0.889 -0.333 0.313 125 102 73 0 0
0.0286 0.0128 -0.8136 0.958 -0.274 0.088 157 138 95 0 0
0.0287 0.0127 -0.8158 0.958 -0.274 0.088 168 149 104 0 0
0.0283 0.0128 -0.8183 0.978 -0.202 0.059 166 147 102 0 0
0.0222 0.0140 -0.8415 0.971 -0.232 -0.056 159 142 98 0 0
0.0405 0.0243 -0.2360 0.982 -0.158 0.106 33 23 14 0 0
0.0407 0.0242 -0.2375 0.982 -0.158 0.106 36 26 17 0 0
0.0427 0.0236 -0.2385 0.877 -0.184 0.444 35 25 16 0 0
0.0420 0.0220 -0.2998 0.925 -0.380 -0.020 84 57 30 0 0
0.0438 0.0208 -0.3186 0.682 0.133 0.719 142 125 86 0 0
-0.0291 0.0380 -0.5143 0.886 -0.440 0.143 96 79 51 0 0
-0.0299 0.0382 -0.5167 0.883 -0.370 0.289 122 107 78 0 0
-0.0340 0.0388 -0.5402 0.953 -0.269 -0.138 124 110 83 0 0
-0.0357 0.0391 -0.5470 0.948 -0.317 -0.034 83 72 49 0 0
-0.0456 0.0411 -0.5843 0.865 0.256 0.431 89 87 83 0 0
-0.0455 0.0410 -0.5864 0.957 -0.165 0.238 98 97 97 0 0
-0.0438 0.0405 -0.5875 0.851 -0.525 -0.029 170 171 170 0 0
-0.0575 0.0438 -0.6219 0.355 0.722 0.594 78 73 69 0 0
-0.0310 0.0353 -0.6256 0.564 0.243 0.789 81 73 61 0 0
-0.0144 0.0293 -0.6510 0.924 -0.154 0.350 79 67 46 0 0
-0.0138 0.0291 -0.6527 0.852 -0.301 0.427 84 72 50 0 0
0.0219 0.0152 -0.7391 0.889 -0.333 0.313 100 80 52 0 0
0.0276 0.0120 -0.7850 0.963 -0.023 0.269 144 122 78 0 0
0.0189 0.0126 -0.8575 0.931 -0.171 0.323 20 20 14 0 0
0.0397 0.0230 -0.2360 0.749 -0.431 0.503 35 25 16 0 0
0.0407 0.0227 -0.2373 0.965 -0.249 0.084 38 28 19 0 0
0.0429 0.0213 -0.2599 0.727 -0.412 0.550 51 33 17 0 0
0.0443 0.0201 -0.2846 0.938 -0.198 0.285 87 57 33 0 0
0.0409 0.0208 -0.2967 0.885 -0.344 0.312 82 53 29 0 0
0.0415 0.0205 -0.2998 0.925 -0.380 -0.020 82 56 29 0 0
0.0432 0.0194 -0.3186 0.782 -0.250 0.571 130 113 78 0 0
-0.0279 0.0372 -0.4677 0.943 -0.225 0.243 65 47 31 0 0
-0.0286 0.0371 -0.4775 0.920 -0.339 0.196 75 57 33 0 0
-0.0286 0.0367 -0.4926 0.964 -0.040 0.264 105 89 64 0 0
-0.0364 0.0375 -0.5470 0.928 -0.331 0.171 100 88 62 0 0
-0.0364 0.0374 -0.5490 0.997 -0.024 -0.068 104 93 69 0 0
-0.0547 0.0410 -0.6200 0.409 0.663 0.627 81 77 73 0 0
-0.0081 0.0249 -0.6676 0.857 -0.110 0.504 92 79 63 0 0
0.0254 0.0108 -0.7841 0.936 -0.250 0.248 112 93 54 0 0
0.0275 0.0102 -0.7846 0.934 -0.089 0.346 112 93 48 0 0
0.0274 0.0101 -0.7869 0.989 -0.121 0.089 123 103 61 0 0
0.0258 0.0101 -0.8037 0.965 -0.261 0.003 157 140 96 0 0
0.0257 0.0096 -0.8217 0.950 -0.287 0.120 168 149 105 0 0
0.0165 0.0114 -0.8567 0.935 -0.124 -0.333 56 50 33 0 0
0.0179 0.0109 -0.8578 0.980 0.056 0.191 20 20 14 0 0
0.0392 0.0216 -0.2360 0.879 -0.267 0.396 34 24 15 0 0
0.0398 0.0213 -0.2373 0.858 -0.296 0.419 39 30 18 0 0
0.0408 0.0204 -0.2572 0.917 -0.228 0.328 38 24 14 0 0
0.0418 0.0200 -0.2600 0.843 -0.348 0.410 55 37 18 0 0
0.0425 0.0198 -0.2614 0.851 -0.312 0.423 68 46 23 0 0
0.0430 0.0191 -0.2753 0.928 -0.373 0.015 80 47 30 0 0
0.0447 0.0184 -0.2827 0.879 -0.320 0.352 91 60 34 0 0
0.0398 0.0195 -0.2953 0.962 -0.228 0.148 81 51 27 0 0
0.0400 0.0194 -0.2968 0.903 -0.388 0.185 81 52 27 0 0
0.0406 0.0191 -0.2998 0.975 -0.198 -0.095 90 63 36 0 0
0.0402 0.0191 -0.3064 0.892 -0.353 0.284 103 83 51 0 0
0.0405 0.0189 -0.3079 0.874 -0.312 0.373 107 87 55 0 0
0.0405 0.0189 -0.3095 0.816 -0.121 0.565 104 84 53 0 0
0.0429 0.0179 -0.3185 0.757 -0.640 0.135 129 114 80 0 0
-0.0465 0.0418 -0.4471 0.270 0.351 0.897 29 27 25 0 0
-0.0452 0.0414 -0.4485 0.184 -0.174 0.967 39 34 30 0 0
-0.0284 0.0355 -0.4676 0.943 -0.225 0.243 76 59 42 0 0
-0.0189 0.0272 -0.6405 0.947 -0.069 0.313 74 60 39 0 0
-0.0140 0.0252 -0.6541 0.992 -0.029 0.125 68 56 34 0 0
-0.0129 0.0249 -0.6556 0.950 0.122 0.289 76 63 43 0 0
-0.0123 0.0246 -0.6573 0.931 0.169 0.322 74 61 40 0 0
0.0266 0.0083 -0.7915 0.892 -0.446 0.078 157 136 95 0 0
0.0266 0.0077 -0.8115 0.935 -0.354 0.028 149 132 94 0 0
0.0259 0.0078 -0.8143 0.919 -0.377 0.119 135 121 87 0 0
0.0253 0.0078 -0.8216 0.924 -0.264 0.275 163 144 101 0 0
0.0171 0.0092 -0.8580 0.921 -0.221 0.321 19 19 13 0 0
0.0387 0.0201 -0.2359 0.858 -0.296 0.419 36 25 15 0 0
0.0402 0.0190 -0.2571 0.867 -0.299 0.400 39 27 13 0 0
0.0428 0.0178 -0.2705 0.826 -0.491 0.277 97 72 48 0 0
0.0420 0.0176 -0.2833 0.860 -0.505 0.072 88 58 32 0 0
0.0406 0.0178 -0.2917 0.978 -0.195 0.072 83 53 29 0 0
0.0394 0.0180 -0.2968 0.917 -0.257 0.304 81 53 28 0 0
0.0399 0.0177 -0.2998 0.922 -0.331 -0.202 86 61 35 0 0
0.0394 0.0176 -0.3080 0.849 -0.307 0.431 103 85 53 0 0
0.0392 0.0176 -0.3129 0.933 -0.286 -0.219 116 98 65 0 0
-0.0241 0.0360 -0.3518 0.542 -0.050 0.839 93 86 78 0 0
-0.0304 0.0366 -0.3965 0.956 -0.252 -0.153 40 32 29 0 0
-0.0396 0.0376 -0.4534 0.850 -0.327 0.413 31 22 17 0 0
-0.0321 0.0349 -0.4671 0.867 -0.322 0.379 51 34 22 0 0
-0.0292 0.0325 -0.5135 0.978 -0.187 0.091 131 116 87 0 0
-0.0509 0.0367 -0.5944 0.794 -0.278 -0.541 59 53 45 0 0
-0.0375 0.0317 -0.6220 0.777 0.334 0.533 75 72 62 0 0
-0.0092 0.0210 -0.6802 0.926 0.104 0.363 80 71 51 0 0
-0.0082 0.0201 -0.7008 0.507 -0.804 0.309 11 11 8 0 0
-0.0081 0.0200 -0.7029 0.596 -0.785 0.167 14 13 10 0 0
-0.0102 0.0204 -0.7085 0.793 -0.038 0.608 22 20 19 0 0
-0.0066 0.0192 -0.7125 0.861 -0.460 0.217 50 42 40 0 0
0.0146 0.0122 -0.7259 0.870 -0.002 0.492 131 117 90 0 0
0.0186 0.0108 -0.7316 0.828 -0.244 0.505 58 41 21 0 0
0.0197 0.0102 -0.7394 0.942 0.026 0.336 101 77 50 0 0
0.0269 0.0063 -0.7931 0.790 -0.566 0.236 154 136 95 0 0
0.0254 0.0063 -0.8076 0.893 -0.434 0.117 166 148 101 0 0
0.0252 0.0062 -0.8100 0.791 -0.391 0.471 166 147 103 0 0
0.0252 0.0061 -0.8144 0.919 -0.377 0.119 141 125 88 0 0
0.0147 0.0080 -0.8572 0.898 -0.414 0.146 56 50 34 0 0
0.0167 0.0074 -0.8578 0.890 -0.174 0.421 19 19 13 0 0
0.0381 0.0189 -0.2298 0.968 -0.163 0.192 36 26 16 0 0
0.0420 0.0164 -0.2705 0.826 -0.491 0.277 78 50 27 0 0
0.0390 0.0165 -0.2967 0.917 -0.257 0.304 82 54 30 0 0
0.0394 0.0163 -0.2998 0.922 -0.331 -0.202 89 65 39 0 0
-0.0281 0.0356 -0.3495 0.476 -0.083 0.875 65 60 56 0 0
-0.0244 0.0344 -0.3517 0.542 -0.050 0.839 92 86 78 0 0
-0.0324 0.0355 -0.3934 0.941 -0.303 0.152 33 26 20 0 0
-0.0348 0.0342 -0.4586 0.927 -0.193 0.321 48 40 30 0 0
-0.0337 0.0336 -0.4656 0.827 -0.427 0.366 49 35 23 0 0
-0.0327 0.0332 -0.4671 0.867 -0.322 0.379 51 35 21 0 0
-0.0309 0.0324 -0.4776 0.857 -0.381 0.347 83 64 43 0 0
-0.0297 0.0316 -0.4904 0.922 -0.222 0.317 97 79 58 0 0
-0.0296 0.0307 -0.5153 0.983 -0.185 -0.000 119 104 76 0 0
-0.0354 0.0314 -0.5495 0.963 0.148 0.226 130 115 83 0 0
-0.0353 0.0313 -0.5515 0.980 0.162 0.119 128 113 80 0 0
-0.0521 0.0351 -0.5947 0.829 -0.149 -0.540 47 40 29 0 0
-0.0536 0.0355 -0.5975 0.937 0.129 -0.325 46 41 34 0 0
-0.0503 0.0341 -0.6102 0.770 0.637 -0.030 66 58 51 0 0
-0.0404 0.0307 -0.6191 0.612 0.188 0.768 54 50 44 0 0
-0.0387 0.0302 -0.6203 0.642 0.254 0.723 68 65 58 0 0
-0.0371 0.0296 -0.6214 0.777 0.334 0.533 86 81 71 0 0
-0.0133 0.0212 -0.6551 0.794 -0.262 0.549 50 38 22 0 0
-0.0124 0.0209 -0.6566 0.794 -0.262 0.549 75 67 46 0 0
-0.0110 0.0204 -0.6578 0.804 -0.021 0.595 80 70 48 0 0
0.0130 0.0108 -0.7244 0.887 0.063 0.457 117 106 78 0 0
0.0138 0.0105 -0.7260 0.970 -0.114 0.214 138 124 98 0 0
0.0144 0.0103 -0.7277 0.932 -0.138 0.334 127 111 85 0 0
0.0176 0.0091 -0.7319 0.921 -0.082 0.381 59 43 23 0 0
0.0242 0.0060 -0.7661 0.946 -0.238 0.221 150 131 91 0 0
0.0239 0.0054 -0.7882 0.913 -0.181 0.365 144 125 85 0 0
0.0242 0.0052 -0.7902 0.987 -0.126 0.096 128 108 73 0 0
0.0251 0.0048 -0.7961 0.957 -0.248 0.153 152 133 93 0 0
0.0244 0.0046 -0.8079 0.950 -0.297 0.096 167 149 104 0 0
0.0244 0.0045 -0.8102 0.936 -0.100 0.338 159 140 97 0 0
0.0248 0.0044 -0.8121 0.952 -0.219 0.214 161 143 100 0 0
0.0246 0.0043 -0.8144 0.982 -0.155 0.106 153 136 95 0 0
0.0248 0.0042 -0.8165 0.982 -0.155 0.106 158 141 98 0 0
0.0210 0.0045 -0.8446 0.959 -0.201 -0.201 138 124 88 0 0
0.0164 0.0055 -0.8575 0.899 0.025 0.437 20 19 13 0 0
0.0172 0.0052 -0.8592 0.899 0.025 0.437 15 14 13 0 0
0.0180 0.0049 -0.8609 0.947 0.103 0.304 25 21 21 0 0
0.0278 0.0212 -0.2090 0.823 0.156 0.546 178 178 177 0 0
0.0407 0.0157 -0.2551 0.781 -0.576 0.243 55 37 21 0 0
0.0381 0.0148 -0.3080 0.956 -0.262 0.134 97 80 47 0 0
0.0386 0.0145 -0.3111 0.905 -0.407 0.120 114 93 60 0 0
0.0381 0.0146 -0.3129 0.983 -0.133 0.130 124 103 67 0 0
-0.0248 0.0327 -0.3516 0.542 -0.050 0.839 86 82 75 0 0
-0.0324 0.0337 -0.3932 0.975 -0.223 0.008 45 38 30 0 0
-0.0307 0.0332 -0.3943 0.995 0.095 0.035 63 56 48 0 0
-0.0318 0.0307 -0.4796 0.891 -0.157 0.426 79 61 39 0 0
-0.0302 0.0299 -0.4903 0.922 -0.222 0.317 85 68 47 0 0
-0.0298 0.0291 -0.5112 0.969 -0.243 -0.047 74 59 38 0 0
-0.0299 0.0290 -0.5132 0.983 -0.185 -0.000 74 58 34 0 0
-0.0299 0.0290 -0.5151 0.972 -0.227 0.068 114 99 72 0 0
-0.0299 0.0289 -0.5171 0.971 -0.233 0.046 129 115 85 0 0
-0.0321 0.0289 -0.5396 0.955 0.072 0.287 120 104 72 0 0
-0.0386 0.0301 -0.5628 0.981 -0.192 0.011 110 96 74 0 0
-0.0362 0.0275 -0.6206 0.778 0.242 0.580 95 88 74 0 0
-0.0226 0.0230 -0.6292 0.847 -0.471 0.247 78 67 48 0 0
-0.0140 0.0195 -0.6551 0.849 -0.217 0.482 54 43 27 0 0
-0.0132 0.0189 -0.6651 0.827 -0.023 0.561 75 63 42 0 0
-0.0090 0.0173 -0.6750 0.987 -0.025 0.159 43 32 19 0 0
-0.0118 0.0171 -0.7088 0.513 -0.042 0.858 29 26 25 0 0
0.0129 0.0089 -0.7240 0.932 -0.138 0.334 108 94 67 0 0
0.0141 0.0085 -0.7275 0.932 -0.138 0.334 140 124 98 0 0
0.0152 0.0081 -0.7289 0.639 -0.419 0.645 145 127 95 0 0
0.0185 0.0069 -0.7351 0.950 -0.308 0.042 81 63 40 0 0
0.0191 0.0065 -0.7390 0.883 -0.301 0.360 106 85 55 0 0
0.0205 0.0060 -0.7423 0.845 -0.271 0.461 115 94 62 0 0
0.0235 0.0036 -0.7881 0.913 -0.181 0.365 144 125 85 0 0
0.0240 0.0033 -0.7921 0.951 -0.210 0.228 149 130 89 0 0
0.0243 0.0032 -0.7941 0.958 0.013 0.285 146 127 87 0 0
0.0247 0.0030 -0.7961 0.957 -0.248 0.153 142 123 83 0 0
0.0241 0.0027 -0.8099 0.948 -0.262 0.181 150 131 88 0 0
0.0242 0.0025 -0.8143 0.964 -0.222 0.143 151 134 92 0 0
0.0242 0.0025 -0.8166 0.946 -0.314 0.076 162 145 101 0 0
0.0171 0.0035 -0.8495 0.875 -0.483 -0.022 129 115 82 0 0
0.0356 0.0171 -0.2133 0.789 -0.460 0.406 137 124 98 0 0
0.0397 0.0143 -0.2583 0.955 -0.124 0.271 46 28 13 0 0
0.0392 0.0132 -0.2979 0.947 -0.030 0.320 86 60 35 0 0
0.0396 0.0130 -0.2993 0.989 0.023 0.147 90 64 39 0 0
0.0364 0.0135 -0.3116 0.947 -0.212 0.241 122 101 67 0 0
-0.0263 0.0315 -0.3501 0.547 0.046 0.836 47 43 39 0 0
-0.0251 0.0311 -0.3515 0.542 -0.050 0.839 78 75 69 0 0
-0.0332 0.0322 -0.3932 0.977 -0.160 0.142 40 34 26 0 0
-0.0363 0.0325 -0.4124 0.961 -0.215 0.172 57 53 44 0 0
-0.0394 0.0320 -0.4562 0.874 -0.421 0.245 16 12 11 0 0
-0.0310 0.0283 -0.4885 0.982 -0.101 0.160 77 59 36 0 0
-0.0306 0.0282 -0.4902 0.922 -0.222 0.317 78 60 37 0 0
-0.0300 0.0279 -0.4937 0.971 -0.168 0.168 87 70 49 0 0
-0.0314 0.0275 -0.5194 0.928 -0.274 0.250 106 92 62 0 0
-0.0358 0.0255 -0.6200 0.876 0.279 0.394 115 106 90 0 0
-0.0251 0.0219 -0.6282 0.798 -0.097 0.595 123 111 88 0 0
-0.0121 0.0165 -0.6703 0.878 -0.352 0.325 85 73 50 0 0
-0.0136 0.0157 -0.7074 0.780 -0.000 0.626 26 24 22 0 0
0.0128 0.0071 -0.7237 0.906 -0.154 0.395 113 95 70 0 0
0.0143 0.0066 -0.7248 0.872 -0.250 0.422 112 95 69 0 0
0.0150 0.0063 -0.7264 0.872 -0.250 0.422 133 118 89 0 0
0.0193 0.0046 -0.7384 0.880 -0.412 0.236 106 85 57 0 0
0.0199 0.0043 -0.7423 0.845 -0.271 0.461 135 111 79 0 0
0.0211 0.0039 -0.7435 0.965 -0.209 0.159 114 92 59 0 0
0.0244 0.0011 -0.7958 0.977 -0.176 0.124 162 143 102 0 0
0.0240 0.0008 -0.8095 0.983 -0.088 0.160 166 147 104 0 0
0.0239 0.0007 -0.8118 0.957 -0.100 0.272 162 144 102 0 0
0.0238 0.0007 -0.8141 0.964 -0.222 0.143 143 126 87 0 0
0.0236 0.0007 -0.8165 0.946 -0.314 0.076 151 134 93 0 0
0.0227 0.0004 -0.8331 0.808 0.178 0.562 159 140 96 0 0
0.0222 0.0005 -0.8358 0.977 0.086 0.194 162 143 101 0 0
0.0209 0.0008 -0.8391 0.888 0.336 0.315 159 141 98 0 0
0.0160 0.0020 -0.8477 0.950 -0.257 0.174 135 122 86 0 0
0.0163 0.0018 -0.8497 0.950 -0.257 0.174 127 115 81 0 0
0.0349 0.0157 -0.2133 0.880 -0.104 0.463 152 137 106 0 0
0.0359 0.0150 -0.2237 0.889 -0.097 0.448 52 41 27 0 0
0.0368 0.0146 -0.2281 0.880 -0.379 0.287 43 30 21 0 0
0.0397 0.0127 -0.2581 0.959 -0.241 0.151 55 34 17 0 0
0.0405 0.0122 -0.2641 0.851 -0.344 0.396 66 38 17 0 0
0.0358 0.0122 -0.3100 0.954 -0.170 0.246 117 98 61 0 0
-0.0254 0.0295 -0.3496 0.664 0.208 0.718 29 24 19 0 0
-0.0248 0.0293 -0.3512 0.604 0.116 0.788 52 48 43 0 0
-0.0321 0.0301 -0.3926 0.996 -0.070 -0.057 40 36 29 0 0
-0.0359 0.0306 -0.4121 0.924 -0.377 0.071 70 63 54 0 0
-0.0401 0.0304 -0.4563 0.874 -0.421 0.245 14 10 11 0 0
-0.0312 0.0265 -0.4902 0.893 -0.299 0.337 87 70 50 0 0
-0.0306 0.0263 -0.4918 0.893 -0.299 0.337 104 87 67 0 0
-0.0321 0.0259 -0.5175 0.834 -0.311 0.455 110 93 65 0 0
-0.0319 0.0258 -0.5194 0.928 -0.274 0.250 131 114 86 0 0
-0.0380 0.0262 -0.5598 0.965 -0.067 0.252 95 83 57 0 0
-0.0372 0.0260 -0.5614 0.770 0.043 0.636 106 94 71 0 0
-0.0422 0.0271 -0.5741 0.967 -0.251 0.044 26 17 9 0 0
-0.0129 0.0149 -0.6683 0.784 -0.306 0.540 141 126 100 0 0
-0.0120 0.0146 -0.6698 0.784 -0.306 0.540 123 109 83 0 0
-0.0087 0.0121 -0.7123 0.528 -0.233 0.816 68 58 49 0 0
0.0184 0.0030 -0.7365 0.915 -0.268 0.302 84 66 40 0 0
0.0190 0.0028 -0.7382 0.928 -0.203 0.312 112 93 65 0 0
0.0195 0.0026 -0.7400 0.900 -0.248 0.357 115 95 65 0 0
0.0202 0.0023 -0.7417 0.894 -0.294 0.338 126 104 72 0 0
0.0214 0.0016 -0.7538 0.939 -0.328 0.103 144 124 84 0 0
0.0228 0.0008 -0.7636 0.959 -0.198 0.205 167 145 106 0 0
0.0240 -0.0007 -0.7956 0.977 -0.176 0.124 162 143 101 0 0
0.0229 -0.0009 -0.8122 0.933 -0.330 0.143 169 151 108 0 0
0.0231 -0.0010 -0.8142 0.933 -0.330 0.143 165 147 106 0 0
0.0224 -0.0013 -0.8283 0.961 -0.277 -0.015 158 139 97 0 0
0.0215 -0.0011 -0.8313 0.977 0.086 0.194 152 133 90 0 0
0.0228 -0.0015 -0.8325 0.808 0.178 0.562 156 137 94 0 0
0.0228 -0.0016 -0.8348 0.880 0.179 0.441 161 143 99 0 0
0.0157 0.0000 -0.8498 0.829 -0.335 0.448 127 115 82 0 0
0.0320 0.0151 -0.2092 0.723 -0.178 0.668 178 178 176 0 0
0.0346 0.0142 -0.2132 0.917 -0.085 0.390 156 141 113 0 0
0.0347 0.0138 -0.2223 0.940 -0.236 0.246 43 34 21 0 0
0.0350 0.0137 -0.2237 0.844 -0.280 0.458 51 40 28 0 0
0.0367 0.0130 -0.2294 0.958 -0.193 0.212 41 30 18 0 0
0.0381 0.0108 -0.2803 0.919 -0.192 0.345 79 48 24 0 0
0.0386 0.0106 -0.2818 0.919 -0.192 0.345 80 49 25 0 0
0.0391 0.0104 -0.2832 0.919 -0.192 0.345 79 49 25 0 0
0.0358 0.0104 -0.3114 0.954 -0.170 0.246 143 126 84 0 0
0.0359 0.0103 -0.3146 0.942 0.335 0.008 122 107 72 0 0
-0.0244 0.0274 -0.3508 0.695 0.057 0.717 32 28 24 0 0
-0.0288 0.0274 -0.3893 0.868 0.232 -0.438 45 38 31 0 0
-0.0310 0.0279 -0.3937 0.985 0.017 -0.173 41 35 26 0 0
-0.0359 0.0289 -0.4082 0.960 0.273 0.056 52 45 37 0 0
-0.0409 0.0298 -0.4284 0.985 0.009 0.174 13 9 5 0 0
-0.0401 0.0295 -0.4300 0.789 -0.227 0.570 11 8 6 0 0
-0.0401 0.0294 -0.4318 0.852 -0.189 0.489 17 13 10 0 0
-0.0399 0.0293 -0.4336 0.945 0.056 0.323 36 32 28 0 0
-0.0429 0.0297 -0.4478 0.917 -0.049 0.395 40 30 25 0 0
-0.0333 0.0258 -0.4757 0.899 0.011 0.438 81 63 41 0 0
-0.0328 0.0243 -0.5156 0.906 -0.200 0.372 106 90 64 0 0
-0.0322 0.0241 -0.5173 0.906 -0.200 0.372 98 81 55 0 0
-0.0323 0.0240 -0.5192 0.964 -0.195 0.181 123 106 78 0 0
-0.0402 0.0241 -0.5868 0.947 -0.181 -0.267 61 52 38 0 0
-0.0405 0.0241 -0.5891 0.945 -0.243 -0.219 36 28 18 0 0
-0.0410 0.0242 -0.5914 0.945 -0.243 -0.219 51 43 33 0 0
-0.0413 0.0242 -0.5936 0.940 -0.319 -0.123 61 52 41 0 0
-0.0415 0.0242 -0.5957 0.963 -0.263 0.057 76 67 53 0 0
0.0076 0.0050 -0.7179 0.599 -0.473 0.646 128 112 79 0 0
0.0191 0.0010 -0.7356 0.932 -0.040 0.361 86 68 45 0 0
0.0198 0.0007 -0.7372 0.949 -0.078 0.307 105 87 61 0 0
0.0230 -0.0025 -0.8004 0.846 -0.326 0.422 154 135 92 0 0
0.0230 -0.0025 -0.8027 0.923 -0.095 0.373 152 132 89 0 0
0.0215 -0.0028 -0.8240 0.936 -0.349 0.044 159 140 97 0 0
0.0219 -0.0031 -0.8305 0.937 -0.181 0.300 157 138 95 0 0
0.0221 -0.0033 -0.8326 0.868 -0.446 0.220 155 136 93 0 0
0.0226 -0.0035 -0.8345 0.833 -0.546 0.090 159 141 98 0 0
0.0321 0.0135 -0.2106 0.855 0.085 0.512 180 178 172 0 0
0.0329 0.0132 -0.2119 0.855 0.085 0.512 178 171 155 0 0
0.0343 0.0124 -0.2222 0.940 -0.236 0.246 40 30 20 0 0
0.0348 0.0121 -0.2251 0.801 -0.285 0.526 54 42 27 0 0
0.0356 0.0118 -0.2265 0.801 -0.285 0.526 55 43 29 0 0
0.0389 0.0091 -0.2752 0.970 -0.131 0.202 80 48 25 0 0
0.0392 0.0090 -0.2767 0.970 -0.131 0.202 87 55 33 0 0
0.0364 0.0094 -0.2901 0.974 0.013 0.227 83 53 29 0 0
0.0352 0.0091 -0.3098 0.954 -0.170 0.246 131 115 77 0 0
-0.0242 0.0258 -0.3453 0.858 0.490 -0.156 30 25 22 0 0
-0.0246 0.0259 -0.3472 0.858 0.490 -0.156 36 31 28 0 0
-0.0242 0.0257 -0.3488 0.924 0.380 0.029 29 25 22 0 0
-0.0232 0.0253 -0.3519 0.656 0.179 0.733 47 41 38 0 0
-0.0360 0.0271 -0.4098 0.991 0.053 -0.124 53 43 36 0 0
-0.0363 0.0271 -0.4117 0.997 -0.041 -0.058 51 43 33 0 0
-0.0364 0.0271 -0.4136 0.997 -0.041 -0.058 36 27 18 0 0
-0.0424 0.0277 -0.4492 0.917 -0.049 0.395 35 25 20 0 0
-0.0423 0.0276 -0.4510 0.936 -0.165 0.311 22 16 10 0 0
-0.0420 0.0274 -0.4528 0.849 -0.300 0.435 11 7 4 0 0
-0.0414 0.0272 -0.4544 0.827 -0.202 0.525 9 9 7 0 0
-0.0356 0.0250 -0.4669 0.769 -0.407 0.492 54 43 30 0 0
-0.0324 0.0228 -0.5016 0.960 -0.168 0.223 97 83 56 0 0
-0.0339 0.0228 -0.5139 0.952 -0.158 0.261 109 95 69 0 0
-0.0334 0.0226 -0.5156 0.942 -0.139 0.306 116 99 75 0 0
-0.0330 0.0225 -0.5174 0.954 -0.050 0.295 135 117 93 0 0
-0.0327 0.0223 -0.5192 0.881 -0.165 0.443 136 119 93 0 0
-0.0328 0.0221 -0.5250 0.963 -0.269 -0.012 113 96 66 0 0
-0.0393 0.0227 -0.5639 0.786 -0.607 0.117 93 82 67 0 0
-0.0399 0.0225 -0.5763 0.889 -0.149 0.434 83 70 54 0 0
-0.0407 0.0224 -0.5868 0.939 -0.247 -0.238 60 50 37 0 0
-0.0411 0.0224 -0.5891 0.957 -0.220 -0.188 43 35 24 0 0
-0.0413 0.0224 -0.5912 0.916 -0.307 -0.257 54 45 35 0 0
-0.0420 0.0224 -0.5956 0.883 -0.332 0.333 71 60 45 0 0
-0.0416 0.0220 -0.6057 0.910 0.127 0.394 78 66 45 0 0
-0.0406 0.0215 -0.6092 0.960 0.001 0.279 75 63 45 0 0
-0.0394 0.0210 -0.6148 0.909 -0.175 0.379 78 69 56 0 0
-0.0209 0.0146 -0.6370 0.897 -0.133 0.422 94 81 56 0 0
-0.0119 0.0109 -0.6648 0.988 0.155 0.019 77 65 43 0 0
-0.0194 0.0116 -0.7101 0.893 0.012 0.450 54 47 41 0 0
0.0065 0.0035 -0.7183 0.827 0.015 0.563 148 128 92 0 0
0.0085 0.0028 -0.7212 0.853 0.039 0.521 175 161 135 0 0
0.0201 -0.0020 -0.7560 0.953 -0.284 0.109 147 131 96 0 0
0.0219 -0.0041 -0.8008 0.916 -0.132 0.380 158 140 96 0 0
0.0226 -0.0043 -0.8025 0.916 -0.132 0.380 163 144 99 0 0
0.0227 -0.0044 -0.8046 0.978 0.097 0.187 172 152 107 0 0
0.0211 -0.0046 -0.8239 0.982 -0.101 0.157 157 139 94 0 0
0.0214 -0.0048 -0.8259 0.982 -0.101 0.157 148 129 86 0 0
0.0212 -0.0050 -0.8328 0.889 -0.439 0.127 154 135 92 0 0
0.0216 -0.0052 -0.8348 0.833 -0.546 0.090 156 137 94 0 0
0.0198 -0.0049 -0.8431 0.831 -0.525 -0.184 139 123 88 0 0
0.0342 0.0107 -0.2251 0.880 -0.071 0.470 40 28 16 0 0
0.0351 0.0104 -0.2264 0.865 -0.172 0.471 45 32 21 0 0
0.0358 0.0102 -0.2278 0.865 -0.172 0.471 42 29 19 0 0
0.0394 0.0073 -0.2780 0.893 -0.256 0.370 86 59 34 0 0
0.0399 0.0071 -0.2795 0.893 -0.256 0.370 92 65 40 0 0
0.0395 0.0071 -0.2811 0.907 -0.385 0.171 88 56 36 0 0
0.0349 0.0075 -0.3097 0.954 -0.170 0.246 131 114 77 0 0
-0.0237 0.0239 -0.3449 0.875 0.221 -0.431 36 30 24 0 0
-0.0217 0.0233 -0.3460 0.914 0.195 -0.355 32 27 24 0 0
-0.0363 0.0253 -0.4133 0.983 0.183 0.007 64 56 43 0 0
-0.0372 0.0254 -0.4173 0.950 -0.104 -0.293 61 52 42 0 0
-0.0404 0.0260 -0.4277 0.884 -0.467 -0.017 38 33 28 0 0
-0.0419 0.0257 -0.4506 0.871 -0.232 0.434 26 20 15 0 0
-0.0419 0.0255 -0.4543 0.827 -0.202 0.525 7 8 5 0 0
-0.0347 0.0228 -0.4700 0.877 -0.280 0.390 38 26 15 0 0
-0.0328 0.0220 -0.4768 0.899 0.011 0.438 83 66 46 0 0
-0.0337 0.0209 -0.5155 0.942 -0.139 0.306 109 93 68 0 0
-0.0333 0.0207 -0.5172 0.946 -0.158 0.282 130 113 89 0 0
-0.0331 0.0206 -0.5191 0.881 -0.165 0.443 99 81 58 0 0
-0.0333 0.0204 -0.5249 0.963 -0.269 -0.012 132 116 87 0 0
-0.0347 0.0205 -0.5335 0.973 -0.223 -0.055 131 115 83 0 0
-0.0404 0.0208 -0.5762 0.921 -0.225 0.318 75 62 49 0 0
-0.0418 0.0206 -0.5932 0.992 -0.105 0.069 57 46 35 0 0
-0.0414 0.0204 -0.5950 0.843 -0.049 0.535 74 61 47 0 0
-0.0233 0.0137 -0.6298 0.862 0.008 0.507 73 65 47 0 0
-0.0228 0.0135 -0.6316 0.936 -0.154 0.316 46 36 24 0 0
-0.0217 0.0130 -0.6351 0.936 -0.154 0.316 83 73 51 0 0
-0.0212 0.0128 -0.6368 0.936 -0.154 0.316 101 90 65 0 0
-0.0105 0.0089 -0.6552 0.828 -0.349 0.438 45 34 19 0 0
-0.0193 0.0100 -0.6988 0.967 -0.187 -0.171 19 16 11 0 0
-0.0193 0.0097 -0.7096 0.884 0.139 0.447 38 31 26 0 0
0.0052 0.0019 -0.7187 0.672 -0.508 0.539 127 110 75 0 0
0.0072 0.0012 -0.7217 0.701 -0.476 0.531 167 153 127 0 0
0.0199 -0.0036 -0.7514 0.973 -0.120 0.196 114 93 67 0 0
0.0201 -0.0044 -0.7708 0.945 -0.290 0.150 162 143 100 0 0
0.0204 -0.0045 -0.7728 0.924 -0.328 0.198 157 139 97 0 0
0.0226 -0.0059 -0.7909 0.940 -0.320 0.115 159 140 97 0 0
0.0206 -0.0059 -0.8080 0.911 -0.343 0.227 148 130 88 0 0
0.0209 -0.0065 -0.8235 0.992 -0.125 0.009 157 139 93 0 0
0.0212 -0.0067 -0.8256 0.993 -0.112 0.039 162 144 98 0 0
0.0210 -0.0068 -0.8303 0.978 -0.206 0.030 163 144 101 0 0
0.0207 -0.0068 -0.8328 0.960 -0.251 0.123 159 140 97 0 0
0.0191 -0.0064 -0.8363 0.814 -0.578 -0.062 157 138 95 0 0
0.0341 0.0092 -0.2250 0.933 0.024 0.359 42 29 20 0 0
0.0346 0.0090 -0.2264 0.887 -0.050 0.460 43 29 20 0 0
0.0358 0.0085 -0.2292 0.937 -0.086 0.339 47 35 22 0 0
0.0361 0.0069 -0.2724 0.706 -0.472 0.528 78 49 27 0 0
0.0374 0.0064 -0.2737 0.872 -0.487 0.045 83 54 31 0 0
0.0363 0.0056 -0.3074 0.950 -0.285 -0.128 119 101 65 0 0
-0.0223 0.0218 -0.3443 0.859 0.499 -0.116 49 43 36 0 0
-0.0362 0.0235 -0.4130 0.990 0.134 0.048 86 78 65 0 0
-0.0364 0.0235 -0.4149 0.984 0.133 -0.121 73 65 52 0 0
-0.0402 0.0242 -0.4274 0.985 -0.169 -0.016 32 25 19 0 0
-0.0409 0.0243 -0.4295 0.984 -0.086 0.156 36 29 23 0 0
-0.0406 0.0241 -0.4312 0.944 -0.307 0.116 36 30 22 0 0
-0.0404 0.0240 -0.4330 0.962 -0.189 0.195 35 30 21 0 0
-0.0342 0.0204 -0.4809 0.961 -0.214 0.177 82 64 42 0 0
-0.0327 0.0192 -0.5031 0.899 -0.422 0.119 114 98 72 0 0
-0.0347 0.0193 -0.5156 0.888 -0.298 0.350 107 92 65 0 0
-0.0335 0.0186 -0.5247 0.888 -0.460 -0.021 110 95 66 0 0
-0.0379 0.0192 -0.5466 0.936 -0.347 0.057 136 119 89 0 0
-0.0403 0.0192 -0.5657 0.881 -0.396 -0.258 36 27 18 0 0
-0.0420 0.0187 -0.5929 0.955 -0.002 0.297 35 25 15 0 0
-0.0404 0.0182 -0.5941 0.843 -0.342 0.415 75 63 47 0 0
-0.0180 0.0093 -0.6553 0.744 -0.151 0.651 117 107 89 0 0
-0.0122 0.0073 -0.6622 0.902 -0.154 0.404 63 52 30 0 0
-0.0128 0.0074 -0.6646 0.978 -0.188 -0.084 75 64 44 0 0
-0.0154 0.0078 -0.6747 0.899 -0.359 0.250 86 72 50 0 0
-0.0144 0.0074 -0.6782 0.980 -0.120 0.159 63 52 34 0 0
-0.0161 0.0073 -0.6942 0.948 0.087 -0.306 21 16 8 0 0
-0.0188 0.0080 -0.6981 0.777 -0.614 -0.134 24 20 16 0 0
-0.0159 0.0067 -0.7091 0.769 -0.068 0.636 60 53 44 0 0
-0.0145 0.0063 -0.7103 0.603 -0.110 0.790 75 65 54 0 0
0.0037 0.0005 -0.7194 0.713 -0.298 0.635 111 97 68 0 0
0.0054 -0.0001 -0.7204 0.703 -0.318 0.636 113 99 73 0 0
0.0187 -0.0046 -0.7346 0.897 -0.257 0.359 106 87 64 0 0
0.0190 -0.0058 -0.7646 0.948 -0.249 0.198 137 118 85 0 0
0.0199 -0.0063 -0.7727 0.951 -0.238 0.197 156 138 95 0 0
0.0198 -0.0064 -0.7750 0.914 -0.264 0.309 157 136 94 0 0
0.0203 -0.0066 -0.7768 0.914 -0.264 0.309 150 131 89 0 0
0.0198 -0.0075 -0.8060 0.750 -0.421 0.511 143 125 86 0 0
0.0200 -0.0076 -0.8081 0.911 -0.343 0.227 130 112 77 0 0
0.0204 -0.0078 -0.8100 0.911 -0.343 0.227 145 129 91 0 0
0.0216 -0.0084 -0.8158 0.986 -0.127 0.104 152 134 92 0 0
0.0206 -0.0087 -0.8324 1.000 0.017 -0.027 162 143 100 0 0
0.0115 -0.0071 -0.8651 0.925 -0.351 -0.146 64 59 51 0 0
0.0340 0.0077 -0.2233 0.918 -0.244 0.313 41 28 19 0 0
0.0345 0.0075 -0.2247 0.918 -0.244 0.313 42 29 19 0 0
0.0348 0.0074 -0.2262 0.823 -0.332 0.460 51 38 27 0 0
0.0371 0.0043 -0.2894 0.957 -0.163 0.239 95 74 45 0 0
-0.0202 0.0195 -0.3417 0.818 0.512 0.263 54 48 41 0 0
-0.0127 0.0158 -0.3825 0.640 0.753 -0.154 62 53 41 0 0
-0.0145 0.0162 -0.3867 0.452 0.856 0.252 65 57 44 0 0
-0.0351 0.0214 -0.4123 0.985 0.097 -0.140 98 89 78 0 0
-0.0360 0.0216 -0.4145 0.999 -0.007 -0.037 91 82 71 0 0
-0.0372 0.0218 -0.4168 0.943 -0.256 -0.213 84 77 62 0 0
-0.0376 0.0219 -0.4188 0.943 -0.256 -0.213 83 72 56 0 0
-0.0401 0.0223 -0.4271 0.968 -0.195 -0.158 41 33 25 0 0
-0.0406 0.0224 -0.4291 0.980 -0.199 0.023 35 26 18 0 0
-0.0407 0.0224 -0.4310 0.966 -0.254 -0.058 40 31 23 0 0
-0.0431 0.0222 -0.4543 0.715 -0.201 0.670 11 10 8 0 0
-0.0405 0.0212 -0.4607 0.888 -0.044 0.458 32 25 20 0 0
-0.0330 0.0185 -0.4725 0.840 -0.120 0.529 54 38 20 0 0
-0.0337 0.0178 -0.4994 0.970 -0.024 0.242 108 94 67 0 0
-0.0337 0.0177 -0.5013 0.984 -0.023 0.179 115 99 73 0 0
-0.0334 0.0176 -0.5031 0.899 -0.422 0.119 104 88 62 0 0
-0.0343 0.0172 -0.5190 0.833 -0.411 0.370 130 114 84 0 0
-0.0376 0.0177 -0.5323 0.922 -0.377 0.094 106 88 59 0 0
-0.0375 0.0176 -0.5343 0.876 -0.475 0.080 129 110 78 0 0
-0.0373 0.0174 -0.5381 0.869 -0.494 -0.010 117 101 68 0 0
-0.0374 0.0174 -0.5401 0.869 -0.494 -0.010 128 112 79 0 0
-0.0380 0.0171 -0.5542 0.989 -0.148 -0.024 120 104 78 0 0
-0.0414 0.0175 -0.5700 0.970 -0.165 0.178 55 48 41 0 0
-0.0428 0.0170 -0.5930 0.979 -0.146 0.146 27 16 8 0 0
-0.0400 0.0155 -0.6140 0.837 -0.172 0.520 69 57 41 0 0
-0.0216 0.0091 -0.6363 0.876 -0.298 0.379 58 48 30 0 0
-0.0183 0.0079 -0.6427 0.812 -0.375 0.447 79 64 41 0 0
-0.0191 0.0077 -0.6556 0.971 0.088 0.220 107 97 79 0 0
-0.0126 0.0055 -0.6620 0.902 -0.154 0.404 81 70 48 0 0
-0.0127 0.0055 -0.6642 0.925 -0.322 -0.201 84 73 53 0 0
-0.0214 0.0067 -0.7016 0.892 -0.444 -0.087 24 19 16 0 0
-0.0163 0.0049 -0.7089 0.708 -0.099 0.699 71 63 54 0 0
-0.0150 0.0045 -0.7102 0.603 -0.110 0.790 78 68 55 0 0
-0.0136 0.0040 -0.7114 0.727 -0.285 0.624 67 55 42 0 0
-0.0117 0.0033 -0.7144 0.406 -0.297 0.864 80 70 58 0 0
0.0187 -0.0076 -0.7644 0.945 -0.298 0.134 149 130 94 0 0
0.0190 -0.0092 -0.8062 0.878 -0.347 0.328 132 115 77 0 0
0.0192 -0.0093 -0.8083 0.909 -0.399 0.123 141 124 90 0 0
0.0195 -0.0095 -0.8103 0.864 -0.497 0.076 145 129 93 0 0
0.0147 -0.0093 -0.8435 0.905 -0.416 0.088 142 126 87 0 0
0.0134 -0.0090 -0.8469 0.986 -0.125 -0.111 137 123 87 0 0
0.0346 0.0059 -0.2230 0.987 -0.036 0.159 41 29 17 0 0
0.0342 0.0059 -0.2262 0.823 -0.332 0.460 46 33 20 0 0
0.0354 0.0055 -0.2274 0.839 -0.388 0.381 66 50 39 0 0
0.0414 0.0031 -0.2443 0.880 -0.447 0.161 49 33 18 0 0
0.0364 0.0036 -0.2705 0.870 -0.493 -0.007 75 47 29 0 0
0.0363 0.0036 -0.2720 0.870 -0.493 -0.007 76 49 28 0 0
0.0363 0.0034 -0.2768 0.853 -0.384 0.353 105 82 51 0 0
0.0368 0.0028 -0.2893 0.959 -0.213 0.189 107 85 58 0 0
0.0370 0.0027 -0.2908 0.959 -0.213 0.189 89 63 37 0 0
-0.0101 0.0132 -0.3831 0.553 0.829 0.083 62 53 38 0 0
-0.0097 0.0131 -0.3847 0.452 0.856 0.252 67 58 44 0 0
-0.0088 0.0128 -0.3861 0.561 0.825 0.071 71 62 48 0 0
-0.0180 0.0153 -0.3913 0.523 0.852 -0.018 59 49 37 0 0
-0.0203 0.0157 -0.3975 0.606 0.372 -0.703 62 52 42 0 0
-0.0407 0.0207 -0.4270 0.975 0.084 -0.206 75 65 56 0 0
-0.0386 0.0186 -0.4672 0.823 -0.245 0.513 45 33 21 0 0
-0.0345 0.0162 -0.4995 0.881 -0.403 0.247 73 59 32 0 0
-0.0384 0.0161 -0.5324 0.913 -0.407 0.039 127 109 80 0 0
-0.0382 0.0153 -0.5520 0.935 -0.165 0.315 120 104 78 0 0
-0.0425 0.0152 -0.5905 0.995 -0.096 0.040 36 26 22 0 0
-0.0428 0.0152 -0.5927 0.971 -0.047 0.233 30 18 11 0 0
-0.0414 0.0146 -0.5960 0.939 -0.114 0.323 89 76 59 0 0
-0.0148 0.0045 -0.6568 0.708 -0.361 0.607 41 29 18 0 0
-0.0125 0.0017 -0.7124 0.475 -0.452 0.755 77 68 52 0 0
0.0183 -0.0109 -0.8062 0.878 -0.347 0.328 155 136 94 0 0
0.0184 -0.0110 -0.8084 0.909 -0.399 0.123 157 138 95 0 0
0.0132 -0.0109 -0.8466 0.986 -0.125 -0.111 125 111 77 0 0
0.0079 -0.0097 -0.8578 0.769 -0.605 0.205 35 32 23 0 0
0.0092 -0.0102 -0.8591 0.707 -0.441 0.553 16 17 16 0 0
0.0090 -0.0103 -0.8638 0.994 -0.048 -0.102 28 25 21 0 0
0.0076 -0.0102 -0.8720 0.918 0.198 -0.343 127 124 121 0 0
0.0336 0.0045 -0.2261 0.823 -0.332 0.460 40 26 13 0 0
0.0408 0.0017 -0.2443 0.873 -0.412 0.260 49 33 18 0 0
0.0366 0.0022 -0.2655 0.960 -0.186 0.209 72 45 26 0 0
0.0356 0.0023 -0.2705 0.870 -0.493 -0.007 72 45 26 0 0
0.0363 0.0020 -0.2719 0.946 -0.325 0.009 77 50 29 0 0
-0.0379 0.0165 -0.4684 0.879 -0.378 0.290 68 56 43 0 0
-0.0352 0.0146 -0.4996 0.881 -0.403 0.247 102 88 60 0 0
-0.0351 0.0142 -0.5072 0.886 -0.399 0.236 89 73 46 0 0
-0.0426 0.0138 -0.5760 0.820 -0.284 0.497 68 56 41 0 0
-0.0435 0.0136 -0.5907 0.901 -0.303 0.311 34 21 15 0 0
-0.0429 0.0133 -0.5924 0.962 -0.058 0.266 36 23 13 0 0
-0.0421 0.0130 -0.5940 0.899 -0.219 0.380 86 73 57 0 0
-0.0417 0.0128 -0.5958 0.936 -0.164 0.313 73 59 42 0 0
-0.0405 0.0123 -0.6013 0.942 -0.154 0.297 83 72 49 0 0
-0.0395 0.0119 -0.6048 0.777 -0.444 0.446 93 80 61 0 0
-0.0159 0.0029 -0.6571 0.843 -0.112 0.526 41 29 19 0 0
-0.0161 0.0025 -0.6676 0.955 -0.298 -0.005 51 40 19 0 0
-0.0154 0.0023 -0.6693 0.980 -0.196 -0.027 94 82 57 0 0
-0.0153 0.0022 -0.6713 0.859 0.082 0.505 175 159 131 0 0
-0.0165 0.0024 -0.6742 0.949 -0.139 0.284 92 79 53 0 0
-0.0160 0.0022 -0.6760 0.838 -0.228 0.495 94 82 59 0 0
-0.0146 0.0017 -0.6772 0.806 -0.275 0.524 88 77 57 0 0
-0.0141 0.0013 -0.6854 0.788 0.020 0.616 51 44 25 0 0
-0.0125 -0.0003 -0.7142 0.352 -0.297 0.887 86 77 60 0 0
0.0076 -0.0067 -0.7262 0.927 -0.181 0.330 79 65 39 0 0
0.0180 -0.0127 -0.8060 0.974 -0.217 0.069 164 146 100 0 0
0.0175 -0.0127 -0.8086 0.914 -0.401 0.058 164 146 100 0 0
0.0077 -0.0117 -0.8575 0.654 -0.725 0.214 34 32 24 0 0
0.0085 -0.0119 -0.8592 0.659 -0.469 0.588 17 17 15 0 0
0.0304 0.0045 -0.2115 0.511 0.224 0.830 162 153 135 0 0
0.0325 0.0038 -0.2126 0.639 0.064 0.766 148 135 113 0 0
0.0338 0.0032 -0.2184 0.886 -0.233 0.401 49 37 23 0 0
-0.0183 0.0139 -0.3387 0.853 0.500 0.149 46 43 39 0 0
-0.0041 0.0082 -0.3787 0.908 0.418 -0.043 62 47 33 0 0
-0.0039 0.0081 -0.3804 0.919 0.374 0.125 74 60 44 0 0
-0.0035 0.0079 -0.3819 0.905 0.300 0.302 89 77 56 0 0
-0.0031 0.0077 -0.3836 0.959 0.213 0.184 94 83 62 0 0
-0.0028 0.0076 -0.3852 0.979 0.165 0.121 89 79 60 0 0
-0.0335 0.0156 -0.4110 0.999 -0.015 -0.034 60 50 41 0 0
-0.0398 0.0169 -0.4262 0.964 0.079 -0.253 63 53 41 0 0
-0.0467 0.0181 -0.4475 0.918 -0.202 0.342 46 42 34 0 0
-0.0403 0.0129 -0.5347 0.883 -0.464 0.075 125 109 82 0 0
-0.0398 0.0127 -0.5364 0.913 -0.407 -0.017 120 105 78 0 0
-0.0407 0.0124 -0.5507 0.894 -0.420 0.159 115 99 74 0 0
-0.0400 0.0119 -0.5563 0.857 -0.471 0.208 105 88 65 0 0
-0.0154 0.0001 -0.6773 0.685 -0.588 0.430 85 74 54 0 0
-0.0154 -0.0000 -0.6795 0.715 -0.653 0.249 37 27 9 0 0
-0.0166 0.0002 -0.6823 0.900 -0.185 0.396 106 98 79 0 0
-0.0175 -0.0006 -0.7107 0.560 -0.378 0.737 99 90 76 0 0
0.0111 -0.0100 -0.7361 0.789 -0.165 0.592 62 47 29 0 0
0.0166 -0.0133 -0.7822 0.844 -0.421 0.332 162 139 97 0 0
0.0171 -0.0136 -0.7840 0.871 -0.299 0.391 156 136 93 0 0
0.0176 -0.0138 -0.7858 0.878 -0.397 0.267 163 144 101 0 0
0.0115 -0.0143 -0.8470 0.854 -0.391 -0.342 129 116 82 0 0
0.0065 -0.0133 -0.8580 0.717 -0.636 0.285 31 29 22 0 0
0.0344 0.0010 -0.2302 0.927 -0.193 0.322 44 28 15 0 0
0.0348 0.0008 -0.2316 0.849 -0.283 0.446 42 26 13 0 0
0.0348 -0.0013 -0.2861 0.852 -0.066 0.520 89 67 39 0 0
0.0350 -0.0014 -0.2877 0.940 -0.129 0.316 84 57 33 0 0
-0.0177 0.0120 -0.3383 0.816 0.573 0.073 38 35 30 0 0
-0.0037 0.0064 -0.3783 0.969 0.241 -0.049 64 47 29 0 0
-0.0032 0.0062 -0.3799 0.919 0.374 0.125 54 37 21 0 0
-0.0029 0.0060 -0.3815 0.949 0.175 0.261 59 44 21 0 0
-0.0028 0.0059 -0.3832 0.982 0.102 0.156 80 68 43 0 0
-0.0026 0.0058 -0.3849 0.979 0.165 0.121 78 66 43 0 0
-0.0196 0.0102 -0.4001 0.642 0.567 -0.516 50 39 30 0 0
-0.0465 0.0161 -0.4490 0.839 -0.073 0.539 38 33 28 0 0
-0.0418 0.0143 -0.4601 0.922 -0.129 0.366 42 33 26 0 0
-0.0355 0.0115 -0.4857 0.878 -0.422 0.226 69 54 35 0 0
-0.0365 0.0112 -0.4996 0.964 -0.206 0.169 86 72 48 0 0
-0.0364 0.0109 -0.5072 0.908 -0.206 0.364 65 53 26 0 0
-0.0410 0.0109 -0.5426 0.991 -0.121 0.052 106 94 71 0 0
-0.0409 0.0108 -0.5445 0.991 -0.121 0.052 99 85 63 0 0
-0.0406 0.0106 -0.5463 0.830 -0.538 0.146 107 92 71 0 0
-0.0441 0.0099 -0.5903 0.853 -0.514 -0.090 64 51 42 0 0
-0.0390 0.0077 -0.6100 0.966 -0.116 0.231 58 44 30 0 0
-0.0172 -0.0004 -0.6550 0.898 0.014 0.440 98 89 72 0 0
-0.0164 -0.0016 -0.6776 0.977 -0.211 0.022 80 69 49 0 0
0.0165 -0.0153 -0.7840 0.871 -0.299 0.391 163 142 99 0 0
0.0159 -0.0166 -0.8224 0.904 -0.400 0.150 163 144 101 0 0
0.0155 -0.0170 -0.8341 0.846 -0.523 -0.100 161 142 99 0 0
0.0128 -0.0165 -0.8431 0.926 -0.228 -0.301 148 134 95 0 0
0.0119 -0.0164 -0.8462 0.926 -0.228 -0.301 127 114 82 0 0
0.0051 -0.0149 -0.8586 0.776 -0.433 0.458 29 28 20 0 0
0.0080 -0.0158 -0.8609 0.438 -0.381 0.815 14 13 11 0 0
0.0191 0.0052 -0.1969 0.948 0.136 -0.287 177 178 178 0 0
0.0187 0.0052 -0.1985 0.967 -0.018 -0.252 177 178 178 0 0
0.0380 -0.0026 -0.2553 0.913 -0.407 -0.006 62 39 21 0 0
0.0327 -0.0013 -0.2613 0.671 -0.031 0.741 70 46 28 0 0
0.0347 -0.0025 -0.2749 0.934 -0.222 0.280 77 50 30 0 0
0.0346 -0.0029 -0.2876 0.949 -0.135 0.284 89 63 36 0 0
0.0350 -0.0031 -0.2891 0.821 -0.233 0.521 85 57 34 0 0
0.0344 -0.0036 -0.3068 0.972 -0.208 0.112 118 101 63 0 0
-0.0135 0.0091 -0.3384 0.984 0.161 0.078 36 31 27 0 0
-0.0053 0.0055 -0.3683 0.917 0.013 0.398 76 60 41 0 0
-0.0052 0.0054 -0.3699 0.899 -0.272 0.344 72 55 34 0 0
-0.0046 0.0052 -0.3715 0.928 -0.235 0.289 71 53 32 0 0
-0.0042 0.0050 -0.3731 0.928 -0.235 0.289 79 61 38 0 0
-0.0033 0.0044 -0.3814 0.965 -0.124 0.231 58 42 19 0 0
-0.0033 0.0043 -0.3832 0.983 -0.175 0.054 79 63 37 0 0
-0.0028 0.0041 -0.3847 0.978 -0.023 0.208 73 57 35 0 0
-0.0035 0.0041 -0.3902 0.971 0.232 0.063 88 76 59 0 0
-0.0471 0.0145 -0.4490 0.995 -0.092 0.026 50 45 39 0 0
-0.0389 0.0111 -0.4737 0.940 -0.210 0.270 72 54 41 0 0
-0.0383 0.0109 -0.4753 0.861 -0.459 0.218 84 67 46 0 0
-0.0380 0.0107 -0.4771 0.861 -0.459 0.218 80 63 42 0 0
-0.0377 0.0106 -0.4789 0.891 -0.365 0.269 76 57 38 0 0
-0.0374 0.0104 -0.4806 0.884 -0.385 0.267 74 56 37 0 0
-0.0420 0.0093 -0.5428 0.848 -0.526 0.061 101 89 69 0 0
-0.0181 -0.0029 -0.6761 0.896 0.121 0.428 75 62 44 0 0
-0.0179 -0.0030 -0.6782 0.995 0.062 0.081 75 64 45 0 0
0.0037 -0.0111 -0.7233 0.832 -0.110 0.543 114 97 69 0 0
0.0048 -0.0115 -0.7247 0.819 -0.187 0.542 105 89 60 0 0
0.0063 -0.0121 -0.7280 0.882 -0.206 0.424 76 65 42 0 0
0.0073 -0.0124 -0.7294 0.934 -0.162 0.318 76 65 42 0 0
0.0081 -0.0127 -0.7310 0.906 -0.080 0.416 73 62 40 0 0
0.0176 -0.0182 -0.8005 0.898 -0.406 0.170 174 156 110 0 0
0.0142 -0.0181 -0.8233 0.951 0.003 0.308 161 142 100 0 0
0.0157 -0.0187 -0.8266 0.904 -0.400 0.150 143 124 81 0 0
0.0159 -0.0189 -0.8310 0.936 -0.199 0.290 159 141 97 0 0
0.0145 -0.0186 -0.8344 0.863 -0.500 -0.064 160 142 98 0 0
0.0081 -0.0178 -0.8603 0.328 -0.208 0.922 14 14 11 0 0
0.0166 0.0044 -0.1942 0.671 0.741 0.010 177 177 176 0 0
0.0196 0.0035 -0.1952 0.923 -0.026 -0.384 177 176 176 0 0
0.0187 0.0037 -0.1969 0.921 0.186 -0.343 173 173 171 0 0
0.0182 0.0038 -0.1985 0.939 -0.028 -0.343 168 168 165 0 0
0.0179 0.0038 -0.2000 0.910 -0.229 -0.347 162 160 156 0 0
0.0177 0.0038 -0.2016 0.971 -0.180 -0.155 159 156 149 0 0
0.0179 0.0037 -0.2031 0.989 -0.141 0.053 150 144 136 0 0
0.0345 -0.0029 -0.2467 0.975 -0.199 0.095 46 30 14 0 0
0.0318 -0.0026 -0.2598 0.844 0.086 0.530 67 45 25 0 0
0.0347 -0.0041 -0.2763 0.940 -0.273 0.205 72 48 24 0 0
0.0339 -0.0043 -0.2876 0.771 -0.495 0.402 101 80 51 0 0
0.0346 -0.0046 -0.2890 0.813 -0.417 0.406 97 74 47 0 0
0.0328 -0.0047 -0.3055 0.841 -0.446 0.307 122 105 71 0 0
0.0332 -0.0049 -0.3070 0.841 -0.446 0.307 119 100 64 0 0
-0.0126 0.0072 -0.3362 0.997 0.072 0.001 36 31 27 0 0
-0.0123 0.0070 -0.3378 0.979 0.191 0.071 34 29 26 0 0
-0.0115 0.0065 -0.3461 0.809 0.436 0.393 59 52 42 0 0
-0.0107 0.0062 -0.3475 0.809 0.436 0.393 63 56 46 0 0
-0.0215 0.0071 -0.4039 0.614 0.597 -0.517 87 75 60 0 0
-0.0387 0.0094 -0.4695 0.788 -0.470 0.397 66 52 39 0 0
-0.0384 0.0090 -0.4789 0.939 -0.279 0.201 86 68 48 0 0
-0.0380 0.0088 -0.4806 0.939 -0.279 0.201 92 75 53 0 0
-0.0377 0.0086 -0.4824 0.925 -0.325 0.198 91 75 53 0 0
-0.0469 0.0078 -0.5689 0.932 -0.252 0.259 54 44 35 0 0
-0.0173 -0.0049 -0.6731 0.994 -0.095 -0.063 91 81 55 0 0
-0.0175 -0.0050 -0.6754 0.884 -0.438 0.164 81 70 49 0 0
0.0034 -0.0129 -0.7231 0.832 -0.110 0.543 115 98 68 0 0
0.0052 -0.0136 -0.7261 0.832 -0.110 0.543 114 100 73 0 0
0.0139 -0.0169 -0.7458 0.946 -0.280 0.165 114 96 70 0 0
0.0137 -0.0177 -0.7677 0.746 -0.445 0.495 156 137 97 0 0
0.0166 -0.0198 -0.7986 0.874 -0.443 0.199 174 157 111 0 0
0.0169 -0.0200 -0.8005 0.899 -0.371 0.233 172 155 109 0 0
0.0173 -0.0201 -0.8024 0.899 -0.383 0.213 163 145 99 0 0
0.0152 -0.0207 -0.8311 0.979 0.105 0.174 159 142 98 0 0
0.0137 -0.0204 -0.8346 0.948 -0.310 -0.071 161 144 100 0 0
0.0191 0.0020 -0.1966 0.921 0.186 -0.343 152 147 139 0 0
0.0305 -0.0029 -0.2368 0.739 -0.458 0.493 45 29 14 0 0
0.0327 -0.0038 -0.2424 0.854 -0.447 0.265 44 28 13 0 0
0.0342 -0.0044 -0.2466 0.975 -0.199 0.095 45 29 13 0 0
0.0340 -0.0044 -0.2482 0.947 -0.089 0.308 48 32 16 0 0
0.0344 -0.0046 -0.2497 0.947 -0.089 0.308 50 32 15 0 0
0.0341 -0.0045 -0.2513 0.929 -0.276 0.245 53 33 16 0 0
0.0320 -0.0043 -0.2596 0.882 0.164 0.441 66 43 25 0 0
-0.0125 0.0055 -0.3360 0.997 0.072 0.001 36 31 28 0 0
-0.0124 0.0054 -0.3377 0.961 0.211 0.179 41 36 33 0 0
-0.0125 0.0053 -0.3394 0.955 0.283 0.095 46 39 35 0 0
-0.0059 0.0029 -0.3526 0.917 0.144 0.372 45 39 29 0 0
-0.0186 0.0045 -0.4025 0.598 0.561 -0.572 74 61 45 0 0
-0.0447 0.0098 -0.4568 0.889 -0.335 0.313 38 30 20 0 0
-0.0384 0.0075 -0.4692 0.848 -0.465 0.253 68 55 42 0 0
-0.0389 0.0073 -0.4788 0.939 -0.279 0.201 61 44 25 0 0
-0.0385 0.0071 -0.4806 0.939 -0.279 0.201 70 53 33 0 0
-0.0383 0.0070 -0.4823 0.925 -0.325 0.198 74 58 35 0 0
-0.0378 0.0067 -0.4840 0.890 -0.405 0.209 85 69 46 0 0
-0.0476 0.0060 -0.5729 0.898 -0.182 0.402 69 60 50 0 0
-0.0441 0.0038 -0.6015 0.823 -0.244 0.513 92 81 60 0 0
-0.0381 0.0017 -0.6105 0.884 -0.372 0.285 80 68 45 0 0
-0.0327 -0.0002 -0.6197 0.712 -0.510 0.483 109 96 77 0 0
-0.0302 -0.0012 -0.6265 0.840 -0.151 0.521 97 85 62 0 0
-0.0233 -0.0040 -0.6451 0.847 -0.377 0.375 89 75 51 0 0
-0.0150 -0.0070 -0.6609 0.768 -0.583 0.267 77 64 46 0 0
0.0069 -0.0162 -0.7310 0.903 -0.158 0.398 82 70 46 0 0
0.0076 -0.0164 -0.7327 0.903 -0.158 0.398 79 66 46 0 0
0.0129 -0.0183 -0.7418 0.946 -0.282 0.160 129 112 80 0 0
0.0132 -0.0185 -0.7437 0.946 -0.282 0.160 102 82 55 0 0
0.0134 -0.0186 -0.7457 0.946 -0.280 0.165 119 101 72 0 0
0.0151 -0.0193 -0.7509 0.915 0.072 0.398 133 116 79 0 0
0.0133 -0.0189 -0.7545 0.947 -0.229 0.227 129 113 80 0 0
0.0152 -0.0198 -0.7618 0.935 -0.313 0.164 155 139 98 0 0
0.0130 -0.0194 -0.7678 0.924 -0.263 0.277 158 139 97 0 0
0.0162 -0.0217 -0.8006 0.920 -0.300 0.252 163 145 99 0 0
0.0166 -0.0219 -0.8025 0.920 -0.300 0.252 157 139 93 0 0
0.0162 -0.0218 -0.8051 0.920 -0.389 0.054 161 143 97 0 0
0.0138 -0.0219 -0.8227 0.990 -0.143 -0.020 136 117 75 0 0
0.0310 -0.0046 -0.2365 0.863 -0.182 0.471 44 28 13 0 0
0.0323 -0.0059 -0.2578 0.975 0.066 0.212 63 40 24 0 0
0.0324 -0.0060 -0.2593 0.935 0.027 0.354 63 40 23 0 0
0.0329 -0.0062 -0.2608 0.935 0.027 0.354 64 41 23 0 0
0.0333 -0.0064 -0.2622 0.900 -0.148 0.411 68 42 25 0 0
-0.0126 0.0038 -0.3358 0.995 0.088 0.037 34 29 25 0 0
-0.0121 0.0036 -0.3373 0.961 0.211 0.179 41 36 33 0 0
-0.0028 -0.0010 -0.3840 0.993 -0.066 0.101 89 73 47 0 0
-0.0016 -0.0015 -0.3870 0.857 -0.109 0.503 44 28 15 0 0
-0.0463 0.0085 -0.4572 0.848 -0.200 0.491 44 37 26 0 0
-0.0421 0.0070 -0.4648 0.900 -0.190 0.393 49 39 31 0 0
-0.0394 0.0056 -0.4787 0.939 -0.279 0.201 62 46 29 0 0
-0.0388 0.0053 -0.4823 0.925 -0.325 0.198 60 43 26 0 0
-0.0385 0.0051 -0.4841 0.925 -0.325 0.198 70 53 34 0 0
-0.0413 0.0048 -0.5122 0.633 -0.729 0.259 91 81 56 0 0
-0.0413 0.0047 -0.5141 0.691 -0.699 0.185 99 89 64 0 0
-0.0453 0.0023 -0.5998 0.932 -0.227 0.282 73 60 39 0 0
-0.0447 0.0021 -0.6015 0.823 -0.244 0.513 92 81 58 0 0
-0.0430 0.0014 -0.6067 0.844 -0.368 0.390 125 112 91 0 0
-0.0423 0.0011 -0.6084 0.844 -0.368 0.390 123 111 89 0 0
-0.0240 -0.0057 -0.6452 0.847 -0.377 0.375 81 69 45 0 0
-0.0190 -0.0073 -0.6505 0.876 -0.259 0.407 21 12 4 0 0
-0.0183 -0.0076 -0.6521 0.912 -0.056 0.407 91 83 68 0 0
-0.0175 -0.0079 -0.6537 0.946 -0.027 0.324 158 145 120 0 0
-0.0169 -0.0081 -0.6554 0.946 -0.027 0.324 114 101 82 0 0
-0.0192 -0.0083 -0.6757 0.875 -0.468 0.121 91 80 55 0 0
-0.0228 -0.0082 -0.6992 0.938 -0.314 -0.150 24 20 17 0 0
-0.0125 -0.0118 -0.7138 0.381 -0.228 0.896 100 89 71 0 0
0.0000 -0.0156 -0.7182 0.953 -0.172 0.249 231 218 184 0 0
0.0006 -0.0158 -0.7200 0.929 -0.096 0.357 212 199 166 0 0
0.0012 -0.0160 -0.7217 0.929 -0.096 0.357 184 170 135 0 0
0.0028 -0.0166 -0.7249 0.849 -0.281 0.448 138 122 92 0 0
0.0102 -0.0198 -0.7498 0.963 -0.233 0.137 107 91 60 0 0
0.0106 -0.0200 -0.7517 0.944 -0.218 0.246 117 95 62 0 0
0.0113 -0.0202 -0.7533 0.888 -0.311 0.339 134 114 74 0 0
0.0128 -0.0207 -0.7544 0.947 -0.229 0.227 143 125 89 0 0
0.0155 -0.0231 -0.7940 0.949 -0.313 0.037 164 145 102 0 0
0.0132 -0.0235 -0.8204 0.940 -0.229 0.254 163 144 100 0 0
0.0130 -0.0236 -0.8228 0.964 -0.257 0.073 149 130 88 0 0
0.0171 0.0000 -0.1817 0.750 -0.575 0.328 160 158 151 0 0
0.0282 -0.0034 -0.1886 0.991 0.068 0.111 102 91 75 0 0
0.0284 -0.0035 -0.1901 0.991 0.068 0.111 93 82 64 0 0
0.0262 -0.0030 -0.1935 0.932 0.045 -0.359 104 94 72 0 0
0.0291 -0.0048 -0.2154 0.944 -0.122 0.307 45 31 22 0 0
0.0332 -0.0070 -0.2404 0.874 -0.458 0.163 45 29 16 0 0
0.0316 -0.0072 -0.2563 0.919 -0.394 0.036 68 46 30 0 0
0.0312 -0.0072 -0.2579 0.904 -0.286 0.318 63 40 24 0 0
0.0317 -0.0074 -0.2593 0.904 -0.286 0.318 61 38 22 0 0
0.0324 -0.0076 -0.2607 0.900 -0.148 0.411 64 41 23 0 0
0.0336 -0.0081 -0.2635 0.900 -0.148 0.411 69 43 26 0 0
-0.0118 0.0018 -0.3370 0.961 0.211 0.179 28 25 20 0 0
-0.0020 -0.0031 -0.3870 0.784 -0.327 0.527 47 30 15 0 0
-0.0017 -0.0032 -0.3886 0.857 -0.440 0.268 53 35 21 0 0
-0.0420 0.0064 -0.4329 0.900 -0.424 0.102 95 84 66 0 0
-0.0445 0.0033 -0.5251 0.804 -0.581 0.126 93 80 62 0 0
-0.0482 0.0037 -0.5406 0.996 -0.032 -0.083 56 43 32 0 0
-0.0457 0.0010 -0.5895 0.938 -0.330 0.105 54 42 29 0 0
-0.0454 0.0005 -0.5995 0.954 -0.016 0.299 79 64 46 0 0
-0.0447 0.0001 -0.6032 0.944 -0.075 0.323 69 54 33 0 0
-0.0439 -0.0002 -0.6048 0.909 -0.208 0.362 63 52 31 0 0
-0.0433 -0.0004 -0.6065 0.909 -0.208 0.362 127 116 97 0 0
-0.0426 -0.0007 -0.6082 0.909 -0.208 0.362 120 108 90 0 0
-0.0376 -0.0026 -0.6197 0.807 0.169 0.565 129 114 87 0 0
-0.0206 -0.0089 -0.6531 0.641 -0.337 0.690 85 78 62 0 0
0.0028 -0.0185 -0.7244 0.887 -0.204 0.415 154 141 108 0 0
