ply
format ascii 1.0
element vertex 830
property float x
property float y
property float z
property float nx
property float ny
property float nz
property uchar diffuse_red
property uchar diffuse_green
property uchar diffuse_blue
property uchar class
property uchar detection
end_header
-0.0392 -0.1492 -0.5883 0.855 -0.514 0.071 175 160 119 0 0
-0.0383 -0.1501 -0.5914 0.879 -0.440 0.183 168 153 115 0 0
-0.0397 -0.1504 -0.6037 0.755 -0.563 0.338 161 145 107 0 0
-0.0393 -0.1508 -0.6053 0.755 -0.563 0.338 167 151 110 0 0
-0.0426 -0.1531 -0.6499 0.658 -0.595 0.462 159 139 95 0 0
-0.0651 -0.1586 -0.8483 0.397 -0.784 0.477 154 139 100 0 0
-0.0439 -0.1162 -0.2590 -0.303 -0.409 0.861 175 172 169 0 0
-0.0207 -0.1315 -0.2706 0.909 -0.319 0.267 61 43 25 0 0
-0.0201 -0.1320 -0.2719 0.931 -0.365 -0.016 61 42 25 0 0
-0.0201 -0.1321 -0.2735 0.931 -0.365 -0.016 60 40 24 0 0
-0.0234 -0.1309 -0.2822 0.899 0.078 -0.430 176 176 178 0 0
-0.0231 -0.1360 -0.3322 0.942 -0.333 -0.030 91 72 40 0 0
-0.0977 -0.0975 -0.4037 0.729 -0.604 0.323 37 28 18 0 0
-0.0984 -0.0973 -0.4058 0.771 -0.628 0.105 42 32 22 0 0
-0.0996 -0.0967 -0.4081 0.527 -0.850 -0.015 51 40 25 0 0
-0.1053 -0.0979 -0.4556 0.988 -0.126 0.087 67 59 45 0 0
-0.1043 -0.0986 -0.4570 0.877 -0.473 -0.084 81 73 59 0 0
-0.1049 -0.0985 -0.4591 0.793 -0.549 -0.262 73 67 52 0 0
-0.1052 -0.0985 -0.4611 0.725 -0.580 -0.372 78 73 58 0 0
-0.1093 -0.0971 -0.4723 0.518 -0.826 -0.224 84 76 68 0 0
-0.1102 -0.0968 -0.4745 0.610 -0.785 -0.113 82 74 64 0 0
-0.1112 -0.0968 -0.4806 0.676 -0.731 0.092 40 33 23 0 0
-0.1106 -0.0976 -0.4859 0.757 -0.567 0.324 70 60 48 0 0
-0.1102 -0.0980 -0.4876 0.757 -0.567 0.324 52 42 29 0 0
-0.1093 -0.0987 -0.4890 0.911 -0.350 0.217 81 71 56 0 0
-0.1116 -0.1006 -0.5222 0.524 -0.799 0.293 40 33 23 0 0
-0.0348 -0.1476 -0.5241 0.790 -0.609 0.071 139 120 83 0 0
-0.0356 -0.1484 -0.5372 0.902 -0.422 0.092 143 126 86 0 0
-0.0365 -0.1495 -0.5543 0.882 -0.457 0.117 140 121 84 0 0
-0.0405 -0.1526 -0.6111 0.927 -0.310 0.211 162 146 103 0 0
-0.0414 -0.1525 -0.6155 0.807 -0.583 0.090 167 152 105 0 0
-0.0413 -0.1530 -0.6192 0.718 -0.664 0.209 150 133 88 0 0
-0.0403 -0.1539 -0.6224 0.523 -0.764 0.378 145 126 84 0 0
-0.0432 -0.1534 -0.6359 0.519 -0.728 0.448 163 145 97 0 0
-0.0437 -0.1544 -0.6499 0.658 -0.595 0.462 155 133 89 0 0
-0.0840 -0.1465 -0.8199 0.628 -0.677 0.385 115 103 73 0 0
-0.0199 -0.1374 -0.3086 0.834 -0.551 0.025 89 70 40 0 0
-0.0975 -0.0995 -0.4032 0.921 -0.294 0.254 42 30 17 0 0
-0.0995 -0.0987 -0.4075 0.878 -0.478 0.019 52 36 19 0 0
-0.1111 -0.0981 -0.4725 0.518 -0.826 -0.224 88 80 67 0 0
-0.1123 -0.0976 -0.4750 0.721 -0.683 -0.120 81 74 59 0 0
-0.1128 -0.0978 -0.4808 0.674 -0.731 0.112 34 27 16 0 0
-0.1128 -0.0980 -0.4826 0.761 -0.643 0.087 41 34 23 0 0
-0.1117 -0.0988 -0.4840 0.830 -0.501 0.245 49 40 29 0 0
-0.1117 -0.0990 -0.4858 0.731 -0.584 0.353 47 37 25 0 0
-0.1117 -0.0992 -0.4877 0.696 -0.657 0.290 54 43 28 0 0
-0.1127 -0.1007 -0.5089 0.676 -0.737 0.014 63 56 38 0 0
-0.0359 -0.1496 -0.5313 0.810 -0.574 0.118 141 122 86 0 0
-0.0360 -0.1499 -0.5350 0.788 -0.614 0.047 159 145 102 0 0
-0.0363 -0.1499 -0.5370 0.902 -0.422 0.092 142 128 89 0 0
-0.0411 -0.1542 -0.6107 0.927 -0.310 0.211 142 127 85 0 0
-0.0424 -0.1539 -0.6154 0.807 -0.583 0.090 166 150 104 0 0
-0.0425 -0.1540 -0.6174 0.798 -0.594 0.104 172 155 110 0 0
-0.0424 -0.1545 -0.6211 0.779 -0.577 0.245 161 144 101 0 0
-0.0421 -0.1550 -0.6247 0.773 -0.628 0.096 170 151 109 0 0
-0.0929 -0.1426 -0.8133 0.099 -0.592 0.800 131 117 89 0 0
-0.0265 -0.1392 -0.3486 0.910 -0.414 0.021 122 105 67 0 0
-0.1145 -0.0987 -0.4792 0.621 -0.772 -0.138 75 67 51 0 0
-0.1148 -0.0987 -0.4812 0.677 -0.736 -0.028 69 61 46 0 0
-0.1143 -0.0992 -0.4828 0.675 -0.737 0.047 64 56 39 0 0
-0.1139 -0.0996 -0.4845 0.601 -0.782 0.166 55 45 31 0 0
-0.1128 -0.1004 -0.4858 0.731 -0.584 0.353 50 39 24 0 0
-0.1130 -0.1005 -0.4877 0.673 -0.541 0.504 58 46 28 0 0
-0.1126 -0.1009 -0.4894 0.739 -0.581 0.340 86 74 54 0 0
-0.0368 -0.1503 -0.5240 0.785 -0.618 0.039 138 121 81 0 0
-0.0367 -0.1512 -0.5330 0.810 -0.574 0.118 157 136 94 0 0
-0.0418 -0.1519 -0.5709 0.967 -0.251 0.032 162 142 100 0 0
-0.0423 -0.1518 -0.5731 0.929 -0.370 -0.027 158 137 96 0 0
-0.0434 -0.1540 -0.6020 0.699 -0.620 0.357 162 148 104 0 0
-0.0432 -0.1563 -0.6247 0.773 -0.628 0.096 164 145 103 0 0
-0.0447 -0.1592 -0.6626 0.831 -0.310 0.461 159 141 98 0 0
-0.0440 -0.1597 -0.6641 0.831 -0.310 0.461 159 141 100 0 0
-0.0819 -0.1539 -0.8380 -0.131 -0.953 0.273 141 128 94 0 0
-0.0601 -0.1698 -0.8647 -0.162 -0.434 0.886 183 183 184 0 0
-0.0672 -0.1664 -0.8735 0.412 -0.389 0.824 190 190 192 0 0
-0.0225 -0.1354 -0.2686 0.817 -0.512 0.264 66 48 28 0 0
-0.0229 -0.1357 -0.2733 0.776 -0.619 0.123 63 45 29 0 0
-0.0241 -0.1377 -0.3015 0.873 -0.209 0.440 65 42 21 0 0
-0.0217 -0.1399 -0.3084 0.806 -0.589 0.066 80 57 29 0 0
-0.0205 -0.1412 -0.3142 0.899 -0.409 0.155 95 73 46 0 0
-0.0247 -0.1409 -0.3363 0.809 -0.397 0.433 92 71 42 0 0
-0.0246 -0.1411 -0.3379 0.831 -0.391 0.395 98 77 49 0 0
-0.1103 -0.1010 -0.4563 0.061 -0.991 0.122 116 108 89 0 0
-0.1145 -0.0998 -0.4693 0.147 -0.954 -0.260 92 83 67 0 0
-0.1144 -0.1013 -0.4841 0.687 -0.670 0.282 63 51 35 0 0
-0.1139 -0.1018 -0.4857 0.782 -0.544 0.302 61 49 32 0 0
-0.1141 -0.1018 -0.4877 0.673 -0.541 0.504 69 56 37 0 0
-0.1150 -0.1027 -0.5013 0.701 -0.681 0.211 71 58 39 0 0
-0.1143 -0.1038 -0.5085 0.830 -0.519 0.204 77 66 45 0 0
-0.1147 -0.1038 -0.5106 0.863 -0.381 0.333 72 60 41 0 0
-0.1142 -0.1042 -0.5122 0.806 -0.537 0.247 72 59 40 0 0
-0.0378 -0.1516 -0.5239 0.790 -0.609 0.071 127 108 65 0 0
-0.0377 -0.1529 -0.5365 0.747 -0.640 0.178 122 105 71 0 0
-0.0378 -0.1530 -0.5384 0.796 -0.601 0.064 139 118 83 0 0
-0.0370 -0.1540 -0.5434 0.872 -0.435 0.223 121 104 60 0 0
-0.0422 -0.1536 -0.5705 0.967 -0.251 0.032 155 134 91 0 0
-0.0429 -0.1534 -0.5728 0.929 -0.370 -0.027 143 124 92 0 0
-0.0432 -0.1534 -0.5748 0.903 -0.427 -0.046 97 87 67 0 0
-0.0443 -0.1552 -0.5999 0.889 -0.416 0.192 164 149 106 0 0
-0.0452 -0.1611 -0.6641 0.912 -0.384 0.144 163 147 101 0 0
-0.0943 -0.1472 -0.8234 0.125 -0.890 0.438 125 112 86 0 0
-0.0940 -0.1475 -0.8253 0.473 -0.847 0.242 120 106 80 0 0
-0.0926 -0.1485 -0.8264 0.841 -0.424 0.335 125 111 82 0 0
-0.0849 -0.1549 -0.8440 -0.066 -0.889 0.453 138 125 92 0 0
-0.0222 -0.1383 -0.2773 0.845 -0.525 0.104 76 59 39 0 0
-0.0225 -0.1383 -0.2789 0.843 -0.532 0.081 76 60 38 0 0
-0.1111 -0.1022 -0.4524 -0.006 -0.999 -0.049 102 93 75 0 0
-0.1176 -0.0996 -0.4665 -0.009 -0.994 -0.113 95 87 70 0 0
-0.1215 -0.0980 -0.4739 0.052 -0.995 -0.081 100 89 72 0 0
-0.1232 -0.0973 -0.4766 0.129 -0.989 0.067 108 97 78 0 0
-0.1150 -0.1041 -0.4950 0.399 -0.694 0.599 79 66 47 0 0
-0.1152 -0.1041 -0.4970 0.878 -0.477 -0.037 65 52 33 0 0
-0.1154 -0.1043 -0.4990 0.878 -0.477 -0.037 65 52 33 0 0
-0.1152 -0.1047 -0.5026 0.928 -0.372 0.022 63 50 31 0 0
-0.1138 -0.1062 -0.5095 0.816 -0.194 0.544 70 58 36 0 0
-0.0390 -0.1539 -0.5348 0.747 -0.640 0.178 149 132 94 0 0
-0.0391 -0.1540 -0.5367 0.814 -0.559 0.154 125 106 72 0 0
-0.0386 -0.1544 -0.5382 0.747 -0.640 0.178 144 124 83 0 0
-0.0377 -0.1557 -0.5449 0.950 -0.304 0.069 132 114 75 0 0
-0.0388 -0.1558 -0.5529 0.917 -0.390 0.083 131 111 78 0 0
-0.0447 -0.1543 -0.5732 0.481 -0.810 -0.335 116 101 78 0 0
-0.0458 -0.1539 -0.5758 0.481 -0.810 -0.335 91 85 75 0 0
-0.0453 -0.1593 -0.6265 0.836 -0.548 0.017 158 140 94 0 0
-0.0221 -0.1392 -0.2678 0.697 -0.661 0.279 55 39 24 0 0
-0.0218 -0.1395 -0.2692 0.697 -0.661 0.279 56 39 22 0 0
-0.0235 -0.1391 -0.2758 0.694 -0.634 0.341 61 42 25 0 0
-0.0232 -0.1395 -0.2772 0.745 -0.620 0.247 71 52 34 0 0
-0.0241 -0.1428 -0.3163 0.530 -0.642 0.555 89 68 39 0 0
-0.0275 -0.1431 -0.3397 0.766 -0.542 0.346 91 67 36 0 0
-0.0271 -0.1435 -0.3412 0.766 -0.542 0.346 102 83 50 0 0
-0.0302 -0.1437 -0.3617 0.878 -0.478 -0.011 109 95 65 0 0
-0.0296 -0.1442 -0.3631 0.927 -0.361 -0.103 115 102 75 0 0
-0.1250 -0.0981 -0.4750 0.052 -0.995 -0.081 102 90 72 0 0
-0.1258 -0.0979 -0.4773 0.098 -0.987 0.127 118 106 83 0 0
-0.1170 -0.1050 -0.4954 0.224 -0.692 0.686 77 64 45 0 0
-0.1159 -0.1058 -0.4968 0.558 -0.727 0.401 63 50 31 0 0
-0.1165 -0.1056 -0.4989 0.809 -0.587 -0.019 72 59 40 0 0
-0.1171 -0.1055 -0.5011 0.802 -0.346 0.487 74 61 42 0 0
-0.0398 -0.1553 -0.5346 0.859 -0.477 0.185 152 136 93 0 0
-0.0398 -0.1555 -0.5364 0.828 -0.553 0.097 115 96 59 0 0
-0.0386 -0.1569 -0.5430 0.828 -0.510 0.233 124 104 65 0 0
-0.0383 -0.1573 -0.5446 0.875 -0.459 0.157 115 96 59 0 0
-0.0397 -0.1572 -0.5528 0.919 -0.389 0.064 100 81 43 0 0
-0.0449 -0.1555 -0.5671 0.704 -0.643 0.301 126 103 62 0 0
-0.0447 -0.1558 -0.5688 0.771 -0.561 0.302 116 94 55 0 0
-0.0463 -0.1551 -0.5716 0.703 -0.574 -0.420 134 116 85 0 0
-0.0475 -0.1547 -0.5743 0.703 -0.574 -0.420 101 87 68 0 0
-0.0487 -0.1542 -0.5769 0.703 -0.574 -0.420 93 84 72 0 0
-0.0434 -0.1591 -0.5941 0.612 -0.605 0.510 115 96 65 0 0
-0.0438 -0.1591 -0.5962 0.736 -0.651 0.187 143 125 88 0 0
-0.0464 -0.1615 -0.6362 0.842 -0.235 0.485 163 145 98 0 0
-0.0460 -0.1630 -0.6474 0.787 -0.610 0.096 173 155 106 0 0
-0.0479 -0.1627 -0.6566 0.917 -0.400 0.000 171 153 104 0 0
-0.1098 -0.1420 -0.8211 0.498 -0.768 0.403 147 132 98 0 0
-0.1030 -0.1464 -0.8243 -0.013 -0.816 0.578 117 103 76 0 0
-0.1018 -0.1473 -0.8255 -0.013 -0.816 0.578 115 100 77 0 0
-0.0723 -0.1698 -0.8727 0.028 -0.322 0.946 190 190 193 0 0
-0.0708 -0.1708 -0.8735 -0.089 -0.633 0.769 195 195 197 0 0
-0.0246 -0.1402 -0.2758 0.656 -0.689 0.308 60 41 24 0 0
-0.0249 -0.1402 -0.2774 0.547 -0.771 0.325 64 43 27 0 0
-0.0241 -0.1408 -0.2787 0.697 -0.643 0.317 66 44 25 0 0
-0.0236 -0.1458 -0.3252 0.674 -0.584 0.452 81 58 27 0 0
-0.1120 -0.1014 -0.4103 0.177 -0.674 0.717 104 95 76 0 0
-0.1115 -0.1019 -0.4118 0.282 -0.853 0.438 107 100 85 0 0
-0.1274 -0.0982 -0.4700 0.357 -0.665 -0.657 92 83 64 0 0
-0.1285 -0.0980 -0.4742 -0.140 -0.985 0.098 121 107 88 0 0
-0.0405 -0.1572 -0.5380 0.930 -0.316 0.186 126 106 66 0 0
-0.0404 -0.1587 -0.5525 0.920 -0.386 0.066 114 96 55 0 0
-0.0457 -0.1572 -0.5687 0.704 -0.643 0.301 109 87 51 0 0
-0.0470 -0.1566 -0.5714 0.422 -0.852 -0.311 104 87 63 0 0
-0.0481 -0.1563 -0.5739 0.422 -0.852 -0.311 100 89 75 0 0
-0.0447 -0.1619 -0.6093 0.929 -0.351 0.117 152 133 90 0 0
-0.0466 -0.1636 -0.6374 0.930 -0.319 0.182 157 139 93 0 0
-0.0483 -0.1635 -0.6463 0.914 -0.356 0.194 148 130 83 0 0
-0.0482 -0.1637 -0.6482 0.882 -0.219 0.417 167 149 103 0 0
-0.0476 -0.1642 -0.6498 0.882 -0.219 0.417 166 148 102 0 0
-0.0470 -0.1647 -0.6513 0.781 -0.490 0.387 174 157 110 0 0
-0.1341 -0.1275 -0.7999 -0.152 -0.887 0.436 83 71 51 0 0
-0.1118 -0.1431 -0.8217 0.215 -0.947 0.239 149 134 103 0 0
-0.1057 -0.1472 -0.8255 -0.198 -0.851 0.487 118 103 78 0 0
-0.1044 -0.1481 -0.8266 -0.214 -0.866 0.452 118 103 77 0 0
-0.0999 -0.1515 -0.8339 0.022 -0.919 0.393 141 127 98 0 0
-0.0758 -0.1701 -0.8748 -0.013 -0.574 0.819 193 193 194 0 0
-0.0721 -0.1722 -0.8736 -0.072 -0.711 0.700 196 196 197 0 0
-0.0243 -0.1415 -0.2693 0.344 -0.681 0.646 52 39 23 0 0
-0.0237 -0.1420 -0.2706 0.553 -0.669 0.497 45 28 16 0 0
-0.0253 -0.1423 -0.2833 0.875 -0.473 0.104 74 53 29 0 0
-0.0258 -0.1432 -0.2943 0.880 -0.446 0.160 69 48 25 0 0
-0.0252 -0.1443 -0.3018 0.713 -0.682 0.163 71 46 24 0 0
-0.0248 -0.1447 -0.3033 0.796 -0.514 0.320 75 50 27 0 0
-0.0250 -0.1458 -0.3158 0.711 -0.647 0.276 80 60 31 0 0
-0.0236 -0.1468 -0.3169 0.748 -0.659 0.079 84 65 35 0 0
-0.0247 -0.1469 -0.3252 0.792 -0.450 0.413 80 56 26 0 0
-0.0262 -0.1471 -0.3352 0.769 -0.407 0.493 95 74 45 0 0
-0.0257 -0.1475 -0.3366 0.725 -0.410 0.553 94 71 42 0 0
-0.0308 -0.1465 -0.3562 0.876 -0.434 0.210 106 83 51 0 0
-0.0300 -0.1471 -0.3575 0.908 -0.397 0.135 111 88 55 0 0
-0.1141 -0.1022 -0.4106 0.138 -0.691 0.710 149 144 132 0 0
-0.1328 -0.0980 -0.4794 0.037 -0.876 0.480 148 133 100 0 0
-0.1294 -0.1006 -0.4854 0.054 -0.913 0.405 165 151 126 0 0
-0.1289 -0.1011 -0.4870 0.046 -0.887 0.459 110 97 75 0 0
-0.1272 -0.1026 -0.4918 0.122 -0.743 0.659 70 58 33 0 0
-0.0389 -0.1559 -0.4970 0.664 -0.737 0.127 129 110 71 0 0
-0.0418 -0.1582 -0.5363 0.806 -0.414 0.424 118 98 63 0 0
-0.0414 -0.1586 -0.5379 0.857 -0.458 0.236 94 76 42 0 0
-0.0417 -0.1586 -0.5399 0.882 -0.460 0.101 117 99 64 0 0
-0.0460 -0.1621 -0.6000 0.873 -0.357 0.332 172 154 109 0 0
-0.0457 -0.1627 -0.6036 0.923 -0.379 0.068 135 117 74 0 0
-0.0452 -0.1634 -0.6070 0.872 -0.441 0.212 158 140 93 0 0
-0.0488 -0.1650 -0.6439 0.945 -0.284 0.165 158 139 99 0 0
-0.0495 -0.1653 -0.6522 0.979 -0.203 -0.017 175 158 109 0 0
-0.1352 -0.1296 -0.8043 -0.141 -0.914 0.381 96 83 58 0 0
-0.1096 -0.1473 -0.8278 -0.292 -0.869 0.399 143 127 97 0 0
-0.0472 -0.1292 -0.2650 0.063 -0.585 0.809 177 175 170 0 0
-0.0260 -0.1437 -0.2832 0.875 -0.473 0.104 70 46 24 0 0
-0.0254 -0.1441 -0.2846 0.905 -0.258 0.339 71 47 25 0 0
-0.0265 -0.1446 -0.2957 0.797 -0.402 0.451 79 56 32 0 0
-0.0264 -0.1452 -0.3003 0.768 -0.619 0.164 68 41 20 0 0
-0.0262 -0.1454 -0.3018 0.555 -0.682 0.476 73 47 25 0 0
-0.0249 -0.1463 -0.3029 0.941 -0.324 0.102 74 50 26 0 0
-0.0248 -0.1466 -0.3044 0.941 -0.324 0.102 79 55 31 0 0
-0.0252 -0.1465 -0.3061 0.911 -0.405 0.073 86 62 38 0 0
-0.0262 -0.1469 -0.3159 0.765 -0.417 0.492 81 56 30 0 0
-0.0252 -0.1476 -0.3171 0.853 -0.482 0.200 82 59 30 0 0
-0.0271 -0.1482 -0.3335 0.619 -0.576 0.533 85 62 32 0 0
-0.0313 -0.1491 -0.3673 0.747 -0.654 0.118 86 66 34 0 0
-0.1322 -0.1011 -0.4861 -0.006 -0.880 0.474 122 108 82 0 0
-0.1311 -0.1019 -0.4875 0.023 -0.831 0.556 131 117 92 0 0
-0.1305 -0.1026 -0.4909 0.179 -0.780 0.600 72 60 36 0 0
-0.0404 -0.1570 -0.4972 0.876 -0.475 0.085 125 106 66 0 0
-0.0459 -0.1635 -0.5935 0.842 -0.489 0.228 122 106 74 0 0
-0.0458 -0.1638 -0.5953 0.813 -0.515 0.271 122 104 71 0 0
-0.0460 -0.1646 -0.6049 0.862 -0.507 0.029 157 138 94 0 0
-0.0461 -0.1648 -0.6069 0.862 -0.507 0.029 162 145 101 0 0
-0.0502 -0.1657 -0.6403 0.854 -0.520 -0.029 166 152 101 0 0
-0.0505 -0.1660 -0.6443 0.854 -0.520 -0.029 159 137 95 0 0
-0.1534 -0.1205 -0.7997 -0.256 -0.706 0.660 105 92 62 0 0
-0.1368 -0.1312 -0.8067 0.100 -0.930 0.354 140 125 97 0 0
-0.1355 -0.1320 -0.8079 0.091 -0.892 0.444 146 131 99 0 0
-0.1346 -0.1327 -0.8095 0.091 -0.892 0.444 135 120 87 0 0
-0.1330 -0.1338 -0.8104 -0.073 -0.809 0.583 133 118 87 0 0
-0.1293 -0.1363 -0.8141 -0.109 -0.924 0.367 141 127 97 0 0
-0.1103 -0.1497 -0.8339 -0.163 -0.936 0.312 133 120 86 0 0
-0.0877 -0.1673 -0.8745 -0.202 -0.805 0.558 186 184 187 0 0
-0.0815 -0.1714 -0.8777 -0.077 -0.913 0.401 195 195 195 0 0
-0.0472 -0.1311 -0.2662 0.144 -0.568 0.810 175 174 169 0 0
-0.0252 -0.1448 -0.2719 0.535 -0.638 0.554 54 38 24 0 0
-0.0255 -0.1447 -0.2735 0.940 -0.282 0.190 52 34 20 0 0
-0.0255 -0.1449 -0.2750 0.932 -0.195 0.304 62 43 26 0 0
-0.0267 -0.1445 -0.2785 0.710 -0.353 0.609 64 41 23 0 0
-0.0261 -0.1453 -0.2829 0.895 -0.296 0.333 59 37 18 0 0
-0.0264 -0.1453 -0.2845 0.794 -0.603 0.080 67 45 26 0 0
-0.0261 -0.1458 -0.2875 0.947 -0.205 0.246 62 38 20 0 0
-0.0255 -0.1479 -0.3043 0.976 -0.216 -0.038 74 50 26 0 0
-0.0257 -0.1481 -0.3075 0.769 -0.638 0.051 74 50 26 0 0
-0.0253 -0.1485 -0.3089 0.619 -0.776 0.122 73 49 25 0 0
-0.0265 -0.1496 -0.3266 0.751 -0.639 0.166 81 55 27 0 0
-0.0280 -0.1489 -0.3287 0.916 -0.395 0.078 82 59 29 0 0
-0.0318 -0.1506 -0.3671 0.934 -0.356 -0.010 103 85 50 0 0
-0.1329 -0.1031 -0.4896 0.328 -0.700 0.635 122 108 84 0 0
-0.0411 -0.1584 -0.4970 0.902 -0.422 0.095 137 117 82 0 0
-0.0411 -0.1586 -0.4988 0.902 -0.422 0.095 127 107 74 0 0
-0.0410 -0.1588 -0.5005 0.876 -0.475 0.085 133 114 78 0 0
-0.0477 -0.1670 -0.6186 0.818 -0.573 -0.054 165 148 97 0 0
-0.0531 -0.1669 -0.6492 0.557 -0.830 -0.020 150 131 98 0 0
-0.1549 -0.1222 -0.8021 -0.215 -0.848 0.485 105 89 63 0 0
-0.1376 -0.1334 -0.8108 0.087 -0.847 0.525 155 139 106 0 0
-0.1365 -0.1341 -0.8122 0.072 -0.808 0.585 152 137 104 0 0
-0.1356 -0.1348 -0.8137 0.112 -0.837 0.536 147 132 100 0 0
-0.1345 -0.1356 -0.8151 0.135 -0.822 0.553 145 130 99 0 0
-0.1344 -0.1359 -0.8172 0.134 -0.915 0.380 143 129 99 0 0
-0.0844 -0.1720 -0.8793 -0.099 -0.902 0.419 196 196 196 0 0
-0.0282 -0.1454 -0.2786 0.785 -0.538 0.306 63 40 22 0 0
-0.0277 -0.1482 -0.3031 0.614 -0.678 0.405 85 61 35 0 0
-0.0261 -0.1495 -0.3057 0.959 -0.247 0.142 74 50 26 0 0
-0.0253 -0.1502 -0.3085 0.838 -0.201 0.508 75 52 27 0 0
-0.0277 -0.1507 -0.3266 0.517 -0.802 0.300 79 55 28 0 0
-0.0281 -0.1506 -0.3284 0.706 -0.624 0.336 80 56 30 0 0
-0.0275 -0.1511 -0.3297 0.524 -0.685 0.507 83 59 32 0 0
-0.0272 -0.1514 -0.3312 0.810 -0.480 0.336 81 57 30 0 0
-0.0266 -0.1519 -0.3325 0.753 -0.635 0.171 87 64 34 0 0
-0.0342 -0.1505 -0.3627 0.661 -0.684 0.309 104 83 51 0 0
-0.0332 -0.1514 -0.3656 0.739 -0.516 0.434 136 121 80 0 0
-0.0326 -0.1520 -0.3669 0.829 -0.500 0.249 126 109 76 0 0
-0.0303 -0.1537 -0.3709 0.429 -0.787 0.443 119 99 62 0 0
-0.1393 -0.1011 -0.4865 0.113 -0.811 0.574 144 130 94 0 0
-0.1326 -0.1055 -0.4908 0.066 -0.534 0.843 119 103 78 0 0
-0.1307 -0.1067 -0.4917 0.122 -0.677 0.726 143 127 103 0 0
-0.0421 -0.1597 -0.4969 0.823 -0.560 0.095 127 107 73 0 0
-0.0421 -0.1599 -0.4987 0.823 -0.560 0.095 128 108 72 0 0
-0.0420 -0.1602 -0.5004 0.823 -0.560 0.095 129 109 73 0 0
-0.0414 -0.1607 -0.5019 0.714 -0.354 0.604 118 96 64 0 0
-0.0417 -0.1620 -0.5163 0.958 -0.278 0.063 137 117 77 0 0
-0.0443 -0.1645 -0.5558 0.784 -0.585 0.206 76 60 39 0 0
-0.0518 -0.1636 -0.5902 0.534 0.172 0.828 39 32 23 0 0
-0.1373 -0.1375 -0.8275 0.500 -0.846 0.187 157 142 112 0 0
-0.1363 -0.1382 -0.8290 0.163 -0.965 0.207 154 140 109 0 0
-0.0258 -0.1482 -0.2744 0.773 -0.416 0.478 44 26 13 0 0
-0.0289 -0.1467 -0.2785 0.657 -0.604 0.452 57 35 17 0 0
-0.0260 -0.1490 -0.2837 0.515 -0.724 0.460 65 43 21 0 0
-0.0286 -0.1489 -0.2968 0.834 -0.533 0.143 73 49 26 0 0
-0.0274 -0.1505 -0.3057 0.875 -0.447 0.187 78 54 30 0 0
-0.0284 -0.1522 -0.3280 0.292 -0.667 0.685 71 47 26 0 0
-0.0284 -0.1525 -0.3312 0.606 -0.749 0.270 78 54 27 0 0
-0.0321 -0.1521 -0.3486 0.905 -0.348 0.244 102 81 50 0 0
-0.0316 -0.1527 -0.3516 0.879 -0.393 0.269 140 124 82 0 0
-0.0314 -0.1530 -0.3531 0.898 -0.375 0.231 132 116 81 0 0
-0.0302 -0.1542 -0.3575 0.655 -0.532 0.536 94 75 43 0 0
-0.0337 -0.1529 -0.3653 0.806 -0.511 0.300 128 111 73 0 0
-0.0334 -0.1533 -0.3668 0.829 -0.500 0.249 129 111 78 0 0
-0.1370 -0.1045 -0.4867 0.349 0.103 0.931 127 111 80 0 0
-0.1274 -0.1111 -0.4951 0.450 -0.892 -0.049 80 68 48 0 0
-0.0403 -0.1614 -0.4848 0.755 -0.645 0.116 118 102 63 0 0
-0.0403 -0.1616 -0.4866 0.854 -0.476 0.209 115 99 63 0 0
-0.0425 -0.1617 -0.5001 0.810 -0.468 0.353 113 94 57 0 0
-0.0420 -0.1622 -0.5016 0.815 -0.500 0.292 140 118 85 0 0
-0.0417 -0.1625 -0.5032 0.815 -0.500 0.292 109 88 52 0 0
-0.0487 -0.1689 -0.6044 0.908 -0.418 0.011 145 124 80 0 0
-0.1391 -0.1387 -0.8280 0.500 -0.846 0.187 157 143 109 0 0
-0.1388 -0.1391 -0.8299 0.266 -0.954 0.140 157 143 111 0 0
-0.1261 -0.1485 -0.8487 0.082 -0.995 0.053 137 125 95 0 0
-0.1263 -0.1487 -0.8511 0.082 -0.995 0.053 135 125 94 0 0
-0.1249 -0.1496 -0.8522 0.011 -0.984 0.176 140 130 97 0 0
-0.1260 -0.1493 -0.8554 -0.069 -0.900 0.430 144 133 101 0 0
-0.1062 -0.1632 -0.8766 -0.263 -0.847 0.462 179 179 181 0 0
-0.0965 -0.1687 -0.8747 -0.067 -0.726 0.685 187 187 189 0 0
-0.0459 -0.1377 -0.2710 -0.152 -0.494 0.856 146 139 125 0 0
-0.0262 -0.1498 -0.2757 0.842 -0.458 0.286 41 25 9 0 0
-0.0300 -0.1479 -0.2784 0.785 -0.538 0.306 55 36 18 0 0
-0.0294 -0.1483 -0.2798 0.657 -0.604 0.452 62 41 21 0 0
-0.0293 -0.1502 -0.2967 0.863 -0.498 0.085 72 47 26 0 0
-0.0321 -0.1539 -0.3481 0.791 -0.586 0.175 98 77 46 0 0
-0.0320 -0.1541 -0.3497 0.791 -0.586 0.175 109 89 56 0 0
-0.0317 -0.1544 -0.3512 0.735 -0.645 0.207 137 120 78 0 0
-0.0316 -0.1546 -0.3527 0.824 -0.561 0.077 139 124 84 0 0
-0.0321 -0.1549 -0.3577 0.865 -0.500 -0.041 91 70 39 0 0
-0.0338 -0.1546 -0.3649 0.859 -0.496 0.127 121 102 64 0 0
-0.0366 -0.1533 -0.3677 0.717 -0.578 0.390 131 112 77 0 0
-0.0413 -0.1627 -0.4848 0.895 -0.413 0.169 108 93 54 0 0
-0.0412 -0.1632 -0.4882 0.722 -0.692 0.008 119 101 65 0 0
-0.0427 -0.1633 -0.4978 0.866 -0.493 0.083 133 113 78 0 0
-0.0434 -0.1633 -0.5017 0.668 -0.586 0.458 131 111 76 0 0
-0.0426 -0.1639 -0.5031 0.725 -0.646 0.239 128 109 70 0 0
-0.0425 -0.1650 -0.5137 0.875 -0.473 0.101 124 104 69 0 0
-0.0424 -0.1653 -0.5154 0.875 -0.473 0.101 127 107 71 0 0
-0.0427 -0.1653 -0.5174 0.905 -0.426 -0.009 141 122 82 0 0
-0.0480 -0.1642 -0.5366 0.552 -0.609 -0.569 97 82 62 0 0
-0.0505 -0.1631 -0.5399 0.487 -0.729 -0.481 84 74 64 0 0
-0.0461 -0.1682 -0.5648 0.717 -0.695 -0.052 113 99 77 0 0
-0.1410 -0.1399 -0.8285 0.500 -0.846 0.187 146 133 103 0 0
-0.1411 -0.1401 -0.8308 0.364 -0.889 0.276 145 131 103 0 0
-0.1294 -0.1488 -0.8481 -0.120 -0.966 0.230 141 126 96 0 0
-0.1290 -0.1492 -0.8501 -0.068 -0.986 0.150 134 121 92 0 0
-0.1298 -0.1491 -0.8530 0.082 -0.995 0.053 131 119 92 0 0
-0.1229 -0.1547 -0.8675 -0.242 -0.964 0.114 127 124 117 0 0
-0.1110 -0.1625 -0.8752 -0.301 -0.822 0.483 177 177 179 0 0
-0.1094 -0.1635 -0.8761 -0.268 -0.837 0.478 180 180 182 0 0
-0.1034 -0.1674 -0.8797 -0.067 -0.952 0.299 189 189 191 0 0
-0.1027 -0.1680 -0.8814 -0.106 -0.959 0.263 191 191 192 0 0
-0.0554 -0.1339 -0.2704 -0.201 -0.487 0.850 177 179 179 0 0
-0.0451 -0.1401 -0.2720 -0.157 -0.496 0.854 153 145 133 0 0
-0.0275 -0.1508 -0.2758 0.689 -0.628 0.363 66 52 35 0 0
-0.0328 -0.1554 -0.3496 0.857 -0.406 0.317 107 86 54 0 0
-0.0324 -0.1558 -0.3510 0.857 -0.406 0.317 128 109 70 0 0
-0.0322 -0.1566 -0.3573 0.796 -0.532 0.287 86 63 33 0 0
-0.0343 -0.1570 -0.3728 0.670 -0.675 0.308 113 95 57 0 0
-0.0331 -0.1578 -0.3739 0.559 -0.700 0.445 123 107 69 0 0
-0.0509 -0.1554 -0.4508 -0.045 -0.428 0.902 91 78 56 0 0
-0.0424 -0.1609 -0.4552 0.982 -0.167 -0.084 82 73 52 0 0
-0.0432 -0.1669 -0.5171 0.914 -0.406 0.028 136 118 78 0 0
-0.0449 -0.1673 -0.5306 0.966 -0.259 0.023 119 104 67 0 0
-0.0474 -0.1664 -0.5357 0.665 -0.427 -0.613 95 82 65 0 0
-0.0559 -0.1625 -0.5461 0.884 -0.402 0.238 78 71 61 0 0
-0.0573 -0.1619 -0.5488 0.961 0.038 0.274 82 74 65 0 0
-0.0581 -0.1617 -0.5511 0.816 0.023 0.578 65 58 50 0 0
-0.0583 -0.1618 -0.5530 0.834 -0.306 0.460 66 63 54 0 0
-0.0465 -0.1697 -0.5625 0.597 -0.700 0.392 94 79 54 0 0
-0.0465 -0.1699 -0.5643 0.714 -0.695 0.084 115 99 77 0 0
-0.1448 -0.1404 -0.8328 0.257 -0.964 0.062 142 130 101 0 0
-0.1126 -0.1642 -0.8800 -0.233 -0.743 0.627 185 185 187 0 0
-0.1079 -0.1675 -0.8849 -0.099 -0.744 0.660 192 192 192 0 0
-0.1056 -0.1691 -0.8874 -0.197 -0.939 0.283 194 194 194 0 0
-0.1045 -0.1699 -0.8886 -0.236 -0.902 0.362 195 195 195 0 0
-0.0311 -0.1510 -0.2812 0.689 -0.618 0.378 52 31 13 0 0
-0.0308 -0.1514 -0.2826 0.686 -0.617 0.385 58 36 15 0 0
-0.0326 -0.1559 -0.3363 0.696 -0.679 0.233 82 58 30 0 0
-0.0319 -0.1565 -0.3376 0.714 -0.602 0.357 89 65 37 0 0
-0.0321 -0.1567 -0.3409 0.809 -0.339 0.481 92 69 38 0 0
-0.0345 -0.1566 -0.3530 0.802 -0.479 0.357 127 110 75 0 0
-0.0341 -0.1570 -0.3545 0.728 -0.495 0.474 110 88 60 0 0
-0.0331 -0.1579 -0.3573 0.796 -0.532 0.287 89 66 37 0 0
-0.0330 -0.1581 -0.3588 0.759 -0.544 0.358 98 75 43 0 0
-0.0328 -0.1599 -0.3750 0.647 -0.547 0.531 121 101 66 0 0
-0.0322 -0.1604 -0.3763 0.647 -0.547 0.531 118 100 61 0 0
-0.0526 -0.1558 -0.4459 0.974 -0.060 -0.218 74 59 40 0 0
-0.0530 -0.1558 -0.4478 0.969 -0.222 0.107 68 56 34 0 0
-0.0529 -0.1560 -0.4495 0.534 -0.336 0.776 65 53 30 0 0
-0.0520 -0.1567 -0.4508 0.495 -0.379 0.782 80 68 43 0 0
-0.0504 -0.1577 -0.4517 0.671 -0.009 0.741 77 65 40 0 0
-0.0425 -0.1648 -0.4755 0.848 -0.444 0.287 127 109 71 0 0
-0.0428 -0.1659 -0.4879 0.891 -0.452 0.056 117 98 65 0 0
-0.0428 -0.1661 -0.4896 0.891 -0.452 0.056 126 106 73 0 0
-0.0480 -0.1708 -0.5627 0.787 -0.596 0.162 118 103 75 0 0
-0.0479 -0.1711 -0.5645 0.787 -0.596 0.162 112 98 71 0 0
-0.0512 -0.1723 -0.5945 0.816 -0.566 -0.119 139 120 82 0 0
-0.0518 -0.1722 -0.5967 0.964 -0.237 0.123 136 117 76 0 0
-0.1211 -0.1610 -0.8751 -0.235 -0.918 0.321 175 173 176 0 0
-0.1227 -0.1604 -0.8788 -0.203 -0.951 0.235 176 176 178 0 0
-0.1221 -0.1610 -0.8805 -0.203 -0.951 0.235 179 179 181 0 0
0.0710 -0.2732 -0.8725 0.946 0.066 -0.317 214 214 214 0 0
-0.0542 -0.1383 -0.2725 -0.176 -0.589 0.789 177 177 178 0 0
-0.0323 -0.1583 -0.3405 0.704 -0.619 0.349 90 69 40 0 0
-0.0352 -0.1580 -0.3528 0.756 -0.423 0.500 98 77 47 0 0
-0.0346 -0.1585 -0.3542 0.756 -0.423 0.500 103 83 53 0 0
-0.0340 -0.1590 -0.3556 0.756 -0.423 0.500 90 68 40 0 0
-0.0343 -0.1591 -0.3589 0.944 -0.296 0.144 100 77 45 0 0
-0.0353 -0.1600 -0.3723 0.811 -0.485 0.327 102 81 50 0 0
-0.0350 -0.1603 -0.3738 0.712 -0.583 0.391 105 84 52 0 0
-0.0433 -0.1660 -0.4736 0.795 -0.574 0.198 124 104 70 0 0
-0.0431 -0.1663 -0.4752 0.772 -0.547 0.324 124 104 70 0 0
-0.0433 -0.1681 -0.4928 0.952 -0.293 0.089 134 114 78 0 0
-0.0447 -0.1677 -0.4971 0.922 -0.354 0.156 132 112 74 0 0
-0.0444 -0.1681 -0.4987 0.727 -0.461 0.509 128 108 72 0 0
-0.0454 -0.1689 -0.5117 0.906 -0.416 0.073 94 78 55 0 0
-0.0460 -0.1699 -0.5245 0.858 -0.270 0.436 146 128 86 0 0
-0.0493 -0.1720 -0.5629 0.849 -0.458 0.264 119 106 72 0 0
-0.0491 -0.1723 -0.5645 0.885 -0.465 0.032 127 111 71 0 0
-0.1260 -0.1609 -0.8806 -0.211 -0.952 0.220 181 179 182 0 0
-0.0581 -0.1379 -0.2733 -0.198 -0.623 0.757 177 178 181 0 0
-0.0323 -0.1603 -0.3417 0.725 -0.576 0.378 96 73 42 0 0
-0.0357 -0.1595 -0.3526 0.820 -0.459 0.344 94 75 41 0 0
-0.0353 -0.1598 -0.3540 0.820 -0.459 0.344 123 104 69 0 0
-0.0349 -0.1602 -0.3555 0.820 -0.459 0.344 124 105 73 0 0
-0.0345 -0.1606 -0.3570 0.820 -0.459 0.344 83 63 33 0 0
-0.0348 -0.1606 -0.3587 0.944 -0.296 0.144 86 65 36 0 0
-0.0354 -0.1620 -0.3751 0.808 -0.420 0.414 115 96 61 0 0
-0.0349 -0.1624 -0.3766 0.808 -0.420 0.414 119 101 66 0 0
-0.0441 -0.1669 -0.4682 0.786 -0.616 -0.051 114 90 59 0 0
-0.0439 -0.1673 -0.4716 0.794 -0.607 0.034 109 89 57 0 0
-0.0441 -0.1676 -0.4751 0.772 -0.547 0.324 118 98 65 0 0
-0.0442 -0.1692 -0.4909 0.783 -0.621 0.032 130 111 70 0 0
-0.0440 -0.1695 -0.4926 0.762 -0.591 0.265 135 115 77 0 0
-0.0432 -0.1701 -0.4939 0.674 -0.720 0.169 124 104 69 0 0
-0.0463 -0.1693 -0.5027 0.833 -0.445 0.329 123 105 69 0 0
-0.0462 -0.1695 -0.5044 0.741 -0.671 -0.036 122 105 67 0 0
-0.0472 -0.1699 -0.5138 0.525 -0.831 0.184 40 29 17 0 0
-0.0484 -0.1702 -0.5235 0.745 -0.595 0.302 79 60 32 0 0
-0.0476 -0.1709 -0.5248 0.556 -0.504 0.661 102 83 48 0 0
-0.0496 -0.1737 -0.5624 0.844 -0.534 0.046 131 116 78 0 0
-0.0497 -0.1739 -0.5642 0.844 -0.534 0.046 141 124 77 0 0
0.0722 -0.2764 -0.8609 0.837 -0.489 0.245 213 213 213 0 0
0.0757 -0.2785 -0.8611 0.827 -0.538 0.160 211 211 211 0 0
-0.0618 -0.1377 -0.2740 -0.214 -0.716 0.665 177 178 181 0 0
-0.0585 -0.1397 -0.2746 -0.193 -0.619 0.761 176 179 182 0 0
-0.0327 -0.1618 -0.3414 0.637 -0.668 0.384 84 58 31 0 0
-0.0358 -0.1615 -0.3554 0.866 -0.458 0.200 152 137 98 0 0
-0.0350 -0.1657 -0.3908 0.688 -0.550 0.474 128 106 66 0 0
-0.0448 -0.1683 -0.4680 0.868 -0.495 -0.029 113 92 59 0 0
-0.0449 -0.1684 -0.4698 0.816 -0.578 -0.030 132 114 76 0 0
-0.0449 -0.1686 -0.4715 0.794 -0.607 0.034 149 131 91 0 0
-0.0448 -0.1691 -0.4749 0.781 -0.513 0.355 142 125 87 0 0
-0.0443 -0.1699 -0.4799 0.883 -0.453 0.125 110 90 55 0 0
-0.0450 -0.1708 -0.4925 0.762 -0.591 0.265 127 107 69 0 0
-0.0442 -0.1722 -0.5009 0.813 -0.579 -0.058 107 88 56 0 0
-0.0505 -0.1751 -0.5622 0.844 -0.534 0.046 133 117 78 0 0
-0.0506 -0.1753 -0.5641 0.844 -0.534 0.046 145 128 80 0 0
0.0714 -0.2778 -0.8606 0.954 -0.221 0.201 214 214 214 0 0
0.0748 -0.2796 -0.8590 0.699 -0.713 -0.045 214 214 214 0 0
0.0748 -0.2798 -0.8610 0.794 -0.608 0.012 209 209 209 0 0
-0.0335 -0.1568 -0.2836 0.938 -0.343 -0.059 57 43 27 0 0
-0.0343 -0.1625 -0.3400 0.816 -0.400 0.417 80 54 30 0 0
-0.0338 -0.1629 -0.3414 0.637 -0.668 0.384 77 50 26 0 0
-0.0362 -0.1632 -0.3568 0.848 -0.476 0.231 130 115 81 0 0
-0.0361 -0.1636 -0.3599 0.903 -0.410 0.130 83 58 30 0 0
-0.0356 -0.1661 -0.3808 0.843 -0.532 0.077 101 81 49 0 0
-0.0361 -0.1662 -0.3843 0.818 -0.576 0.007 109 87 54 0 0
-0.0369 -0.1660 -0.3863 0.768 -0.640 0.001 113 91 56 0 0
-0.0457 -0.1696 -0.4679 0.816 -0.578 -0.030 118 97 64 0 0
-0.0459 -0.1698 -0.4697 0.816 -0.578 -0.030 130 110 71 0 0
-0.0462 -0.1700 -0.4733 0.783 -0.472 0.405 137 121 77 0 0
-0.0457 -0.1704 -0.4748 0.783 -0.472 0.405 135 118 76 0 0
-0.0452 -0.1709 -0.4763 0.831 -0.440 0.340 120 101 61 0 0
-0.0453 -0.1710 -0.4781 0.888 -0.439 0.135 124 104 66 0 0
-0.0452 -0.1713 -0.4798 0.872 -0.470 0.138 124 104 68 0 0
-0.0451 -0.1722 -0.4885 0.872 -0.475 0.121 122 102 68 0 0
-0.0621 -0.1749 -0.6042 0.647 -0.755 0.106 158 151 136 0 0
0.0709 -0.2793 -0.8601 0.931 -0.258 0.259 214 214 214 0 0
0.0734 -0.2807 -0.8593 0.733 -0.652 0.197 214 214 214 0 0
0.0734 -0.2809 -0.8613 0.696 -0.709 0.109 213 213 213 0 0
-0.0637 -0.1405 -0.2770 -0.215 -0.583 0.783 177 178 180 0 0
-0.0604 -0.1425 -0.2776 -0.215 -0.583 0.783 177 178 180 0 0
-0.0329 -0.1589 -0.2830 0.351 -0.572 0.741 94 82 66 0 0
-0.0318 -0.1597 -0.2842 0.351 -0.572 0.741 75 60 45 0 0
-0.0348 -0.1599 -0.3021 0.769 -0.381 0.513 81 58 29 0 0
-0.0577 -0.1496 -0.3290 -0.126 -0.564 0.816 91 87 75 0 0
-0.0349 -0.1637 -0.3383 0.801 -0.460 0.382 108 90 60 0 0
-0.0351 -0.1638 -0.3399 0.852 -0.338 0.399 89 65 37 0 0
-0.0346 -0.1642 -0.3413 0.841 -0.458 0.289 77 49 23 0 0
-0.0372 -0.1642 -0.3551 0.848 -0.476 0.231 92 70 42 0 0
-0.0370 -0.1645 -0.3566 0.848 -0.476 0.231 102 83 53 0 0
-0.0387 -0.1666 -0.3849 0.685 -0.290 0.668 120 97 64 0 0
-0.0379 -0.1672 -0.3862 0.745 -0.388 0.543 119 96 62 0 0
-0.0372 -0.1677 -0.3876 0.761 -0.629 0.158 102 79 45 0 0
-0.0438 -0.1710 -0.4526 0.907 -0.413 -0.086 133 109 75 0 0
-0.0467 -0.1710 -0.4678 0.816 -0.578 -0.030 111 89 57 0 0
-0.0464 -0.1716 -0.4729 0.887 -0.413 0.206 118 99 58 0 0
-0.0465 -0.1718 -0.4747 0.841 -0.394 0.370 116 97 57 0 0
-0.0461 -0.1722 -0.4762 0.841 -0.394 0.370 115 95 57 0 0
-0.0456 -0.1726 -0.4777 0.841 -0.394 0.370 116 97 59 0 0
-0.0451 -0.1731 -0.4792 0.841 -0.394 0.370 115 94 57 0 0
-0.0448 -0.1734 -0.4808 0.899 -0.406 0.165 120 98 61 0 0
-0.0634 -0.1763 -0.6062 0.620 -0.782 -0.060 214 216 212 0 0
-0.0335 -0.1605 -0.2844 0.112 -0.597 0.794 103 92 72 0 0
-0.0355 -0.1595 -0.2865 0.795 -0.474 0.378 60 45 26 0 0
-0.0352 -0.1602 -0.2911 0.795 -0.339 0.504 66 40 21 0 0
-0.0343 -0.1608 -0.2923 0.792 -0.582 0.185 71 45 25 0 0
-0.0340 -0.1612 -0.2937 0.733 -0.673 0.102 71 46 26 0 0
-0.0346 -0.1619 -0.3032 0.787 -0.331 0.521 82 58 33 0 0
-0.0339 -0.1624 -0.3046 0.812 -0.482 0.328 88 65 37 0 0
-0.0415 -0.1611 -0.3324 0.303 -0.543 0.783 57 49 38 0 0
-0.0357 -0.1650 -0.3382 0.673 -0.648 0.356 120 104 68 0 0
-0.0358 -0.1651 -0.3398 0.777 -0.389 0.495 102 84 51 0 0
-0.0353 -0.1656 -0.3412 0.809 -0.378 0.450 83 58 30 0 0
-0.0379 -0.1693 -0.3890 0.868 -0.495 0.044 107 84 52 0 0
-0.0378 -0.1706 -0.4005 0.478 -0.694 0.538 142 125 83 0 0
-0.0379 -0.1709 -0.4039 0.284 -0.950 0.131 114 95 60 0 0
-0.0446 -0.1709 -0.4388 0.610 -0.583 0.537 130 110 76 0 0
-0.0440 -0.1713 -0.4402 0.702 -0.625 0.341 140 122 84 0 0
-0.0433 -0.1719 -0.4416 0.721 -0.543 0.431 110 91 54 0 0
-0.0430 -0.1723 -0.4431 0.737 -0.579 0.347 119 98 62 0 0
-0.0471 -0.1744 -0.4849 0.856 -0.470 0.213 128 109 71 0 0
-0.0455 -0.1755 -0.4858 0.748 -0.626 0.219 127 109 71 0 0
-0.0548 -0.1741 -0.5228 0.188 -0.782 0.594 46 40 31 0 0
-0.0612 -0.1458 -0.2803 -0.187 -0.574 0.797 177 178 182 0 0
-0.0578 -0.1479 -0.2808 -0.164 -0.563 0.810 176 177 177 0 0
-0.0525 -0.1511 -0.2823 -0.165 -0.542 0.824 161 156 147 0 0
-0.0359 -0.1612 -0.2879 0.911 -0.376 0.168 61 48 28 0 0
-0.0360 -0.1613 -0.2894 0.894 -0.435 0.110 51 33 14 0 0
-0.0357 -0.1616 -0.2909 0.883 -0.424 0.201 61 37 19 0 0
-0.0352 -0.1631 -0.3015 0.750 -0.580 0.319 75 51 25 0 0
-0.0353 -0.1632 -0.3031 0.732 -0.516 0.445 80 57 32 0 0
-0.0348 -0.1636 -0.3045 0.732 -0.516 0.445 91 68 40 0 0
-0.0342 -0.1643 -0.3074 0.841 -0.493 0.224 116 106 91 0 0
-0.0582 -0.1523 -0.3236 0.801 0.255 -0.542 171 171 173 0 0
-0.0608 -0.1514 -0.3293 0.186 -0.239 0.953 103 98 91 0 0
-0.0362 -0.1667 -0.3395 0.672 -0.468 0.574 103 89 54 0 0
-0.0382 -0.1673 -0.3562 0.700 -0.615 0.362 85 59 32 0 0
-0.0342 -0.1704 -0.3627 0.856 -0.490 0.164 93 71 40 0 0
-0.0388 -0.1688 -0.3726 0.873 -0.115 0.474 109 88 55 0 0
-0.0410 -0.1696 -0.3915 0.933 -0.355 -0.054 111 88 55 0 0
-0.0401 -0.1708 -0.3977 0.585 -0.604 0.541 131 111 71 0 0
-0.0417 -0.1725 -0.4217 0.759 -0.649 0.047 128 108 73 0 0
-0.0433 -0.1741 -0.4444 0.904 -0.411 0.120 113 94 54 0 0
-0.0468 -0.1762 -0.4824 0.785 -0.607 0.124 130 110 73 0 0
-0.0510 -0.1793 -0.5326 -0.063 -0.946 0.318 141 127 96 0 0
-0.0506 -0.1817 -0.5522 0.695 -0.666 0.270 86 72 51 0 0
-0.0503 -0.1824 -0.5575 0.789 -0.605 -0.109 121 103 62 0 0
-0.0610 -0.1811 -0.6013 0.662 0.357 0.659 215 216 218 0 0
-0.0583 -0.1495 -0.2821 -0.143 -0.532 0.835 175 177 177 0 0
-0.0365 -0.1626 -0.2877 0.591 -0.732 0.340 80 69 50 0 0
-0.0359 -0.1634 -0.2921 0.774 -0.587 0.239 59 38 20 0 0
-0.0360 -0.1642 -0.2999 0.901 -0.380 0.210 72 50 26 0 0
-0.0358 -0.1645 -0.3013 0.901 -0.380 0.210 73 51 25 0 0
-0.0361 -0.1645 -0.3030 0.847 -0.429 0.315 78 55 31 0 0
-0.0357 -0.1649 -0.3044 0.851 -0.415 0.322 88 64 38 0 0
-0.0352 -0.1658 -0.3105 0.877 -0.463 -0.131 170 171 171 0 0
-0.0560 -0.1554 -0.3240 0.600 0.086 -0.795 171 171 173 0 0
-0.0612 -0.1528 -0.3275 0.589 0.054 -0.806 156 156 156 0 0
-0.0353 -0.1711 -0.3595 0.824 -0.541 0.171 92 69 38 0 0
-0.0401 -0.1708 -0.3808 0.727 -0.653 0.214 103 80 48 0 0
-0.0409 -0.1709 -0.3861 0.769 -0.588 0.252 116 93 59 0 0
-0.0404 -0.1715 -0.3892 0.823 -0.559 -0.104 111 89 55 0 0
-0.0432 -0.1735 -0.4219 0.778 -0.604 0.174 128 109 73 0 0
-0.0430 -0.1738 -0.4235 0.778 -0.604 0.174 131 112 75 0 0
-0.0431 -0.1745 -0.4303 0.737 -0.652 0.179 121 103 67 0 0
-0.0445 -0.1756 -0.4479 0.760 -0.640 0.118 109 89 54 0 0
-0.0499 -0.1764 -0.4834 0.829 -0.559 0.006 127 109 70 0 0
-0.0548 -0.1782 -0.5251 0.157 -0.447 0.880 45 41 30 0 0
-0.0561 -0.1799 -0.5476 0.753 -0.519 0.405 42 36 22 0 0
-0.0560 -0.1802 -0.5493 0.846 -0.203 0.493 40 36 25 0 0
-0.0519 -0.1829 -0.5523 0.838 -0.508 0.202 82 68 40 0 0
-0.0366 -0.1656 -0.2997 0.759 -0.566 0.322 67 45 21 0 0
-0.0364 -0.1659 -0.3012 0.736 -0.663 0.135 68 46 22 0 0
-0.0367 -0.1659 -0.3028 0.838 -0.465 0.286 71 48 25 0 0
-0.0367 -0.1660 -0.3044 0.812 -0.486 0.323 86 62 36 0 0
-0.0588 -0.1557 -0.3246 0.662 0.193 -0.725 170 170 171 0 0
-0.0628 -0.1537 -0.3276 0.852 0.414 0.321 163 163 163 0 0
-0.0626 -0.1540 -0.3292 0.711 0.484 0.510 130 127 121 0 0
-0.0503 -0.1613 -0.3311 0.402 0.182 0.897 65 61 55 0 0
-0.0382 -0.1691 -0.3394 0.760 -0.313 0.569 83 63 33 0 0
-0.0363 -0.1721 -0.3578 0.854 -0.464 0.237 99 75 45 0 0
-0.0385 -0.1721 -0.3683 0.662 -0.734 0.154 98 75 43 0 0
-0.0416 -0.1733 -0.3958 0.899 -0.437 -0.022 110 87 53 0 0
-0.0441 -0.1750 -0.4235 0.808 -0.457 0.371 134 115 78 0 0
-0.0435 -0.1754 -0.4249 0.826 -0.563 0.029 127 108 70 0 0
-0.0461 -0.1760 -0.4430 0.855 -0.382 0.351 146 126 87 0 0
-0.0457 -0.1764 -0.4445 0.855 -0.382 0.351 111 89 52 0 0
-0.0476 -0.1771 -0.4609 0.840 -0.541 0.025 113 93 56 0 0
-0.0513 -0.1777 -0.4853 0.854 -0.519 -0.018 122 99 65 0 0
-0.0509 -0.1781 -0.4869 0.891 -0.381 0.248 129 106 70 0 0
-0.0505 -0.1785 -0.4884 0.868 -0.419 0.267 125 103 65 0 0
-0.0583 -0.1780 -0.5247 0.434 -0.312 0.845 44 40 30 0 0
-0.0567 -0.1791 -0.5255 0.495 -0.192 0.848 59 54 44 0 0
-0.0552 -0.1800 -0.5265 0.157 -0.443 0.883 61 51 40 0 0
-0.0621 -0.1824 -0.5837 0.990 -0.133 -0.047 216 216 214 0 0
-0.0622 -0.1826 -0.5857 0.990 -0.133 -0.047 216 216 216 0 0
-0.0375 -0.1673 -0.3043 0.857 -0.444 0.261 80 56 30 0 0
-0.0364 -0.1681 -0.3054 0.740 -0.658 0.138 85 63 39 0 0
-0.0503 -0.1630 -0.3308 0.479 0.197 0.856 72 69 63 0 0
-0.0396 -0.1698 -0.3380 0.729 -0.291 0.620 75 51 24 0 0
-0.0389 -0.1704 -0.3393 0.760 -0.313 0.569 80 58 29 0 0
-0.0424 -0.1747 -0.3956 0.851 -0.520 0.075 114 91 59 0 0
-0.0423 -0.1749 -0.3973 0.851 -0.520 0.075 106 83 50 0 0
-0.0427 -0.1749 -0.3990 0.792 -0.430 0.433 115 93 59 0 0
-0.0454 -0.1752 -0.4152 0.862 -0.505 0.047 131 115 77 0 0
-0.0485 -0.1785 -0.4607 0.840 -0.541 0.025 122 102 65 0 0
-0.0491 -0.1785 -0.4645 0.905 -0.410 0.116 122 103 68 0 0
-0.0515 -0.1798 -0.4884 0.936 -0.285 0.206 115 93 55 0 0
-0.0785 -0.1685 -0.5244 -0.262 -0.255 0.931 100 96 86 0 0
-0.0584 -0.1798 -0.5241 0.440 -0.085 0.894 46 42 32 0 0
-0.0562 -0.1811 -0.5246 0.618 -0.408 0.672 62 57 43 0 0
-0.0552 -0.1819 -0.5258 0.567 -0.379 0.731 83 74 55 0 0
-0.0377 -0.1691 -0.3055 0.854 -0.489 0.175 77 55 31 0 0
-0.0408 -0.1709 -0.3380 0.578 -0.487 0.655 81 55 29 0 0
-0.0396 -0.1718 -0.3391 0.760 -0.313 0.569 88 66 37 0 0
-0.0446 -0.1779 -0.4194 0.772 -0.622 0.131 109 86 55 0 0
-0.0447 -0.1780 -0.4211 0.796 -0.595 0.112 139 119 82 0 0
-0.0473 -0.1807 -0.4579 0.850 -0.404 0.339 114 94 58 0 0
-0.0477 -0.1807 -0.4598 0.895 -0.197 0.401 110 89 53 0 0
-0.0484 -0.1807 -0.4636 0.850 -0.518 -0.091 133 114 75 0 0
-0.0512 -0.1821 -0.4911 0.907 -0.420 0.018 125 103 65 0 0
-0.0597 -0.1810 -0.5241 0.271 -0.309 0.912 52 45 35 0 0
-0.0561 -0.1830 -0.5239 0.386 -0.752 0.534 58 52 36 0 0
-0.0534 -0.1854 -0.5314 0.650 -0.759 0.034 131 112 72 0 0
-0.0387 -0.1699 -0.3023 0.760 -0.597 0.258 84 62 37 0 0
-0.0387 -0.1706 -0.3086 0.759 -0.651 -0.015 104 90 68 0 0
-0.0417 -0.1736 -0.3506 0.843 -0.340 0.417 92 68 36 0 0
-0.0420 -0.1760 -0.3733 0.793 -0.591 0.146 97 74 42 0 0
-0.0464 -0.1804 -0.4348 0.932 -0.283 0.227 136 116 81 0 0
-0.0487 -0.1813 -0.4546 0.896 -0.312 0.315 120 100 62 0 0
-0.0478 -0.1820 -0.4559 0.895 -0.169 0.413 127 109 69 0 0
-0.0472 -0.1825 -0.4573 0.842 -0.095 0.532 138 118 78 0 0
-0.0492 -0.1820 -0.4634 0.850 -0.518 -0.091 124 105 64 0 0
-0.0662 -0.1545 -0.2875 -0.078 -0.498 0.864 177 178 180 0 0
-0.0391 -0.1716 -0.3037 0.674 -0.679 0.291 75 54 30 0 0
-0.0390 -0.1718 -0.3052 0.759 -0.578 0.300 74 53 29 0 0
-0.0496 -0.1684 -0.3277 0.636 0.487 0.599 75 69 57 0 0
-0.0435 -0.1726 -0.3350 0.907 -0.293 0.303 70 43 20 0 0
-0.0425 -0.1786 -0.3828 0.792 -0.583 0.182 108 88 52 0 0
-0.0489 -0.1830 -0.4542 0.960 -0.187 0.207 129 107 69 0 0
-0.0485 -0.1834 -0.4557 0.916 -0.273 0.294 134 112 73 0 0
-0.0490 -0.1833 -0.4576 0.907 -0.412 -0.087 152 133 90 0 0
-0.0500 -0.1834 -0.4633 0.762 -0.626 -0.166 119 102 64 0 0
-0.0554 -0.1884 -0.5348 0.888 -0.428 -0.167 149 132 89 0 0
-0.0688 -0.1549 -0.2880 -0.078 -0.498 0.864 177 178 180 0 0
-0.0665 -0.1562 -0.2888 -0.123 -0.551 0.825 177 178 179 0 0
-0.0630 -0.1584 -0.2909 -0.251 -0.557 0.791 173 173 173 0 0
-0.0410 -0.1732 -0.3117 0.894 -0.399 -0.204 107 92 76 0 0
-0.0416 -0.1759 -0.3386 0.661 -0.705 0.255 91 69 38 0 0
-0.0397 -0.1772 -0.3411 0.590 -0.534 0.605 94 69 41 0 0
-0.0416 -0.1771 -0.3498 0.664 -0.698 0.267 95 70 38 0 0
-0.0402 -0.1780 -0.3508 0.863 -0.492 0.115 93 70 38 0 0
-0.0431 -0.1791 -0.3745 0.883 -0.454 0.122 106 83 51 0 0
-0.0436 -0.1797 -0.3828 0.750 -0.559 0.353 102 82 48 0 0
-0.0531 -0.1868 -0.4921 0.769 -0.506 0.390 130 107 71 0 0
-0.0533 -0.1871 -0.4957 0.604 -0.635 0.482 118 98 63 0 0
-0.0528 -0.1875 -0.4972 0.816 -0.566 0.120 128 107 71 0 0
-0.0673 -0.1577 -0.2903 -0.143 -0.587 0.797 177 178 180 0 0
-0.0423 -0.1785 -0.3496 0.878 -0.458 0.143 91 67 36 0 0
-0.0410 -0.1793 -0.3507 0.865 -0.501 0.030 92 70 38 0 0
-0.0445 -0.1801 -0.3746 0.954 -0.172 0.244 104 82 49 0 0
-0.0530 -0.1880 -0.4862 0.694 -0.653 0.303 133 111 72 0 0
-0.0533 -0.1881 -0.4881 0.833 -0.482 0.272 122 100 64 0 0
-0.0524 -0.1891 -0.4929 0.739 -0.385 0.553 132 111 72 0 0
-0.0532 -0.1889 -0.4950 0.692 -0.580 0.429 133 111 72 0 0
-0.0525 -0.1895 -0.4964 0.773 -0.631 0.061 128 105 66 0 0
-0.0671 -0.1598 -0.2914 -0.139 -0.653 0.744 177 178 180 0 0
-0.0625 -0.1625 -0.2931 -0.002 -0.735 0.678 172 175 174 0 0
-0.0606 -0.1637 -0.2940 0.727 -0.683 0.067 149 147 138 0 0
-0.0394 -0.1765 -0.3027 0.655 -0.705 0.273 51 33 20 0 0
-0.0420 -0.1789 -0.3364 0.756 -0.503 0.418 80 55 24 0 0
-0.0414 -0.1794 -0.3377 0.655 -0.489 0.576 83 58 29 0 0
-0.0485 -0.1856 -0.4270 0.907 -0.419 0.030 111 87 55 0 0
-0.0486 -0.1859 -0.4304 0.925 -0.376 0.052 99 76 46 0 0
-0.0496 -0.1868 -0.4427 0.811 -0.577 0.100 128 108 70 0 0
-0.0507 -0.1866 -0.4466 0.829 -0.517 0.210 112 92 60 0 0
-0.0497 -0.1877 -0.4512 0.848 -0.530 0.015 119 98 63 0 0
-0.0538 -0.1892 -0.4843 0.752 -0.601 0.272 122 100 62 0 0
-0.0541 -0.1893 -0.4862 0.694 -0.653 0.303 139 117 78 0 0
-0.0542 -0.1894 -0.4880 0.833 -0.482 0.272 125 102 66 0 0
-0.0535 -0.1903 -0.4929 0.873 -0.361 0.329 134 112 72 0 0
-0.0536 -0.1907 -0.4965 0.635 -0.749 0.192 129 107 68 0 0
-0.0673 -0.1616 -0.2927 -0.084 -0.746 0.660 177 178 181 0 0
-0.0655 -0.1627 -0.2937 -0.084 -0.746 0.660 175 179 182 0 0
-0.0638 -0.1638 -0.2947 -0.084 -0.746 0.660 169 172 170 0 0
-0.0620 -0.1649 -0.2957 -0.084 -0.746 0.660 152 147 141 0 0
-0.0409 -0.1772 -0.3013 0.358 -0.755 0.550 71 57 42 0 0
-0.0406 -0.1776 -0.3027 0.634 -0.722 0.279 52 37 23 0 0
-0.0416 -0.1789 -0.3185 0.739 -0.674 0.007 84 62 32 0 0
-0.0427 -0.1802 -0.3362 0.853 -0.422 0.308 81 56 26 0 0
-0.0420 -0.1808 -0.3375 0.748 -0.320 0.581 83 58 32 0 0
-0.0415 -0.1812 -0.3389 0.821 -0.297 0.488 77 53 29 0 0
-0.0471 -0.1832 -0.3829 0.909 -0.358 0.213 73 54 28 0 0
-0.0480 -0.1867 -0.4179 0.944 -0.307 0.117 103 80 46 0 0
-0.0546 -0.1920 -0.4964 0.739 -0.618 0.268 132 110 71 0 0
-0.0538 -0.1926 -0.4977 0.906 -0.420 0.044 129 107 68 0 0
-0.0685 -0.1629 -0.2943 -0.084 -0.746 0.660 177 179 180 0 0
-0.0667 -0.1640 -0.2953 -0.084 -0.746 0.660 175 178 180 0 0
-0.0650 -0.1651 -0.2963 -0.084 -0.746 0.660 173 173 174 0 0
-0.0427 -0.1822 -0.3374 0.846 -0.358 0.394 78 54 29 0 0
-0.0420 -0.1827 -0.3387 0.799 -0.322 0.508 75 51 26 0 0
-0.0415 -0.1842 -0.3496 0.943 -0.317 0.105 87 63 35 0 0
-0.0495 -0.1873 -0.4148 0.828 -0.523 0.204 113 90 59 0 0
-0.0487 -0.1883 -0.4194 0.984 -0.139 0.107 102 78 44 0 0
-0.0608 -0.1879 -0.4746 0.335 -0.465 0.819 50 41 30 0 0
-0.0562 -0.1930 -0.4966 0.775 -0.451 0.443 135 114 75 0 0
-0.0556 -0.1935 -0.4981 0.775 -0.451 0.443 127 105 66 0 0
-0.0550 -0.1940 -0.4995 0.813 -0.381 0.440 123 101 62 0 0
-0.0573 -0.1933 -0.5043 0.889 -0.433 -0.146 141 119 86 0 0
-0.0577 -0.1933 -0.5062 0.870 -0.487 -0.076 150 130 93 0 0
-0.0579 -0.1934 -0.5081 0.870 -0.487 -0.076 148 131 90 0 0
-0.0582 -0.1935 -0.5100 0.941 -0.339 -0.012 133 117 78 0 0
-0.0580 -0.1937 -0.5118 0.768 -0.621 -0.156 114 99 62 0 0
-0.0584 -0.1937 -0.5137 0.925 -0.379 0.028 109 94 60 0 0
-0.0618 -0.1946 -0.5371 0.906 -0.424 -0.001 146 133 111 0 0
-0.0619 -0.1947 -0.5390 0.975 -0.218 0.035 189 184 177 0 0
-0.0619 -0.1949 -0.5408 0.984 -0.177 0.018 204 204 205 0 0
-0.0716 -0.1630 -0.2949 -0.065 -0.685 0.726 177 178 180 0 0
-0.0432 -0.1836 -0.3372 0.811 -0.350 0.468 80 56 29 0 0
-0.0594 -0.1912 -0.4803 0.885 -0.387 0.260 73 54 33 0 0
-0.0558 -0.1952 -0.4976 0.941 -0.187 0.281 128 108 69 0 0
-0.0557 -0.1954 -0.4993 0.813 -0.381 0.440 122 100 62 0 0
-0.0589 -0.1949 -0.5098 0.870 -0.487 -0.076 127 106 66 0 0
-0.0595 -0.1950 -0.5137 0.768 -0.621 -0.156 131 114 77 0 0
-0.0723 -0.1646 -0.2963 -0.051 -0.735 0.676 177 178 180 0 0
-0.0444 -0.1818 -0.3121 0.783 -0.563 0.266 58 38 19 0 0
-0.0432 -0.1840 -0.3258 0.939 -0.328 0.103 80 55 26 0 0
-0.0424 -0.1846 -0.3270 0.800 -0.584 0.138 87 61 33 0 0
-0.0424 -0.1872 -0.3491 0.856 -0.476 0.201 81 59 31 0 0
-0.0530 -0.1859 -0.3889 0.278 -0.797 0.537 53 43 38 0 0
-0.0501 -0.1878 -0.3909 0.831 -0.525 -0.185 52 41 30 0 0
-0.0568 -0.1965 -0.4975 0.808 -0.467 0.358 124 105 63 0 0
-0.0563 -0.1969 -0.4990 0.808 -0.467 0.358 126 106 70 0 0
-0.0562 -0.1972 -0.5007 0.709 -0.705 0.024 125 105 69 0 0
-0.0601 -0.1961 -0.5099 0.740 -0.665 -0.100 112 89 56 0 0
-0.0632 -0.1959 -0.5223 0.677 -0.734 -0.059 130 108 68 0 0
-0.0736 -0.1658 -0.2979 -0.096 -0.828 0.552 178 178 180 0 0
-0.0433 -0.1856 -0.3254 0.648 -0.757 0.080 83 58 28 0 0
-0.0439 -0.1874 -0.3429 0.726 -0.657 0.202 90 66 38 0 0
-0.0440 -0.1883 -0.3509 0.896 -0.444 -0.002 89 66 35 0 0
-0.0458 -0.1883 -0.3596 0.543 -0.773 0.329 93 72 40 0 0
-0.0459 -0.1884 -0.3612 0.605 -0.785 0.134 98 78 45 0 0
-0.0475 -0.1878 -0.3634 0.838 -0.544 0.040 102 83 50 0 0
-0.0500 -0.1909 -0.4019 0.849 -0.400 0.346 87 63 35 0 0
-0.0724 -0.1687 -0.3019 -0.076 -0.826 0.559 178 178 180 0 0
-0.0484 -0.1891 -0.3633 0.838 -0.544 0.040 97 76 46 0 0
-0.0547 -0.1895 -0.3969 0.892 -0.332 0.306 63 46 30 0 0
-0.0521 -0.1912 -0.3991 0.613 -0.465 0.639 81 59 35 0 0
-0.0508 -0.1920 -0.4001 0.688 -0.535 0.490 83 61 33 0 0
-0.0507 -0.1923 -0.4017 0.675 -0.420 0.606 94 72 44 0 0
-0.0503 -0.1931 -0.4065 0.870 -0.457 0.183 109 88 54 0 0
-0.0780 -0.1852 -0.4688 0.637 0.139 -0.758 197 197 194 0 0
-0.0629 -0.1944 -0.4769 0.502 -0.120 0.857 55 46 35 0 0
-0.0621 -0.1950 -0.4782 0.685 0.009 0.728 78 68 52 0 0
-0.0770 -0.1681 -0.3031 -0.158 -0.816 0.557 178 178 180 0 0
-0.0754 -0.1691 -0.3041 -0.158 -0.816 0.557 178 178 181 0 0
-0.0737 -0.1701 -0.3051 -0.158 -0.816 0.557 176 179 182 0 0
-0.0718 -0.1713 -0.3061 -0.081 -0.844 0.529 175 178 179 0 0
-0.0462 -0.1898 -0.3445 0.880 -0.472 -0.045 82 58 30 0 0
-0.0553 -0.1910 -0.3967 0.892 -0.332 0.306 68 52 35 0 0
-0.0509 -0.1941 -0.4030 0.789 -0.602 0.119 96 75 46 0 0
-0.0505 -0.1945 -0.4045 0.724 -0.684 0.093 97 76 46 0 0
-0.0506 -0.1947 -0.4061 0.656 -0.751 0.073 99 78 46 0 0
-0.0574 -0.2009 -0.4908 0.848 -0.492 0.196 105 83 44 0 0
-0.0718 -0.1732 -0.3073 0.138 -0.842 0.522 179 180 179 0 0
-0.0717 -0.1734 -0.3089 -0.067 -0.808 0.585 177 178 176 0 0
-0.0466 -0.1905 -0.3380 0.951 -0.293 0.096 82 58 30 0 0
-0.0466 -0.1907 -0.3395 0.951 -0.293 0.096 81 57 29 0 0
-0.0470 -0.1907 -0.3412 0.909 -0.411 0.068 82 58 30 0 0
-0.0464 -0.1914 -0.3442 0.948 -0.316 0.028 84 60 32 0 0
-0.0463 -0.1916 -0.3458 0.948 -0.315 0.048 83 59 32 0 0
-0.0518 -0.1956 -0.4046 0.658 -0.752 -0.034 93 72 43 0 0
-0.0512 -0.1963 -0.4076 0.644 -0.761 0.080 102 81 49 0 0
-0.0544 -0.1949 -0.4106 0.834 -0.238 0.497 103 83 51 0 0
-0.0575 -0.1967 -0.4406 0.797 -0.526 0.298 65 55 43 0 0
-0.0582 -0.2023 -0.4907 0.820 -0.506 0.267 111 89 50 0 0
-0.0627 -0.2014 -0.5036 0.536 -0.837 0.108 116 97 55 0 0
-0.0731 -0.1746 -0.3105 -0.019 -0.778 0.628 179 178 178 0 0
-0.0715 -0.1756 -0.3116 0.024 -0.736 0.676 176 176 174 0 0
-0.0469 -0.1930 -0.3455 0.797 -0.595 0.101 85 61 33 0 0
-0.0764 -0.1821 -0.3880 0.206 -0.024 0.978 156 153 143 0 0
-0.0540 -0.1964 -0.4067 0.907 -0.422 0.004 88 67 37 0 0
-0.0550 -0.1964 -0.4104 0.765 -0.291 0.575 105 84 53 0 0
-0.0716 -0.1908 -0.4399 -0.076 -0.641 0.764 54 48 46 0 0
-0.0578 -0.1986 -0.4419 0.758 -0.350 0.550 89 79 55 0 0
-0.0568 -0.2001 -0.4498 0.952 -0.296 0.074 102 81 57 0 0
-0.0797 -0.1902 -0.4715 0.798 0.371 -0.475 197 199 202 0 0
-0.0831 -0.1890 -0.4767 0.726 0.217 0.653 113 110 103 0 0
-0.0597 -0.2029 -0.4874 0.917 -0.303 0.259 107 85 46 0 0
-0.0641 -0.2021 -0.5002 0.730 -0.683 0.002 126 111 74 0 0
-0.0721 -0.1772 -0.3130 0.142 -0.697 0.703 178 178 177 0 0
-0.0708 -0.1781 -0.3141 0.422 -0.665 0.616 174 173 168 0 0
-0.0479 -0.1940 -0.3439 0.772 -0.570 0.281 84 60 33 0 0
-0.0476 -0.1946 -0.3470 0.886 -0.399 0.237 85 61 33 0 0
-0.0475 -0.1948 -0.3485 0.713 -0.699 0.050 83 59 31 0 0
-0.0806 -0.1822 -0.3927 0.047 0.012 0.999 111 103 91 0 0
-0.0515 -0.1992 -0.4034 0.789 -0.502 0.354 104 85 56 0 0
-0.0556 -0.1978 -0.4102 0.765 -0.291 0.575 105 85 53 0 0
-0.0791 -0.1886 -0.4394 -0.114 -0.583 0.804 72 68 65 0 0
-0.0754 -0.1908 -0.4411 -0.015 -0.597 0.802 60 56 53 0 0
-0.0572 -0.2016 -0.4495 0.853 -0.520 0.047 69 48 24 0 0
-0.0573 -0.2018 -0.4512 0.847 -0.521 -0.108 97 83 67 0 0
-0.0594 -0.2040 -0.4798 0.733 -0.414 0.540 82 60 35 0 0
-0.0653 -0.2025 -0.4932 0.866 -0.486 0.114 119 101 61 0 0
-0.0651 -0.2030 -0.4967 0.823 -0.554 0.128 126 103 69 0 0
-0.0650 -0.2032 -0.4984 0.823 -0.554 0.128 114 96 63 0 0
-0.0647 -0.2038 -0.5017 0.719 -0.694 -0.040 118 103 72 0 0
-0.0649 -0.2039 -0.5036 0.719 -0.694 -0.040 123 107 82 0 0
-0.0658 -0.2041 -0.5094 0.986 0.128 0.110 196 193 187 0 0
-0.0716 -0.1796 -0.3156 0.265 -0.756 0.598 176 177 175 0 0
-0.0705 -0.1803 -0.3168 0.500 -0.681 0.535 170 171 167 0 0
-0.0483 -0.1944 -0.3342 0.690 -0.598 0.407 72 46 27 0 0
-0.0483 -0.1959 -0.3468 0.772 -0.570 0.281 80 56 28 0 0
-0.0508 -0.1969 -0.3669 0.965 -0.127 0.229 88 67 37 0 0
-0.0575 -0.1966 -0.3941 0.470 0.114 0.875 63 51 41 0 0
-0.0561 -0.1992 -0.4100 0.780 -0.476 0.407 100 79 48 0 0
-0.0564 -0.1995 -0.4134 0.857 -0.503 -0.107 83 61 37 0 0
-0.0822 -0.1886 -0.4386 0.121 -0.303 0.945 113 110 107 0 0
-0.0802 -0.1898 -0.4394 0.229 -0.367 0.901 79 75 72 0 0
-0.0746 -0.1931 -0.4419 0.289 -0.234 0.928 59 54 49 0 0
