ply
format ascii 1.0
element vertex 673
property float x
property float y
property float z
property uchar diffuse_red
property uchar diffuse_green
property uchar diffuse_blue
end_header
-0.18119481474012086 -0.13566534744578032 -0.8641136476775861 91 88 77
-0.17999018858279123 -0.13938471449345188 -0.8630832909130365 123 121 114
-0.17915840123516924 -0.14213905881643393 -0.8629063808345709 144 143 141
-0.17808529230815243 -0.14551255537974164 -0.8621613855001539 157 157 157
-0.17885569388570072 -0.14413615174840066 -0.8656985304124115 166 166 167
-0.1747909030316714 -0.15701035145181566 -0.8631518493228534 182 182 180
-0.1546602461647899 -0.10643057539991294 -0.5059490000508108 68 52 36
-0.15495915710884967 -0.10610782230813642 -0.5079114099726691 62 47 31
-0.15413828830428733 -0.1089946533431406 -0.5082578303305678 65 50 34
-0.1544419182703736 -0.10865882826199225 -0.5102283520049746 52 37 25
-0.1542296230782419 -0.10980076897037372 -0.5114514248394917 57 43 32
-0.1534782297208379 -0.11248433276291361 -0.511886259754767 59 45 34
-0.1531014665136023 -0.11409462939544182 -0.5128632309567871 51 37 24
-0.15331319712528346 -0.11402232435399468 -0.5147014515967908 71 59 42
-0.1530089129570928 -0.11542450990895692 -0.5157819672712286 100 89 70
-0.15340355554634238 -0.11483096503805929 -0.5178928531554257 101 90 69
-0.15392012356757934 -0.11389100524204737 -0.5201884539645414 78 63 40
-0.1543047159475143 -0.11332911325901823 -0.5222929967946079 71 55 36
-0.15430615945039639 -0.11386040034600312 -0.5238301934037574 50 36 21
-0.1541895499292004 -0.11472806758275003 -0.5251913156982473 51 39 23
-0.1544617227489011 -0.11448889483805513 -0.5271350418783278 68 52 35
-0.15476560288222893 -0.11416053979409382 -0.5291293977264195 75 60 39
-0.15547559989512733 -0.11267860884857084 -0.5317398298081714 77 61 38
-0.1554525294598879 -0.11328222527402726 -0.5332475727848855 76 60 38
-0.15514411844189405 -0.11469632978023903 -0.5343223918026297 78 62 39
-0.15514950276152412 -0.11521890697475864 -0.5358726884848543 76 60 38
-0.15516833218409706 -0.11570352106135395 -0.5374440342301635 78 61 43
-0.15522802113559642 -0.11607250565627944 -0.5390786024188796 89 74 54
-0.15526229475234365 -0.11651386373821673 -0.5406751351745489 81 66 44
-0.15524789273142758 -0.11709335322526651 -0.5421974493233995 98 83 60
-0.15550113641984808 -0.11691535320874857 -0.544133689532321 91 78 54
-0.15583849760332397 -0.1165003440355242 -0.5462030595946004 92 80 56
-0.15576071278572753 -0.11726037963070027 -0.5476306765189917 92 80 56
-0.1561860448357529 -0.11659857879019658 -0.5498423564016595 88 76 54
-0.1563459130659815 -0.1166880397796285 -0.5516433340882466 78 66 43
-0.1565972220072111 -0.11652005853220992 -0.5535896075052446 89 73 51
-0.15669537142933285 -0.11678512248216036 -0.5552977912573611 98 83 60
-0.15677547217874704 -0.11710155110449494 -0.5569788744996708 94 82 60
-0.15720994423879314 -0.11641978715757575 -0.5592216197381232 89 76 57
-0.1574945139292874 -0.11616174879582641 -0.5612310223618979 95 83 63
-0.15800746333678212 -0.11526193181216479 -0.5636067570872111 112 99 80
-0.15855561980764912 -0.11426486088515064 -0.5660437903314368 96 83 64
-0.1592250672123809 -0.11292866750109817 -0.5686803168284197 87 76 57
-0.15924481465475063 -0.11342045520736299 -0.5702810990030657 84 74 58
-0.159347480161482 -0.11367959926485896 -0.5720159396792234 81 72 57
-0.16037657798311689 -0.11133885155753934 -0.575246889777293 77 67 53
-0.16139110666792147 -0.1090424085518849 -0.5784641134950068 79 68 53
-0.1610795879444008 -0.11046719940749367 -0.5795395478053855 70 57 42
-0.16117700812686614 -0.11074527414351129 -0.5812779895540942 54 38 23
-0.16307479513516132 -0.10598185092138701 -0.5859552895758369 64 48 29
-0.16301466052329872 -0.10670472787130461 -0.5874468874668864 82 66 42
-0.16318568771172684 -0.10678094250739009 -0.5893176931101305 90 76 46
-0.1632531777974806 -0.1071473344675411 -0.5910201946023224 88 77 47
-0.16331935092239835 -0.10751778989598076 -0.5927216233092123 109 97 68
-0.16356139186417842 -0.10739750101867834 -0.5947150973207379 115 104 75
-0.16361445347369 -0.1078055898838407 -0.5963977545495994 127 114 84
-0.16400123270918862 -0.10728314844705347 -0.5986365330505171 121 108 75
-0.16432642674103298 -0.10693379567989322 -0.6007765996547484 138 122 88
-0.16469731155757886 -0.10645834507354454 -0.6029965496339174 133 115 82
-0.16501086279485339 -0.10614389832147447 -0.6051242142700969 145 126 91
-0.16488520995687828 -0.10705293337793859 -0.6065165747232837 132 115 86
-0.16523820919274704 -0.106630405224683 -0.6087154661286459 82 67 46
-0.16754945768369728 -0.10076558252784173 -0.6142293932909912 89 76 57
-0.16838863321306202 -0.09899806391411636 -0.6172690098029338 86 74 53
-0.16940100727692145 -0.09675248744974796 -0.6206112570059711 82 71 49
-0.16982286301479632 -0.09614902642824308 -0.6229566181387522 97 87 66
-0.1704818785053182 -0.09488933775462818 -0.6257117084065814 75 63 45
-0.16997832254822942 -0.09685439222497055 -0.6264808615317184 90 79 60
-0.17080987756471244 -0.09511942823862021 -0.6295401936221544 86 74 53
-0.17134837428895805 -0.0941986708641141 -0.6321027024680944 87 76 52
-0.17176516596849378 -0.09361657317489447 -0.6344603905319756 92 81 57
-0.17243135084808725 -0.09234629984409035 -0.6372543969294623 81 69 44
-0.1731053298325789 -0.0910567914093614 -0.6400685531673125 66 55 29
-0.17322918058227416 -0.09128920459454784 -0.6419314241728707 82 70 44
-0.17400542507795969 -0.08972116294183202 -0.6449349845035118 86 75 49
-0.1743534283485812 -0.089337319002636 -0.6471965213128312 85 76 52
-0.17488892101476966 -0.08843777535815614 -0.6497908297962702 71 62 40
-0.1762370373371982 -0.0853006655490059 -0.6538205662252256 66 56 37
-0.17670692881462685 -0.0845868917961638 -0.6563137227206515 54 45 32
-0.17768653069812432 -0.08247175781578561 -0.6597133494952289 41 34 26
-0.1787081751618229 -0.08024428394422853 -0.6631970597526095 21 17 12
-0.17958848134972594 -0.07840886547982975 -0.6664393635378552 15 11 8
-0.18027043907217155 -0.07712147701081881 -0.6693366803825911 22 18 15
-0.1809791820989813 -0.07576289957301677 -0.6722886640424591 27 24 19
-0.18112242680664706 -0.07595884820955573 -0.6742343524191189 30 26 23
-0.1825782252809121 -0.07255510360880887 -0.6785399369488877 17 13 11
-0.18320605766887693 -0.07142599789563323 -0.6813681616034271 15 11 10
-0.18309344249437742 -0.07232775848942777 -0.6828656221378575 17 13 12
-0.18308381750928482 -0.07294733309271687 -0.6845490150213513 22 18 17
-0.18327351419767265 -0.07302160095602783 -0.6865946048268134 18 14 12
-0.18336708984587588 -0.07335954795442964 -0.688467564099514 19 15 14
-0.18420068787896798 -0.07167523819107463 -0.69169186424895 20 15 12
-0.18389592295017665 -0.07310350548062816 -0.6928425141332336 20 15 13
-0.18449264553225153 -0.07206979637734348 -0.6956436986562303 16 11 8
-0.18509485803341025 -0.07102321286611743 -0.6984610090410299 21 15 12
-0.18513810252596766 -0.07150300645954194 -0.7002544075788706 22 17 14
-0.18509684123452566 -0.07221342571393013 -0.7018926229164276 23 17 14
-0.18599638738810972 -0.0703614346878961 -0.7052732885871539 25 17 15
-0.1865627175807484 -0.0694195656526074 -0.7080441669815511 29 20 15
-0.18580354892915565 -0.07208566881385256 -0.7083538235998482 51 43 33
-0.1850755965923001 -0.07466463341172444 -0.7087152259400848 72 64 54
-0.18417962916865835 -0.07769796661101788 -0.7087561554503842 62 55 46
-0.1832628107761774 -0.0807852127103654 -0.708750217524647 46 42 33
-0.18238094870528024 -0.08377480859358086 -0.7088020195533337 48 45 36
-0.18145163143877407 -0.08689045388445962 -0.7087567534031717 63 56 47
-0.18025585171806568 -0.09072559438181069 -0.7082000593144037 65 57 47
-0.17929793721450726 -0.09391263805146949 -0.7080832216943292 59 50 41
-0.17843295613158117 -0.09684514461311489 -0.7081344301315406 60 50 42
-0.17772409692474794 -0.09935258136268879 -0.7084752137112948 66 57 47
-0.1770788005425191 -0.10168601199288074 -0.7089311845364084 79 68 56
-0.17655855728362316 -0.10367955592794723 -0.7096208039239258 80 68 54
-0.17604585898300595 -0.10565121593160598 -0.7103205717082012 88 76 60
-0.17571974118489425 -0.10711773299363642 -0.7113745976172267 100 88 71
-0.17513213125262442 -0.1092888307585631 -0.711922452461752 114 101 83
-0.17369408805421693 -0.11375113722606414 -0.710823399605382 119 103 82
-0.17308431943662617 -0.11597711363462232 -0.7113145220647688 116 95 68
-0.17222150847256912 -0.11888272195459937 -0.7113095761518864 147 123 82
-0.17194076296757238 -0.1202191798723605 -0.7124290510526579 153 133 91
-0.17130297259608704 -0.12251525087732815 -0.7128504237069926 140 123 93
-0.17126583506869908 -0.1231948250358304 -0.7144400428209696 93 80 52
-0.17226158327094046 -0.12109965172979087 -0.7180528880921963 98 85 58
-0.17198857388060695 -0.12241429588856839 -0.7191845593396158 111 97 72
-0.1716280441578727 -0.1239630671251431 -0.7201419627792768 94 79 56
-0.17203592939067158 -0.1234502757088892 -0.7226123135218248 125 111 86
-0.17306700815401882 -0.1212688565958058 -0.7263192118024814 126 107 79
-0.17508328030587905 -0.11645229528065018 -0.7319888429362487 140 121 88
-0.17593952728029216 -0.11474751944374098 -0.735373275959849 141 124 91
-0.176811527876795 -0.11300356901626685 -0.7387975871770556 105 89 61
-0.17806494587511934 -0.11024293848588196 -0.7429918467237903 86 70 42
-0.17926801001365217 -0.10762110829494187 -0.7470975922848425 143 126 92
-0.1809801700062637 -0.10364399580455702 -0.7522359807798269 139 122 87
-0.18647181689185127 -0.09080061744672291 -0.7684674996354068 118 102 73
-0.19063018451702338 -0.08155971941461165 -0.7821468845167394 111 96 66
-0.18978289590692765 -0.08442698642289426 -0.7821819716100138 134 119 84
-0.18929351708350156 -0.08634065811025388 -0.7829407704421737 156 139 100
-0.1889013166700591 -0.08799486195035666 -0.7838944892055937 179 165 120
-0.1883303184261294 -0.09012248044251425 -0.7844781700722431 194 180 135
-0.18982066222736008 -0.0867812435109806 -0.7892967119366823 160 144 109
-0.18948151664826032 -0.08829432575872459 -0.7903583835041735 91 78 52
-0.18847502897395685 -0.09157425845829592 -0.7900386029868015 51 39 22
-0.18800422376839895 -0.09343295618372244 -0.7908192256369934 38 27 16
-0.18763267568911407 -0.0950276975114529 -0.791801981560001 34 25 15
-0.18776131902841514 -0.09529887399088416 -0.7938222917748239 44 36 22
-0.18761486727527182 -0.0962975786094129 -0.7952708054554469 66 54 38
-0.18747513731064364 -0.09727824154111403 -0.7967325309857726 87 74 50
-0.18575489281697316 -0.10242984803578603 -0.7948834250239435 116 101 71
-0.1850025332304824 -0.1050231989632966 -0.7950502762930262 152 134 98
-0.18530596321914472 -0.10483134693580495 -0.7974316505192915 164 143 106
-0.18530366734515927 -0.10544603025010221 -0.7991718260362994 158 140 108
-0.18472650284578548 -0.10757428730182406 -0.7996977656172717 131 116 83
-0.18445613952536394 -0.10889366013261068 -0.8008685580600239 152 137 100
-0.18396814237113882 -0.11078455952807431 -0.8015754148352847 130 117 82
-0.18353215696700814 -0.11253737478892406 -0.8023888558762606 160 146 113
-0.1838548520653409 -0.11229663336988763 -0.8048161794579266 112 98 67
-0.1835567588423852 -0.11368632420099367 -0.8059206821874415 99 84 54
-0.18346069989738067 -0.11454534044576076 -0.8074555400537021 144 130 99
-0.1835145600948287 -0.11501127675738779 -0.8093117665961392 108 95 67
-0.18351165044405615 -0.11562628369891001 -0.8110469402954799 65 53 26
-0.18332137188409217 -0.11673196382886894 -0.8123787529175311 69 56 37
-0.1839106393959166 -0.11579779085371253 -0.8153932937339917 81 68 53
-0.18361777757331887 -0.11717208264569831 -0.8165041864206256 60 48 33
-0.18371846578409312 -0.11751730555711468 -0.8184667207880224 48 36 20
-0.18341212768378512 -0.11892588264621354 -0.8195457185968779 69 54 33
-0.1828923799286577 -0.12089054615603911 -0.8201573220939902 109 93 66
-0.18228912699932576 -0.12307145984225482 -0.8205821933755846 124 109 80
-0.18201443649202345 -0.1243942493502655 -0.8217209768745346 90 76 47
-0.18170683945886942 -0.12580203000904008 -0.8227855287109188 76 62 33
-0.18142411656351723 -0.1271442370554638 -0.823902383376863 85 72 41
-0.18163623405706347 -0.12719845871756683 -0.8261071058508215 91 78 47
-0.18190193069927765 -0.12711428020274873 -0.8284326490799634 91 77 48
-0.1816884793961944 -0.12827600417373095 -0.8297012732528907 86 72 44
-0.1834654542883747 -0.1242693273025294 -0.8353810735649447 93 80 50
-0.18256109861526887 -0.12722600818451882 -0.8351211947954276 108 94 62
-0.1822586163322013 -0.12861919181274534 -0.8361933090678589 106 93 61
-0.18187680790227648 -0.13021713093317724 -0.8370861082821988 100 87 55
-0.1822263177700026 -0.12992005809311827 -0.8396109813522813 108 94 62
-0.18253074642955297 -0.12974100516958778 -0.8420386999789298 124 109 76
-0.18215114741026134 -0.13133235191523118 -0.842933943304975 121 105 72
-0.18208128549018898 -0.1321220244485774 -0.8445230751575745 130 115 79
-0.1824685078781619 -0.1317309425743605 -0.8471427553914892 132 117 80
-0.1826044671955937 -0.1319899637456572 -0.8491988947239159 136 121 88
-0.18304550329363614 -0.13146257999553523 -0.8519476778369647 109 94 62
-0.18340391018709434 -0.1311498797109285 -0.854513699553158 102 91 61
-0.18374908886287883 -0.1308726403393131 -0.8570535934989845 100 89 63
-0.18279185453883343 -0.13395025675676284 -0.8566295886724958 96 87 66
-0.1829278479227311 -0.13421180171095917 -0.8586932930477464 70 63 46
-0.18321898210088267 -0.13407503824982464 -0.8611138218362138 56 49 33
-0.18331594133393903 -0.134438436615361 -0.8630924413756962 80 74 61
-0.18348438920076449 -0.13461874933808324 -0.8652367874154482 108 104 95
-0.18170929257842333 -0.13978802116637404 -0.8629084041021929 134 133 129
-0.1809354090615556 -0.14238358274067847 -0.862873651153665 150 149 149
-0.18103311369642947 -0.14274268180812782 -0.8648471455091258 162 162 162
-0.1824645939637444 -0.13968574026325603 -0.8699121097915782 169 170 169
-0.16041787231494795 -0.09316426481361467 -0.5072003303312733 99 87 70
-0.15593181298975145 -0.10759233889234707 -0.50543165078452 97 84 70
-0.15558204809515033 -0.10912455307459387 -0.5064596695894239 75 62 47
-0.15580971318165607 -0.1090094538762765 -0.5083159629991133 73 60 43
-0.15578206409532275 -0.10962278520901245 -0.5098062041371481 66 52 39
-0.15599266123779343 -0.10955764409276328 -0.5116416390925761 63 49 36
-0.15585162441243589 -0.11049425807235891 -0.5129686796199318 68 54 41
-0.15539772472872315 -0.11232067325041942 -0.5138390858687883 62 48 34
-0.1554648834527416 -0.1126642541085831 -0.5154673839043833 82 67 51
-0.15529587328159908 -0.11367935706003948 -0.5167505364473898 97 84 65
-0.15538139528191725 -0.11397115432973229 -0.5184069035742159 74 58 37
-0.15558986549816398 -0.11391436903997712 -0.5202458373136903 71 53 33
-0.1558601560417192 -0.11368300711588247 -0.5221785615052635 57 40 26
-0.1558424909277882 -0.11426916792757824 -0.5236868798282378 47 31 20
-0.15604015641020855 -0.11424519164448438 -0.5255159968792897 61 48 32
-0.15630159241868288 -0.11404137312434046 -0.5274425548071137 69 54 35
-0.15658289631811217 -0.11378229459026737 -0.529401675897966 64 49 29
-0.157184093223539 -0.11261919754843297 -0.5318442286038779 72 57 36
-0.1570827143991033 -0.11344482566014258 -0.5332343152031584 77 63 41
-0.15704906935380528 -0.11407887324368865 -0.5347262916438726 76 62 38
-0.1566587915842995 -0.11572030683610474 -0.5356780003032554 78 64 41
-0.15692884554517328 -0.11549656974377459 -0.5376302796118086 73 58 40
-0.15695972369010217 -0.11594865800623269 -0.539220862851034 69 53 35
-0.1571129854381604 -0.11605590436123625 -0.5409992997817995 84 68 45
-0.15715068040156704 -0.11648949358000482 -0.5426023755203847 87 72 47
-0.15740430032954775 -0.11631517116474036 -0.5445383269137262 78 64 40
-0.15753647874862628 -0.11648368230097475 -0.5462897204610813 85 73 49
-0.1576888174901867 -0.11659605134968942 -0.5480739597689375 88 76 52
-0.15785890623135085 -0.11665915162855989 -0.5498875790175569 78 66 44
-0.15802921461329314 -0.11672233443469573 -0.5517035432363847 84 70 47
-0.1582957601910996 -0.11651590625204297 -0.5536716869099736 84 70 47
-0.15854437017208287 -0.11636083217461698 -0.5556146381458759 101 87 64
-0.15873382765091867 -0.11637266806947447 -0.557467465989838 101 88 66
-0.1590387034823961 -0.11606162464642147 -0.5595041445495306 98 86 66
-0.1594752727811762 -0.1153826380194774 -0.5617519303761535 95 83 63
-0.1599716601120295 -0.11453764972526426 -0.5640988293005416 92 80 61
-0.16032122938518983 -0.11410538782349411 -0.566217606869945 94 82 62
-0.1607130878626619 -0.11355608111986404 -0.5684073481833775 93 80 63
-0.16066005013808837 -0.11425218634438816 -0.5698907824673276 79 67 53
-0.16107403320722224 -0.11364315620593371 -0.5721219763282781 85 74 62
-0.1620689064930798 -0.11141316820058017 -0.5752901100112093 84 74 62
-0.16225303223029172 -0.11144963918527359 -0.5771622680826142 99 87 74
-0.16283902175357431 -0.11036572114599319 -0.5796854717599547 65 53 38
-0.16244864783165566 -0.11200618406590496 -0.5806334786734783 50 35 18
-0.16441284257319072 -0.10708414817586293 -0.5854017554760642 65 50 29
-0.16482217647998873 -0.10649893892928117 -0.5876565021976705 119 105 78
-0.16503240073167347 -0.10646941893361764 -0.5895903245324763 146 133 101
-0.1650878819903657 -0.10687121724340673 -0.5912731600276354 118 103 75
-0.1651644111154138 -0.1072148397093971 -0.592991540690952 94 77 52
-0.16549590375071088 -0.10685039250346476 -0.5951308910681286 109 93 66
-0.16547237318127506 -0.10747312487152086 -0.596687584326691 118 103 72
-0.1658896140823328 -0.10687255460116182 -0.5989742728841762 119 104 73
-0.16636920220733045 -0.10610052727021968 -0.601368740486038 109 94 63
-0.16686912237505172 -0.10527382369240101 -0.6038018985535994 116 100 69
-0.16735734449620912 -0.10448129103973897 -0.606220561966295 105 90 60
-0.16773157992397345 -0.10400613492234981 -0.608453367743431 94 81 57
-0.16837893950909993 -0.10277642972242754 -0.6111484504232897 84 71 52
-0.16969147314719027 -0.09970904976563996 -0.6149693026351866 92 80 58
-0.17067237658024212 -0.09756279338078999 -0.6182430007063279 96 85 60
-0.17108790858465894 -0.09698187574875958 -0.6205695392255325 128 116 90
-0.17113120349953412 -0.09743030203041003 -0.6222688510004689 115 104 77
-0.17200833641455 -0.09557790914195743 -0.6253874677053527 114 103 75
-0.17235514931053791 -0.09519115333196182 -0.6276100455121579 117 105 82
-0.17300321648065825 -0.09397526826623659 -0.630351482489163 121 109 84
-0.17304833856306398 -0.09442267831493456 -0.6320654275453288 97 85 60
-0.17344799390708932 -0.09389426521927252 -0.6343898342756331 95 83 58
-0.1738806497472024 -0.09327649211853772 -0.6367752748133602 99 87 61
-0.1743937821531409 -0.09243895253893875 -0.6393042625298986 84 73 46
-0.17455494049896658 -0.09257063474675772 -0.6412284622514894 77 65 39
-0.1750870143054548 -0.09168412644213253 -0.6437991272284316 79 68 40
-0.17574903257507635 -0.09044275035713265 -0.6466015367261707 82 72 46
-0.17622760638206295 -0.08970698715262526 -0.649090074120764 69 58 36
-0.17719210351652226 -0.08764045760366837 -0.6524344807870385 65 56 36
-0.17804897235470218 -0.0858721458416637 -0.655599232655482 51 44 28
-0.17943082790570095 -0.08266883910451409 -0.6596965340378839 51 43 33
-0.18076214416900316 -0.07960847098576856 -0.6637177866081787 43 36 29
-0.18178688494933065 -0.0773912516452551 -0.6672092237079051 41 36 29
-0.18288244340837312 -0.07498386298060691 -0.6708361982602342 33 30 25
-0.18308792406088947 -0.07501233986535372 -0.6728904974502855 18 16 11
-0.18354169256598238 -0.07436359291698111 -0.6753899725009821 26 22 18
-0.18400419513528501 -0.07369264043303053 -0.6779097371411278 17 13 11
-0.18514884471387144 -0.0711626262612508 -0.6816570043147614 14 10 9
-0.18504819713867635 -0.07203131817358799 -0.6831773840268469 19 14 12
-0.18516624496482778 -0.07230402399221328 -0.6850913753769066 24 20 17
-0.18529287472958167 -0.07255392119999576 -0.6870224694495706 21 17 13
-0.1860742289095988 -0.07102268186206637 -0.6901408517453453 23 19 15
-0.18609524631481006 -0.07156204111670383 -0.6918865818712661 23 18 15
-0.1861737098999645 -0.07194550364413932 -0.6937375793244963 22 17 14
-0.18758943424103225 -0.06869670362486435 -0.6980298217785982 17 12 9
-0.1873592582003854 -0.06992111106543664 -0.6993248776136152 20 15 12
-0.18689581040289432 -0.07177790031875991 -0.7001905616291382 22 17 14
-0.1872261377339577 -0.0714809011780714 -0.7025117979646415 22 16 13
-0.1865527751524813 -0.07390524194376555 -0.7029867758905228 24 16 13
-0.18777689120237362 -0.07118830216859201 -0.7069619013386466 25 16 12
-0.1872492655283429 -0.07321723675602185 -0.7077042007669647 37 29 21
-0.18663770583753375 -0.07547172166249039 -0.7082863152198925 63 56 46
-0.18590812811814403 -0.07804350275353208 -0.7086436379099872 57 51 41
-0.18501125471797014 -0.08106516026041555 -0.7086825813004494 55 50 43
-0.18380883465608294 -0.08490922421160771 -0.7081422106639227 48 44 34
-0.18362472314987321 -0.08600135257701022 -0.7095008675501228 62 56 46
-0.18244411637480434 -0.08978083899035208 -0.708985065540163 66 59 49
-0.18148353040966314 -0.0929636118113997 -0.70887351767079 57 48 39
-0.18069435016570162 -0.09568170231718195 -0.7090774261449253 61 52 43
-0.17986071344442345 -0.09851712283698749 -0.7091903797151347 80 72 60
-0.17937651887502742 -0.1004097649393497 -0.7099595085033422 83 74 61
-0.17857033059681876 -0.10316691777330536 -0.7101119440055046 77 66 51
-0.17776837362484188 -0.1059102767273992 -0.7102655177650798 101 89 73
-0.17703222556864484 -0.10847446786927104 -0.7105380331904996 120 108 91
-0.17618780329497 -0.11132710336659721 -0.7105967154551246 100 86 66
-0.17537934079919312 -0.11408072061447541 -0.710717195794815 103 87 62
-0.1747724330474778 -0.11629151827960069 -0.7112189155173896 115 97 70
-0.17411441504439848 -0.11863748095726837 -0.7116168523305374 159 136 98
-0.17367359013471878 -0.12039988281898548 -0.7124295454429371 124 106 72
-0.17306405764273913 -0.12261253820316437 -0.7129113833336382 108 92 67
-0.17547745554674793 -0.11673821323962486 -0.7192663979657762 100 86 59
-0.1752680544577434 -0.11788261972886688 -0.7205319031816235 111 97 70
-0.1751396798231591 -0.11881007463049773 -0.7219542927396456 110 95 70
-0.1751859544318843 -0.11927102072387907 -0.7237180506720189 100 85 60
-0.17638001976635254 -0.11666982629610337 -0.7277359921305668 128 112 84
-0.17503321591261103 -0.12084796481894283 -0.7267657258786623 140 120 87
-0.17776347446869864 -0.11415694713471661 -0.7338250339612037 147 126 93
-0.17883930428301226 -0.11188116901874079 -0.7376393398749345 132 114 85
-0.1798609804601471 -0.10975319939288583 -0.7413568365401411 96 79 52
-0.18114990782036638 -0.10691782786746323 -0.7456151861758697 117 101 69
-0.1829158633005372 -0.10281868320077883 -0.7508357755723741 140 124 90
-0.1841975369984601 -0.10001208935047415 -0.7551068618037614 118 102 69
-0.18854285968880571 -0.0896833933731587 -0.7672590519287658 120 105 75
-0.1892101644407964 -0.08852199357635004 -0.7703411525534549 132 116 87
-0.1943144123444909 -0.0768399286446752 -0.7859055523807337 131 115 80
-0.19337880672643598 -0.0799333655639527 -0.7857781073179674 168 153 114
-0.19257456939244197 -0.0826766376388734 -0.7859095390384039 171 153 112
-0.1914416467981232 -0.0862859196466908 -0.7853643246457858 175 162 116
-0.1906926049933184 -0.08887805238567592 -0.7855930339000591 187 173 129
-0.1911771687206644 -0.08821256958062518 -0.7883402609822661 176 161 119
-0.19202335657890351 -0.08659515247776811 -0.7918344110403025 137 122 84
-0.1909172225694818 -0.09012630576188396 -0.7913227411877127 93 81 50
-0.1903117854621125 -0.09233519959326536 -0.7918331304704322 66 55 31
-0.1897411850851203 -0.09445060389666088 -0.7924103619246698 62 52 35
-0.190038626315184 -0.09428073379507701 -0.794779778697089 47 36 22
-0.18993221501103472 -0.09517379908185475 -0.7963145920296495 46 34 21
-0.1882254611787229 -0.10027158469765873 -0.7945210521178542 55 43 27
-0.18839907409632564 -0.10042641638911018 -0.7966310926099056 74 61 41
-0.18800496714107687 -0.10207182537296391 -0.7975574177293638 107 93 65
-0.18800354704212308 -0.10268627895884117 -0.7993026911362753 138 122 91
-0.18734840911063488 -0.1050142794992549 -0.7996768613794893 142 126 94
-0.18702986160302063 -0.10645868848798673 -0.8007532454187641 156 140 107
-0.18659472570731872 -0.10820743478050734 -0.8015814678985709 136 121 87
-0.18606898155514506 -0.11019198060251417 -0.8022147661708134 130 116 86
-0.18545281170352607 -0.11241140333385258 -0.8026522518809949 112 97 70
-0.1852399721620298 -0.11357518517409329 -0.8039402081557313 113 99 72
-0.18525545174778726 -0.11414228454177425 -0.8057121782945789 111 96 67
-0.18536548001405193 -0.11446289689746322 -0.8076863104261044 128 114 81
-0.18539710502696388 -0.1149885216710651 -0.8094945665573289 128 113 80
-0.1852649940901676 -0.11594116965008919 -0.8109532011379795 98 84 53
-0.18539814506112848 -0.11620267515334512 -0.8129801335208203 72 58 32
-0.1855045349300099 -0.11653446233628409 -0.8149513226218138 77 61 38
-0.1858859029354999 -0.11615148457849203 -0.8175164726602016 91 76 54
-0.18626688996715596 -0.11577093637250901 -0.8200849197648202 74 61 40
-0.18620479063669845 -0.11654297442577313 -0.8216987171520239 56 44 23
-0.18569545565686613 -0.11847619016015792 -0.8223426216887135 63 52 28
-0.18516603789280217 -0.12046003075870992 -0.822938631537295 91 78 52
-0.1849100027647771 -0.12173341309197322 -0.824125612308966 116 103 75
-0.18453526073241705 -0.12331376497150429 -0.8250516269707157 109 96 66
-0.18431063312865822 -0.12450430531995854 -0.8263030059109412 95 81 52
-0.1834166131193251 -0.12742679118886877 -0.8260854598677831 104 90 62
-0.1850174087510032 -0.12389363854491564 -0.831340563078045 81 67 38
-0.1849677136729175 -0.124632249096128 -0.8329777633640916 80 66 37
-0.1868568575697185 -0.1203624237753845 -0.8388924795825085 82 69 38
-0.18649268058134333 -0.1219161360851431 -0.8398436700697064 102 89 57
-0.1834293271306633 -0.1304325339839557 -0.8348116304943266 117 104 72
-0.18394420179220755 -0.12971333242970753 -0.8376960944620768 110 97 65
-0.18438196890399966 -0.1291946938686092 -0.8404143855195718 93 79 47
-0.18470026221596747 -0.12898533052689243 -0.8428709477598199 107 92 59
-0.18460969248865644 -0.12982934933390797 -0.844417454929556 122 106 73
-0.1846099011207068 -0.13043980416974585 -0.8461669188437224 125 110 73
-0.18464305208762138 -0.1309657853028961 -0.8479908454819288 134 119 80
-0.18489313167449195 -0.13093490717696302 -0.8503034239474447 133 118 85
-0.18541970627642596 -0.13019535287380776 -0.8532419560493926 117 102 72
-0.18546348190908515 -0.1306961492027897 -0.8550957952781107 97 85 60
-0.18589536171668894 -0.1302023991700256 -0.8578288081892762 91 81 60
-0.18601702890300104 -0.13050496396983527 -0.8598630213528309 76 68 51
-0.1860939881299965 -0.13092257920905762 -0.8617973397703859 60 53 39
-0.18545472071402117 -0.1331730890953867 -0.8621020586568032 65 59 46
-0.1845337723453695 -0.1361418831107355 -0.8617585379548052 96 91 80
-0.18379987333686232 -0.13862987688636846 -0.8618345268864369 125 122 117
-0.18335411254038098 -0.1403798659774013 -0.8625642991981426 145 144 143
-0.18225192930733855 -0.14380366582683227 -0.8617832548641665 156 156 156
-0.18266754761897624 -0.14335330263922885 -0.8644843413522574 165 165 165
-0.1594160616128592 -0.1024603920935453 -0.5080678824014757 107 96 84
-0.15932737296327973 -0.10325025157781695 -0.5094791444275611 96 85 71
-0.15895661845769937 -0.10484029779941959 -0.5104861011039035 83 72 58
-0.15803229701206634 -0.1079991144662168 -0.5106949258230276 71 58 44
-0.1575133594938085 -0.11000628184988992 -0.511480174839426 72 59 45
-0.15758750641131405 -0.11033201447426783 -0.5131186044159053 70 57 44
-0.15793409668006547 -0.10988683907580357 -0.5151532080658783 68 55 41
-0.15736483799082937 -0.11203428841265725 -0.5158592597500946 76 61 44
-0.15712207925267963 -0.11325680332905874 -0.517037041371334 73 58 37
-0.15710866588702918 -0.11383050739215278 -0.518548745506774 76 60 37
-0.15732153482048247 -0.11376512816671316 -0.5203929482962892 64 48 29
-0.1575320146459915 -0.11370732020307106 -0.5222359949155855 47 31 20
-0.15777832193347585 -0.11354923804266892 -0.5241342939772973 52 37 28
-0.157856474522495 -0.11386630184305829 -0.5257861670454629 63 49 36
-0.15805803895096032 -0.11383592986446248 -0.5276225625158809 77 62 43
-0.15838299573823542 -0.11345875664069002 -0.5296451080582464 81 66 46
-0.1588491774515704 -0.11268515605700441 -0.5318821159072605 82 67 46
-0.15896784381147377 -0.11289103211909454 -0.5336027635639321 79 66 43
-0.15888387180873795 -0.11366731773870362 -0.5350202338135033 81 69 45
-0.1591752109715276 -0.11338861052847993 -0.5370034438764418 87 75 53
-0.15919951162634624 -0.11386112876543497 -0.538585795305982 72 59 40
-0.15907271926612426 -0.1147580908961445 -0.5399396025429257 84 70 50
-0.15912902964527068 -0.11514102990600061 -0.5415713469345532 96 83 58
-0.1588521307039985 -0.11645877356585757 -0.5426955546179759 91 78 53
-0.15919216752949467 -0.11604661972883862 -0.5447620073577868 88 75 52
-0.15919659679413423 -0.11657583367762317 -0.5463167987886446 93 81 57
-0.1594715933697751 -0.11634770884789103 -0.5482886461414632 93 81 58
-0.15969367199952583 -0.11626868364324772 -0.5501817208911742 79 67 45
-0.16000210392989977 -0.11594902477135735 -0.5522109766755082 86 74 51
-0.1602515406219647 -0.11579539133912586 -0.5541518493164201 89 77 53
-0.1604078550433298 -0.11590283755547998 -0.5559503917111188 93 81 57
-0.1607072136700923 -0.11561157805140784 -0.5579742431164608 89 77 55
-0.1609555214629824 -0.11546387127140217 -0.5599212832964321 98 85 66
-0.1614605127178005 -0.11460129049659734 -0.5622742757620109 94 81 62
-0.16182815674563303 -0.11412327113911908 -0.5644158907935405 92 79 60
-0.16207915763455347 -0.11397149238650003 -0.5663769888176418 94 81 62
-0.1625813317174296 -0.11312140268267293 -0.5687388019521776 90 77 60
-0.16294327320740148 -0.11266324703552896 -0.5708827788250235 85 73 58
-0.16297435319024137 -0.11312647350103613 -0.5725032578008304 85 74 60
-0.16360018454155406 -0.11193698713813638 -0.5750749114287346 87 76 62
-0.16433850354014623 -0.11043718371776995 -0.577832943586057 97 84 69
-0.16488349916267042 -0.10947656416039275 -0.5802874308638748 66 51 35
-0.16501669644081296 -0.1096603821152804 -0.5820836797801213 60 44 27
-0.16661833723808125 -0.1057728489390358 -0.5862546869328226 78 63 41
-0.16690411993538867 -0.10553728734925885 -0.588308193881917 127 113 86
-0.16698081674696927 -0.10588192308084696 -0.5900249793318061 101 86 57
-0.16710184985645415 -0.10610423625482648 -0.5918151874268927 113 96 69
-0.16720746652245988 -0.10636975180559008 -0.5935817769282431 97 78 53
-0.16743366707983898 -0.10630234736205801 -0.5955473934540106 93 75 51
-0.1673647627785821 -0.1070513434979882 -0.5970306349734945 89 72 46
-0.16812510454804608 -0.10550999527492089 -0.599880056597045 88 71 45
-0.16849110968827213 -0.1050597160748312 -0.6020853176906467 89 73 49
-0.16888181034594668 -0.10454263597077562 -0.6043352862235966 87 72 50
-0.16931821192818264 -0.10390095775014205 -0.6066651941035216 90 78 57
-0.16992770129601753 -0.1027838759438309 -0.6092878600743703 88 77 56
-0.17121157889647626 -0.09981164019855765 -0.613042954706423 94 83 60
-0.17236822132979004 -0.09719384545618201 -0.6165970685698217 115 104 77
-0.1728966018697724 -0.09630812033407837 -0.6191070786975205 129 116 86
-0.1731684249382694 -0.09612957750230758 -0.6211903552359975 133 120 88
-0.1728954298672464 -0.09744903455373735 -0.6223567081799748 129 116 83
-0.1736027551191611 -0.0960757821674107 -0.6251807091825722 124 111 77
-0.17361488158674063 -0.0966128987681604 -0.6268315287984525 113 99 72
-0.17462091431394244 -0.09442405834454129 -0.6301746010059014 118 105 77
-0.17473079210409156 -0.0946952098608004 -0.6319979554476235 103 89 63
-0.17505741981985773 -0.0943730523808834 -0.6341936827488495 91 78 52
-0.1757610457585928 -0.09301984072708164 -0.6370396650413596 108 95 69
-0.17599836583936795 -0.09294509797330985 -0.6390904036488727 104 91 66
-0.17619018163209454 -0.09299573500994007 -0.6410653131690576 78 66 41
-0.17643566955861129 -0.09290045153481308 -0.6431352774042404 92 80 54
-0.17695562702848877 -0.09205633925969064 -0.6456838523112453 98 88 63
-0.17757596738546289 -0.09093999426550001 -0.6484121574391923 63 53 33
-0.17904128178970974 -0.08752022498703613 -0.6526193257732842 54 45 27
-0.17988130667441102 -0.08581044992343756 -0.6557476578481407 52 45 26
-0.18121503464137365 -0.0827579938573606 -0.6597491180050756 59 51 35
-0.18297788973287638 -0.07854110952033155 -0.6645170218430514 53 43 33
-0.18390589371707017 -0.07660265422583565 -0.6678312110506603 62 54 45
-0.1847967160373744 -0.07476849245325262 -0.671088714385127 33 28 20
-0.18700475457549748 -0.06935582263834297 -0.6766866401332714 34 30 24
-0.18588263725269072 -0.07299980030749126 -0.6763948451036178 33 27 22
-0.18647416022459595 -0.07198643521822035 -0.6791425166248465 22 15 13
-0.18662704268247673 -0.07216570753436138 -0.6811135973639769 25 19 16
-0.1872687735565239 -0.07101958361351784 -0.6839608870810453 21 15 11
-0.1874049581852934 -0.07124624183940204 -0.6859080798800689 26 20 17
-0.18746000461890644 -0.07169335444584823 -0.6877111770914697 25 19 16
-0.1889599891606692 -0.06822816762802583 -0.6921193395402438 28 21 19
-0.1880076084682145 -0.07140464111420702 -0.6921109050319875 27 22 19
-0.18784159068314665 -0.07245142279991365 -0.6935186426782721 21 16 13
-0.1896066398859726 -0.06827810455893513 -0.6984319962680772 18 13 10
-0.18967727879274413 -0.068687962508339 -0.7002773906330793 19 13 11
-0.18866851166181764 -0.07201245123543992 -0.7001539901071612 20 15 12
-0.18846087656298882 -0.07317224747431597 -0.7014876450182178 21 16 12
-0.18897470346751796 -0.07238603988087233 -0.7041432215333427 22 16 12
-0.18897851157507664 -0.0729761787420109 -0.7058662139011891 19 13 9
-0.18865993523600819 -0.07443483269892592 -0.7069954935367239 39 32 23
-0.188309502468546 -0.07597839977547524 -0.7080635068044744 74 66 54
-0.1877915922299877 -0.07797157757877338 -0.708818574284828 72 65 51
-0.1870884292704889 -0.08046135075902988 -0.7092253811407598 69 63 53
-0.18621139164807943 -0.08341625395495547 -0.7093025594427558 50 46 37
-0.18545639168963798 -0.08604080238022463 -0.7095999673378055 56 50 40
-0.1840271857749386 -0.0904725470102837 -0.7086296192064417 54 47 37
-0.18335778559935315 -0.09286193056841563 -0.7090716487547798 67 58 49
-0.1827758748499788 -0.09501482036804806 -0.7096725316781951 64 56 46
-0.1814463935323446 -0.09916875320930693 -0.7088596874109914 89 81 69
-0.18056674500432873 -0.10211421859810943 -0.7088849801903242 100 90 75
-0.17998956540046152 -0.10424769666609021 -0.7094755246454703 87 75 59
-0.179558293141787 -0.10598931705471987 -0.7103382685624894 103 92 74
-0.17926745391300802 -0.10735441360899403 -0.7114648046691049 104 93 75
-0.17824755933170272 -0.11066602104589898 -0.7111984174063741 100 87 65
-0.17707633618628235 -0.11437847065503629 -0.7106337831327915 114 98 73
-0.17643595977555343 -0.11667117260227042 -0.7110764163949247 126 110 80
-0.17567017716230265 -0.11929633696371283 -0.7112727033844406 166 144 112
-0.17531387083465255 -0.12082815967578209 -0.7122511086356316 97 80 57
-0.1779194697503822 -0.11447177378738752 -0.7189450988405001 82 66 45
-0.17827927385554568 -0.1141006577585886 -0.7213174474027747 92 76 50
-0.17799495989028563 -0.11544402126859205 -0.7224441289115099 90 73 45
-0.17794439041283783 -0.11616534059657124 -0.7240232075226564 111 94 66
-0.1783430873463414 -0.11569322559668344 -0.7264779848652076 114 97 68
-0.17883328305207497 -0.11497966314428937 -0.7291157122335629 134 118 86
-0.17735863509749583 -0.119481010849211 -0.7279107152250845 145 125 90
-0.18076530764616217 -0.11103447729928687 -0.7362742579452556 137 117 85
-0.18174226680088543 -0.10903782687188199 -0.7398892207971873 119 101 75
-0.182935191997784 -0.10647255776212464 -0.743939643816871 103 86 60
-0.1841732361375376 -0.1037919083096592 -0.7480907983182316 112 96 65
-0.18646417496439766 -0.09833039943865995 -0.7543401209432571 121 105 73
-0.18872278488603106 -0.09296194671824085 -0.7605469424718219 92 77 46
-0.19565573746099368 -0.07834104394251162 -0.784909250324099 177 162 122
-0.19486377404706315 -0.08104403493557555 -0.7850781705326856 189 172 133
-0.19477865032834799 -0.08188526521391454 -0.7866702681747638 183 164 126
-0.19313043074050396 -0.08683568304293232 -0.7850926336458887 183 169 125
-0.19176313120148852 -0.09104287646248144 -0.7840711741819738 197 183 139
-0.1916998256030638 -0.09182193820023538 -0.7856937645698012 188 176 131
-0.19536481231935626 -0.08281770265157784 -0.7949280272098984 171 157 113
-0.19381619761506524 -0.0874979172162893 -0.7935285000051784 153 139 96
-0.19294355869354457 -0.09040168143079164 -0.7935014891810086 137 123 84
-0.1925537662919679 -0.09203813091758212 -0.7944594220081029 97 84 53
-0.1920511337293877 -0.0939688678377193 -0.7951817990642777 58 46 20
-0.1917531113085848 -0.09536291057527929 -0.7963225278815178 58 45 26
-0.19166477114817082 -0.09620799677933167 -0.7978949567680323 54 42 23
-0.19172131150338995 -0.09667445615460635 -0.7997676024450076 45 33 16
-0.1919887057212512 -0.09659073580871641 -0.802079630926091 65 53 35
-0.19183640935073906 -0.09760322736096166 -0.8035202860785322 87 75 54
-0.18880403165391932 -0.10612609151266436 -0.7989461870013923 111 99 72
-0.18914467119166664 -0.10584859962339824 -0.801403263630459 125 112 82
-0.18906289165509438 -0.1066726133459614 -0.802978063239256 139 123 97
-0.18811314985745065 -0.10975577773816428 -0.8027281235375103 98 85 61
-0.1881244615304033 -0.11033606063071474 -0.804494541153442 83 70 47
-0.18734599566902216 -0.11296971342510392 -0.8045940731161954 73 58 33
-0.1874121813748588 -0.11340659133947192 -0.8064742027799692 94 78 52
-0.18748793728113308 -0.11381902386599985 -0.8083757786480504 114 99 65
-0.18738303596230305 -0.11470065168514423 -0.8098946298736195 139 123 83
-0.1876895061787023 -0.11451538696413441 -0.8122892760269631 155 141 106
-0.18752980955917634 -0.11553937642645867 -0.8136921844937693 102 88 58
-0.18755646732663805 -0.11608040024409869 -0.8154928197082439 80 66 39
-0.18778061805747936 -0.11611054297591025 -0.8177176746761267 79 64 39
-0.18806390079911103 -0.11598865585906534 -0.8200722181542535 90 76 49
-0.18891450654607417 -0.11440138130176791 -0.8236516210912788 82 70 44
-0.18860647998247698 -0.11581018822328398 -0.8247390937474979 68 58 32
-0.1881104099865169 -0.11770364247617388 -0.8254175302272299 60 48 27
-0.18771760214030025 -0.1193292401019026 -0.8263156762110022 80 67 42
-0.1872296493305876 -0.12119906113423395 -0.8270040163801831 114 100 73
-0.18699107120328184 -0.12242489151281172 -0.828231162575181 119 105 76
-0.18662024379485218 -0.12399068620396492 -0.8291681111020058 101 87 56
-0.18725354350266488 -0.12297134482655148 -0.8322973092513836 94 80 51
-0.18797886029228605 -0.12171761366239642 -0.8356345741081622 87 73 44
-0.18791540582898358 -0.12249375514178903 -0.8372473978201922 92 78 49
-0.18674018895026454 -0.126125512758572 -0.8364140345492563 92 78 49
-0.18705174945945363 -0.12593715440646974 -0.8388484072547435 114 100 71
-0.18704473157075827 -0.12656725093251608 -0.840582306570403 127 113 83
-0.18690011230823278 -0.12755027319486123 -0.8420119865719325 137 122 90
-0.1872128603111986 -0.12736123383014694 -0.8444557432130451 115 100 67
-0.18710388651381984 -0.12825316854446533 -0.8459651952374098 128 113 78
-0.18714843144666243 -0.12875212314104825 -0.8478162617539261 135 119 82
-0.18700420182442415 -0.12973412221460145 -0.8492467351128604 132 117 78
-0.18721145847552062 -0.12981763895090995 -0.8514629440310603 127 111 77
-0.1875638330454948 -0.12953142709777718 -0.854007066677145 120 105 74
-0.18791611675639314 -0.12924679566381492 -0.856554839350846 98 87 61
-0.1880074744279456 -0.129629001661431 -0.8585188879098551 110 98 79
-0.1880988917991599 -0.13001154568431358 -0.8604844721850602 68 58 44
-0.1882741226220188 -0.13018109122842672 -0.8626409871431624 47 41 30
-0.18806467828745424 -0.13133061211581748 -0.8639280118001248 78 74 63
-0.18691026480641387 -0.13488353740008466 -0.8630678331581462 111 107 100
-0.18601320362989132 -0.1377785923006713 -0.862782908751317 138 135 133
-0.18512782135087574 -0.1406412062654734 -0.8625166985759989 153 151 153
-0.18445460891584603 -0.14357341682756564 -0.8644737911846829 168 168 168
-0.18481021456888333 0.0010453934535335774 -0.4375690662206213 97 86 63
-0.16366658684221289 -0.09575787676759714 -0.5133133287555419 88 80 69
-0.16332335836770812 -0.09727006484650913 -0.5143738571174428 115 106 94
-0.16252128578841685 -0.10007617383572193 -0.5147757192330502 103 91 78
-0.16179159458518186 -0.10267580773956131 -0.5152747418930042 98 86 72
-0.16090819424492292 -0.10570661170811824 -0.5155466012147221 95 83 69
-0.16079234238700854 -0.10657244127241466 -0.5169187843214471 90 79 64
-0.16072556081088138 -0.10729990357555158 -0.5183614325998983 77 65 47
-0.15999168605018932 -0.10990461996040626 -0.5188352877117077 84 69 47
-0.16001688391790958 -0.11037224863303957 -0.520408671752835 78 64 41
-0.16005036337696554 -0.11081683665552391 -0.5219948373715547 70 58 37
-0.15960879103516765 -0.11259633746610773 -0.5228856211737228 50 36 24
-0.15932768378314535 -0.11392404961784153 -0.5240087945023134 52 37 29
-0.15951739741841517 -0.11392975283255166 -0.5258240523845952 62 48 35
-0.15937353502307858 -0.11487182284059244 -0.5271481846066545 83 68 49
-0.15946585767074697 -0.11515152124625061 -0.5288218030368483 79 64 45
-0.1606143648800268 -0.11247257689267623 -0.5320679317136443 77 62 41
-0.16068188240564663 -0.1128242793926851 -0.533711806006077 84 69 46
-0.16057535904171152 -0.11366341787030271 -0.535096281055901 85 70 49
-0.16089438417932558 -0.11331212765955645 -0.5371190218409547 72 56 39
-0.1611906310019673 -0.11302567126565122 -0.5391107765726508 86 70 51
-0.16115126504197488 -0.1136779616417529 -0.5405988834792195 89 77 54
-0.161031424376225 -0.11455500123440898 -0.5419652315665792 88 76 51
-0.1611719102509722 -0.11470532341451858 -0.5437263710556302 90 78 55
-0.16126424417212348 -0.11499055176007125 -0.5454158768251502 92 80 57
-0.16131847041440764 -0.11538246094139057 -0.5470484501261306 89 77 53
-0.16148246400100702 -0.11546888498008698 -0.548850162341906 85 73 50
-0.1618787632897316 -0.11490913339898179 -0.5510107918802585 82 70 48
-0.16216997241265602 -0.11464324316340635 -0.5530134643377129 102 91 66
-0.16207436893101504 -0.11545429031378704 -0.5544213260896533 110 99 75
-0.16240151418016024 -0.11509005039985623 -0.5564841130925046 104 93 69
-0.1629177218441004 -0.1142017427401181 -0.5588442090637814 89 77 55
-0.16287585888455552 -0.11486478388612978 -0.5603393166507366 87 72 53
-0.16336246432198764 -0.11406131471778663 -0.5626608040497193 88 73 54
-0.16368944759423934 -0.11370225024978631 -0.5647368239269631 102 87 68
-0.1638350584701285 -0.11384713013327183 -0.56653103153732 96 83 64
-0.16425550997416444 -0.11323122040062286 -0.5687604325019956 97 84 66
-0.1645563411488017 -0.11294800071680158 -0.5708048953111333 96 85 68
-0.1643032061542532 -0.11419884383249002 -0.571973962756251 89 77 63
-0.16515685547210826 -0.11238806632992868 -0.5749014974805029 95 82 68
-0.1659491849473317 -0.11074963062386758 -0.5777393600259162 97 82 67
-0.1667072221796808 -0.10920858457394936 -0.5805299567986151 69 53 37
-0.167180402353611 -0.10845656310574911 -0.5828709505018804 66 50 34
-0.16734976418586245 -0.10854454424436619 -0.584728011167025 81 66 44
-0.16859742504146513 -0.1056594944274766 -0.5883262265150754 98 84 56
-0.16880516401241613 -0.10564479637415464 -0.5902541940709308 111 97 68
-0.16901325754933968 -0.10562994318656779 -0.592185081145653 100 84 58
-0.1690765839656486 -0.10601446766140377 -0.5938828747046019 82 65 40
-0.1693619962439547 -0.10578829047367572 -0.5959439044611705 78 61 40
-0.16962441311841028 -0.10562641629895819 -0.5979703748712069 58 40 22
-0.17010298570771187 -0.10487146679696263 -0.600354147275878 64 46 27
-0.17053681422319156 -0.10424109651478589 -0.602669132255214 81 64 44
-0.17105273271381963 -0.10338691066598366 -0.6051238573426074 93 78 58
-0.17157031780901058 -0.1025299492116124 -0.6075864656448822 95 83 62
-0.17219015358272552 -0.10139441572473581 -0.6102237353776029 93 82 58
-0.1735773521264784 -0.09815808425148465 -0.6141427040101114 104 93 66
-0.17518938392723366 -0.09488081757879804 -0.6200768676054776 128 113 81
-0.1748319058477722 -0.09642925234977626 -0.6211057072037807 124 109 76
-0.1745520608786763 -0.09776446893155952 -0.6222622652000327 134 120 86
-0.17492502847950947 -0.09731512513676618 -0.6245167127908615 146 132 96
-0.17512508814576344 -0.0973393396114697 -0.6264829025931836 118 103 73
-0.17617225089834035 -0.09505228225522752 -0.6298863228950727 103 88 59
-0.17626204727950198 -0.09538022424094508 -0.6316736553215831 107 92 64
-0.17679594655209016 -0.09449789784856774 -0.6342185825188827 111 97 70
-0.17771501484300695 -0.09256798681853734 -0.6374264969797725 111 97 70
-0.1779132720276405 -0.09260397132160597 -0.6394091819074765 98 83 60
-0.17819634465195813 -0.09240993438323689 -0.641539742187836 80 67 44
-0.17840543762145078 -0.0924181847483374 -0.643546035641598 99 87 62
-0.17879040165510707 -0.0919492008368698 -0.6458581951390282 95 85 62
-0.17976575573868375 -0.08987768860213771 -0.6491957682461962 59 49 30
-0.18102550563491443 -0.0870372730947909 -0.6530359895005986 54 45 28
-0.1818242534876917 -0.08545198009685825 -0.6560863650641879 63 56 37
-0.1831661917755383 -0.08239628901441146 -0.6600916297026422 56 48 31
-0.18458978148280178 -0.0791237298389981 -0.6642523013531707 40 31 19
-0.1859817893888876 -0.07594141765647389 -0.6683710267661707 60 51 41
-0.1878279444466017 -0.07153424235706982 -0.6733009448119383 40 31 21
-0.18880449074195316 -0.0694859293788844 -0.6767160254547833 53 44 34
-0.18791114164275952 -0.07249712240306541 -0.6768375819384906 29 21 14
-0.1887448604694604 -0.07083838554105154 -0.6800099920068932 24 15 12
-0.18894622510572767 -0.0708903629892684 -0.6820677817771451 40 31 26
-0.1892848247821452 -0.07057273051097898 -0.6843721874710369 34 26 19
-0.18922054116195752 -0.07134319371963344 -0.6859612318694965 24 17 11
-0.18975294380632327 -0.07050493200846564 -0.6886177116779499 19 12 9
-0.19046484626926571 -0.06918489042166676 -0.6916014961556355 22 15 12
-0.19023527057632011 -0.07040257738497663 -0.6928993519890208 33 26 23
-0.19013886905525576 -0.07126130488437127 -0.6944357086075379 26 19 16
-0.19092637237471596 -0.06974248138621622 -0.6975691362712644 22 15 12
-0.19147552153553923 -0.0688670675565144 -0.7002783983572466 23 17 14
-0.19033987513974215 -0.07251978054245017 -0.6999330054347417 23 17 14
-0.19058857466321857 -0.0724522228065205 -0.7020985441815311 22 17 12
-0.1908037205265746 -0.07247567485238324 -0.7042056150168737 27 21 16
-0.19122403561987616 -0.07194979176059613 -0.7066906257388184 29 21 14
-0.1908697771447636 -0.07350137459774322 -0.7077589790689239 59 51 38
-0.19027690127791697 -0.07569114707818425 -0.7083857746277231 85 76 59
-0.18970416616205213 -0.07782529162926546 -0.7090448154680651 97 89 71
-0.1889089897800151 -0.080552887464625 -0.709288023641402 69 60 49
-0.18790514616223708 -0.08383603899539349 -0.7091378728653998 61 53 46
-0.18707465980204782 -0.08665292974105132 -0.7093010650050755 66 58 49
-0.18597857849059038 -0.09017661981988759 -0.708962668433118 53 46 36
-0.1850802302115054 -0.0931692490872994 -0.7089838453660668 69 60 50
-0.1850330401667806 -0.09388887412481733 -0.7105899080556513 72 64 53
-0.18350000487203214 -0.09856936724348006 -0.7094091364881765 85 77 64
-0.18349805728774482 -0.09916613828128149 -0.7110936357664264 86 78 62
-0.18256766467771535 -0.10223507686993477 -0.7110287074206637 102 93 76
-0.18159906960603128 -0.10540286539476235 -0.7108836012776553 105 95 76
-0.1814538805441549 -0.10637803949342656 -0.7122896202545262 105 94 73
-0.18084911094523198 -0.10857435384399394 -0.712822300147634 103 89 66
-0.17882887310080697 -0.11452852655927753 -0.7106561885299082 116 100 73
