ply
format ascii 1.0
element vertex 863
property float x
property float y
property float z
property float nx
property float ny
property float nz
property uchar diffuse_red
property uchar diffuse_green
property uchar diffuse_blue
property uchar class
property uchar detection
end_header
-0.0227 0.0659 -0.4604 0.908 -0.299 -0.292 119 103 77 0 0
-0.0450 0.0719 -0.5463 0.795 -0.255 -0.551 201 204 209 0 0
0.0276 0.0446 -0.6263 0.734 -0.679 0.036 52 44 32 0 0
0.0276 0.0445 -0.6283 0.734 -0.679 0.036 51 42 27 0 0
0.0277 0.0445 -0.6303 0.820 -0.569 -0.066 59 49 34 0 0
0.0245 0.0447 -0.6691 0.857 -0.501 0.122 119 100 66 0 0
0.0242 0.0448 -0.6713 0.872 -0.439 0.216 138 119 78 0 0
0.0241 0.0443 -0.6965 0.897 -0.053 0.439 110 92 64 0 0
0.0270 0.0431 -0.7030 0.954 -0.137 0.266 118 102 68 0 0
0.0256 0.0435 -0.7082 0.804 -0.487 0.341 126 109 76 0 0
0.0278 0.0425 -0.7216 0.940 -0.295 0.171 44 36 22 0 0
0.0281 0.0423 -0.7235 0.940 -0.295 0.171 45 40 32 0 0
0.0303 0.0412 -0.7391 0.981 -0.173 0.091 121 101 67 0 0
0.0307 0.0407 -0.7539 0.876 -0.416 0.243 150 129 94 0 0
0.0311 0.0405 -0.7558 0.876 -0.416 0.243 146 123 87 0 0
0.0316 0.0403 -0.7576 0.876 -0.416 0.243 141 120 79 0 0
0.0318 0.0402 -0.7596 0.927 -0.346 0.143 151 132 89 0 0
0.0336 0.0396 -0.7605 0.965 -0.005 0.261 156 137 96 0 0
0.0344 0.0392 -0.7642 0.894 -0.262 0.364 154 135 93 0 0
0.0361 0.0383 -0.7783 0.932 -0.183 0.313 163 143 98 0 0
0.0355 0.0381 -0.7987 0.927 -0.374 0.037 159 141 96 0 0
0.0354 0.0379 -0.8099 0.905 -0.425 -0.002 168 149 106 0 0
0.0361 0.0374 -0.8206 0.866 -0.459 0.197 163 143 99 0 0
0.0359 0.0374 -0.8230 0.896 -0.428 0.116 155 139 94 0 0
0.0343 0.0377 -0.8334 0.982 -0.156 0.105 167 149 103 0 0
0.0377 0.0478 -0.2377 0.934 -0.156 0.323 178 178 181 0 0
0.0377 0.0478 -0.2392 0.750 0.617 0.239 178 178 180 0 0
0.0480 0.0438 -0.2552 0.906 -0.071 0.418 43 30 20 0 0
0.0490 0.0434 -0.2580 0.979 -0.167 0.115 40 26 15 0 0
0.0500 0.0430 -0.2609 0.851 -0.399 0.342 38 24 13 0 0
0.0496 0.0429 -0.2672 0.994 0.088 0.064 51 35 19 0 0
0.0530 0.0410 -0.3025 0.776 -0.437 0.456 79 52 27 0 0
0.0537 0.0407 -0.3039 0.776 -0.437 0.456 76 49 22 0 0
0.0488 0.0421 -0.3166 0.919 -0.385 0.082 107 83 52 0 0
0.0493 0.0419 -0.3197 0.964 -0.260 0.061 115 92 60 0 0
0.0494 0.0418 -0.3213 0.964 -0.260 0.061 133 115 76 0 0
0.0488 0.0420 -0.3247 0.983 -0.149 0.109 124 106 68 0 0
0.0516 0.0409 -0.3287 0.332 -0.258 0.908 115 102 67 0 0
0.0453 0.0430 -0.3340 0.480 -0.677 -0.557 100 90 75 0 0
-0.0181 0.0638 -0.3960 0.855 -0.465 0.230 123 107 80 0 0
-0.0194 0.0639 -0.4127 0.963 -0.270 0.014 108 89 62 0 0
-0.0201 0.0640 -0.4221 0.955 -0.298 0.006 129 115 84 0 0
-0.0209 0.0640 -0.4352 0.986 -0.159 0.058 104 88 63 0 0
-0.0218 0.0639 -0.4503 0.876 -0.417 0.240 101 87 61 0 0
-0.0224 0.0641 -0.4543 0.950 -0.307 -0.050 89 75 48 0 0
-0.0220 0.0633 -0.4824 0.976 -0.065 0.208 71 53 32 0 0
0.0234 0.0432 -0.6694 0.940 -0.231 0.250 142 126 93 0 0
0.0233 0.0432 -0.6716 0.958 -0.050 0.282 148 131 91 0 0
0.0277 0.0406 -0.7212 0.875 -0.207 0.438 30 26 14 0 0
0.0308 0.0392 -0.7361 0.912 0.026 0.410 110 93 65 0 0
0.0321 0.0386 -0.7394 0.922 -0.047 0.385 145 124 82 0 0
0.0329 0.0380 -0.7540 0.862 -0.427 0.274 157 134 96 0 0
0.0342 0.0373 -0.7639 0.920 -0.362 0.152 154 134 92 0 0
0.0348 0.0369 -0.7744 0.920 -0.351 0.174 168 146 105 0 0
0.0354 0.0361 -0.8027 0.940 -0.193 0.281 169 151 107 0 0
0.0347 0.0360 -0.8167 0.937 -0.344 0.064 137 111 76 0 0
0.0349 0.0358 -0.8211 0.937 -0.344 0.064 156 135 93 0 0
0.0356 0.0355 -0.8228 0.866 -0.459 0.197 156 140 96 0 0
0.0352 0.0356 -0.8253 0.905 -0.418 0.077 159 142 99 0 0
0.0468 0.0427 -0.2507 0.873 0.003 0.487 60 47 32 0 0
0.0492 0.0417 -0.2578 0.939 -0.205 0.275 39 25 14 0 0
0.0496 0.0415 -0.2593 0.939 -0.205 0.275 40 26 14 0 0
0.0519 0.0399 -0.2962 0.950 -0.198 0.242 77 46 23 0 0
0.0517 0.0398 -0.3027 0.925 -0.353 0.138 81 51 27 0 0
0.0478 0.0408 -0.3167 0.929 -0.342 0.139 118 93 63 0 0
0.0484 0.0405 -0.3198 0.961 -0.247 0.128 118 96 63 0 0
0.0488 0.0404 -0.3213 0.892 -0.447 0.067 136 118 78 0 0
0.0483 0.0405 -0.3247 0.946 -0.324 0.025 127 109 67 0 0
0.0501 0.0398 -0.3257 0.588 0.050 0.807 131 115 72 0 0
0.0485 0.0403 -0.3295 0.209 -0.080 0.975 106 93 63 0 0
-0.0226 0.0624 -0.4504 0.850 -0.482 0.212 95 80 54 0 0
-0.0229 0.0624 -0.4543 0.931 -0.364 -0.027 104 90 63 0 0
-0.0242 0.0625 -0.4698 0.958 -0.284 0.046 81 65 42 0 0
-0.0241 0.0624 -0.4717 0.990 -0.106 0.089 94 79 56 0 0
-0.0224 0.0616 -0.4803 0.968 -0.063 0.243 76 58 37 0 0
-0.0231 0.0618 -0.4825 0.819 -0.452 0.353 78 60 38 0 0
-0.0322 0.0640 -0.5274 0.815 -0.261 -0.518 70 68 68 0 0
0.0233 0.0407 -0.6984 0.889 -0.268 0.371 60 47 26 0 0
0.0237 0.0403 -0.7129 0.763 -0.548 0.343 145 127 86 0 0
0.0294 0.0378 -0.7345 0.959 0.003 0.283 86 76 52 0 0
0.0306 0.0373 -0.7358 0.899 0.044 0.435 102 86 54 0 0
0.0314 0.0370 -0.7374 0.912 0.026 0.410 129 109 69 0 0
0.0325 0.0363 -0.7495 0.960 -0.266 0.083 150 128 89 0 0
0.0346 0.0344 -0.8029 0.936 -0.301 0.184 166 148 105 0 0
0.0349 0.0342 -0.8049 0.952 -0.276 0.129 173 154 111 0 0
0.0344 0.0340 -0.8210 0.866 -0.459 0.197 158 139 97 0 0
0.0343 0.0340 -0.8233 0.896 -0.428 0.116 145 130 85 0 0
0.0345 0.0339 -0.8254 0.905 -0.418 0.077 153 136 93 0 0
0.0345 0.0339 -0.8277 0.837 -0.546 0.037 163 144 101 0 0
0.0329 0.0342 -0.8381 0.952 -0.295 -0.088 162 145 100 0 0
0.0486 0.0404 -0.2547 0.920 -0.162 0.358 43 28 20 0 0
0.0514 0.0382 -0.3042 0.892 -0.146 0.429 84 52 27 0 0
0.0475 0.0395 -0.3086 0.900 -0.430 0.068 84 57 31 0 0
0.0470 0.0395 -0.3168 0.842 -0.527 0.115 122 98 67 0 0
0.0476 0.0391 -0.3231 0.860 -0.508 -0.052 133 115 75 0 0
0.0478 0.0390 -0.3246 0.915 -0.403 0.033 132 115 75 0 0
-0.0205 0.0616 -0.3733 0.610 -0.421 0.671 97 89 78 0 0
-0.0181 0.0604 -0.3901 0.940 -0.314 -0.132 89 76 50 0 0
-0.0181 0.0603 -0.3919 0.927 -0.373 -0.040 106 91 65 0 0
-0.0209 0.0609 -0.4091 0.969 -0.233 0.078 119 102 74 0 0
-0.0212 0.0609 -0.4129 0.976 -0.196 0.094 111 94 65 0 0
-0.0261 0.0619 -0.4442 0.928 -0.298 0.222 111 94 68 0 0
-0.0258 0.0618 -0.4459 0.928 -0.298 0.222 115 100 73 0 0
-0.0254 0.0616 -0.4476 0.928 -0.298 0.222 93 78 52 0 0
-0.0254 0.0615 -0.4494 0.977 -0.192 0.091 108 92 68 0 0
-0.0232 0.0608 -0.4504 0.876 -0.417 0.240 83 67 40 0 0
-0.0380 0.0638 -0.5398 0.727 0.651 0.218 203 206 211 0 0
0.0224 0.0392 -0.6964 0.909 -0.328 0.259 78 64 44 0 0
0.0228 0.0390 -0.6982 0.909 -0.328 0.259 68 56 38 0 0
0.0244 0.0383 -0.7056 0.843 -0.328 0.426 124 107 74 0 0
0.0274 0.0368 -0.7248 0.874 -0.353 0.333 63 56 45 0 0
0.0279 0.0365 -0.7265 0.874 -0.353 0.333 41 37 29 0 0
0.0327 0.0341 -0.7576 0.972 -0.143 0.189 150 129 90 0 0
0.0339 0.0327 -0.8029 0.906 -0.373 0.199 166 149 105 0 0
0.0345 0.0324 -0.8047 0.946 -0.262 0.190 173 156 110 0 0
0.0352 0.0321 -0.8086 0.980 -0.096 0.173 168 153 107 0 0
0.0355 0.0319 -0.8106 0.980 -0.096 0.173 159 144 99 0 0
0.0356 0.0319 -0.8128 0.954 -0.285 0.094 159 143 99 0 0
0.0343 0.0321 -0.8228 0.924 -0.347 0.161 163 145 101 0 0
0.0478 0.0391 -0.2532 0.939 -0.086 0.332 51 34 20 0 0
0.0464 0.0382 -0.3087 0.911 -0.277 0.306 91 61 36 0 0
0.0466 0.0377 -0.3248 0.799 -0.590 0.116 128 110 76 0 0
0.0492 0.0368 -0.3256 0.393 -0.646 0.654 125 106 73 0 0
-0.0257 0.0599 -0.4475 0.976 -0.135 0.173 106 90 63 0 0
-0.0242 0.0593 -0.4505 0.936 -0.298 0.187 115 98 70 0 0
-0.0232 0.0578 -0.4992 0.840 -0.463 0.283 55 42 28 0 0
-0.0223 0.0574 -0.5007 0.683 -0.304 0.664 58 47 34 0 0
-0.0350 0.0610 -0.5340 0.978 -0.084 0.191 184 185 188 0 0
0.0188 0.0387 -0.6858 0.842 -0.522 0.137 94 77 53 0 0
0.0194 0.0384 -0.6896 0.905 -0.416 0.094 80 66 37 0 0
0.0285 0.0343 -0.7321 0.955 -0.197 0.222 46 33 26 0 0
0.0289 0.0341 -0.7340 0.898 -0.405 0.170 74 58 35 0 0
0.0295 0.0337 -0.7443 0.927 -0.271 0.258 160 137 104 0 0
0.0323 0.0324 -0.7574 0.970 -0.114 0.214 153 131 92 0 0
0.0327 0.0321 -0.7614 0.968 -0.225 0.115 160 140 97 0 0
0.0332 0.0309 -0.8030 0.906 -0.373 0.199 164 145 102 0 0
0.0343 0.0305 -0.8043 0.972 -0.195 0.133 172 154 107 0 0
0.0353 0.0301 -0.8103 0.926 -0.249 0.282 156 142 95 0 0
0.0318 0.0307 -0.8334 0.928 -0.321 0.187 151 132 89 0 0
0.0190 0.0341 -0.8765 0.979 -0.080 0.190 144 140 137 0 0
0.0465 0.0380 -0.2503 0.924 -0.180 0.337 65 49 26 0 0
0.0459 0.0367 -0.3103 0.841 -0.058 0.537 105 83 51 0 0
0.0469 0.0363 -0.3116 0.732 -0.016 0.682 99 77 44 0 0
0.0467 0.0363 -0.3132 0.970 -0.214 0.115 106 82 47 0 0
0.0464 0.0364 -0.3149 0.961 -0.271 -0.062 128 106 69 0 0
0.0457 0.0364 -0.3249 0.704 -0.710 0.014 143 127 88 0 0
-0.0184 0.0569 -0.3915 0.823 -0.568 0.018 99 85 59 0 0
-0.0213 0.0575 -0.4088 0.936 -0.343 0.077 109 92 64 0 0
-0.0251 0.0581 -0.4376 0.951 -0.310 0.008 126 109 79 0 0
-0.0262 0.0582 -0.4492 0.970 -0.082 0.228 94 77 49 0 0
-0.0258 0.0580 -0.4509 0.970 -0.082 0.228 109 92 64 0 0
-0.0256 0.0575 -0.4696 0.870 0.052 0.489 84 68 43 0 0
-0.0233 0.0559 -0.4989 0.933 -0.361 -0.002 58 42 27 0 0
-0.0233 0.0559 -0.5008 0.933 -0.361 -0.002 58 45 30 0 0
0.0195 0.0369 -0.6745 0.991 -0.114 -0.066 74 58 41 0 0
0.0284 0.0322 -0.7425 0.935 -0.201 0.291 149 127 89 0 0
0.0289 0.0319 -0.7443 0.935 -0.201 0.291 157 136 96 0 0
0.0293 0.0317 -0.7461 0.889 -0.156 0.430 157 135 93 0 0
0.0324 0.0304 -0.7590 0.970 -0.114 0.214 137 116 76 0 0
0.0323 0.0303 -0.7613 0.968 -0.225 0.115 160 140 99 0 0
0.0332 0.0292 -0.7936 0.917 -0.394 0.059 158 136 95 0 0
0.0330 0.0291 -0.8027 0.908 -0.318 0.274 159 138 95 0 0
0.0340 0.0287 -0.8041 0.978 -0.082 0.191 166 146 99 0 0
0.0312 0.0289 -0.8334 0.948 -0.243 0.204 151 133 89 0 0
0.0276 0.0297 -0.8547 0.759 -0.628 0.171 37 33 23 0 0
0.0192 0.0320 -0.8758 0.991 0.022 0.130 143 139 136 0 0
0.0461 0.0365 -0.2502 0.924 -0.180 0.337 75 58 37 0 0
0.0457 0.0351 -0.3101 0.841 -0.058 0.537 112 91 58 0 0
0.0466 0.0348 -0.3114 0.784 -0.008 0.621 94 68 38 0 0
0.0474 0.0345 -0.3128 0.857 0.076 0.510 112 87 55 0 0
0.0446 0.0351 -0.3251 0.688 -0.699 0.196 152 138 97 0 0
-0.0256 0.0580 -0.3725 0.341 -0.511 0.789 107 99 92 0 0
-0.0196 0.0554 -0.3953 0.896 -0.408 0.173 98 82 56 0 0
-0.0223 0.0559 -0.4143 0.956 -0.280 0.085 109 90 62 0 0
-0.0230 0.0560 -0.4182 0.976 0.000 0.216 120 103 71 0 0
-0.0256 0.0564 -0.4376 0.951 -0.310 0.008 123 106 77 0 0
-0.0256 0.0564 -0.4394 0.951 -0.310 0.008 114 97 69 0 0
-0.0275 0.0555 -0.4986 0.972 -0.186 0.143 84 70 46 0 0
-0.0244 0.0544 -0.5010 0.821 -0.565 0.080 59 46 29 0 0
-0.0155 0.0476 -0.6526 0.984 -0.169 0.052 47 42 35 0 0
-0.0144 0.0471 -0.6540 0.922 -0.303 0.240 30 26 22 0 0
-0.0140 0.0470 -0.6558 0.922 -0.303 0.240 31 27 23 0 0
0.0310 0.0294 -0.7380 0.961 -0.250 0.123 135 115 74 0 0
0.0288 0.0300 -0.7460 0.858 -0.362 0.364 153 132 92 0 0
0.0301 0.0293 -0.7538 0.932 -0.130 0.338 153 129 88 0 0
0.0313 0.0288 -0.7572 0.910 -0.244 0.334 156 137 95 0 0
0.0321 0.0282 -0.7741 0.911 -0.292 0.290 145 127 89 0 0
0.0326 0.0279 -0.7759 0.911 -0.292 0.290 138 122 80 0 0
0.0250 0.0285 -0.8564 0.795 -0.606 -0.027 37 34 24 0 0
0.0249 0.0285 -0.8588 0.795 -0.606 -0.027 15 15 13 0 0
0.0245 0.0286 -0.8614 0.851 -0.511 -0.124 17 16 14 0 0
0.0461 0.0349 -0.2500 0.930 -0.264 0.256 69 54 34 0 0
0.0479 0.0334 -0.2838 0.968 -0.245 0.048 64 36 22 0 0
0.0479 0.0334 -0.2854 0.968 -0.245 0.048 53 26 15 0 0
0.0456 0.0335 -0.3083 0.917 0.006 0.398 99 73 41 0 0
0.0436 0.0338 -0.3252 0.760 -0.623 0.187 146 131 91 0 0
-0.0209 0.0541 -0.3937 0.962 -0.233 0.144 73 57 37 0 0
-0.0206 0.0540 -0.3954 0.962 -0.233 0.144 83 67 45 0 0
-0.0223 0.0542 -0.4086 0.951 -0.229 0.209 125 105 77 0 0
-0.0234 0.0543 -0.4181 0.947 -0.243 0.210 118 101 69 0 0
-0.0271 0.0544 -0.4640 0.914 -0.223 0.339 72 55 30 0 0
-0.0255 0.0538 -0.4689 0.962 -0.216 0.165 96 78 54 0 0
-0.0252 0.0536 -0.4707 0.962 -0.216 0.165 105 90 66 0 0
-0.0256 0.0537 -0.4727 0.979 -0.172 0.113 89 75 50 0 0
-0.0252 0.0535 -0.4764 0.925 -0.068 0.373 76 59 38 0 0
-0.0273 0.0538 -0.4925 0.976 -0.100 0.195 90 75 49 0 0
-0.0264 0.0498 -0.6337 0.841 -0.161 0.517 77 70 60 0 0
-0.0255 0.0495 -0.6352 0.841 -0.161 0.517 85 78 68 0 0
-0.0246 0.0492 -0.6368 0.841 -0.161 0.517 84 77 67 0 0
-0.0238 0.0488 -0.6384 0.862 0.002 0.507 80 73 64 0 0
-0.0176 0.0466 -0.6430 0.815 -0.153 0.559 40 36 31 0 0
-0.0174 0.0465 -0.6449 0.934 -0.043 0.355 29 24 20 0 0
-0.0158 0.0458 -0.6481 0.989 0.096 0.110 36 28 24 0 0
-0.0154 0.0457 -0.6500 0.999 0.047 0.015 61 54 46 0 0
-0.0155 0.0456 -0.6521 0.998 -0.061 0.012 61 54 45 0 0
-0.0145 0.0453 -0.6536 0.943 -0.202 0.263 54 48 42 0 0
-0.0129 0.0446 -0.6568 0.860 0.011 0.511 34 30 25 0 0
-0.0122 0.0444 -0.6585 0.896 0.082 0.437 27 24 19 0 0
0.0204 0.0315 -0.7258 0.775 -0.119 0.620 131 120 103 0 0
0.0297 0.0276 -0.7536 0.903 -0.098 0.419 148 127 89 0 0
0.0304 0.0273 -0.7553 0.932 -0.130 0.338 151 130 91 0 0
0.0308 0.0271 -0.7571 0.910 -0.244 0.334 154 132 90 0 0
0.0328 0.0253 -0.8018 0.922 -0.370 0.118 164 145 103 0 0
0.0330 0.0251 -0.8039 0.922 -0.370 0.118 154 135 95 0 0
0.0246 0.0267 -0.8562 0.922 -0.387 0.018 38 34 25 0 0
0.0246 0.0266 -0.8585 0.922 -0.387 0.018 16 16 15 0 0
0.0244 0.0266 -0.8610 0.966 -0.253 0.048 19 18 16 0 0
0.0287 0.0399 -0.2233 0.708 0.423 0.566 168 164 153 0 0
0.0453 0.0330 -0.2702 0.977 -0.076 0.200 88 67 38 0 0
0.0476 0.0318 -0.2853 0.962 -0.213 0.169 54 25 15 0 0
0.0483 0.0316 -0.2867 0.926 -0.209 0.315 54 25 15 0 0
0.0501 0.0307 -0.2956 0.960 -0.131 0.246 81 48 23 0 0
0.0458 0.0319 -0.3065 0.967 -0.110 0.228 87 58 30 0 0
0.0456 0.0319 -0.3082 0.917 0.006 0.398 103 80 47 0 0
0.0462 0.0317 -0.3096 0.917 0.006 0.398 115 96 63 0 0
0.0468 0.0314 -0.3110 0.917 0.006 0.398 105 82 51 0 0
-0.0217 0.0526 -0.3938 0.757 -0.582 0.297 62 48 32 0 0
-0.0226 0.0526 -0.4049 0.938 -0.337 0.084 120 103 75 0 0
-0.0227 0.0525 -0.4085 0.951 -0.229 0.209 109 89 64 0 0
-0.0276 0.0528 -0.4639 0.914 -0.223 0.339 80 61 37 0 0
-0.0254 0.0517 -0.4742 0.977 -0.209 0.038 103 89 65 0 0
-0.0253 0.0517 -0.4761 0.977 -0.209 0.038 106 89 68 0 0
-0.0471 0.0550 -0.6307 0.078 0.461 0.884 88 81 71 0 0
-0.0332 0.0503 -0.6310 0.793 0.387 0.471 80 74 62 0 0
-0.0285 0.0487 -0.6325 0.696 0.255 0.671 75 68 58 0 0
-0.0205 0.0457 -0.6422 0.908 0.070 0.414 76 71 60 0 0
-0.0180 0.0448 -0.6428 0.815 -0.153 0.559 64 59 48 0 0
-0.0173 0.0445 -0.6445 0.873 -0.212 0.440 34 30 22 0 0
-0.0128 0.0427 -0.6563 0.770 -0.225 0.597 49 43 37 0 0
-0.0062 0.0402 -0.6648 0.637 -0.595 0.490 33 29 27 0 0
0.0220 0.0290 -0.7243 0.663 -0.300 0.686 124 113 94 0 0
0.0260 0.0274 -0.7364 0.918 -0.176 0.354 72 50 23 0 0
0.0265 0.0272 -0.7382 0.909 -0.217 0.355 110 90 54 0 0
0.0307 0.0250 -0.7654 0.967 -0.238 0.091 146 127 84 0 0
0.0322 0.0239 -0.7863 0.927 -0.076 0.367 152 133 91 0 0
0.0321 0.0235 -0.8019 0.922 -0.370 0.118 158 139 98 0 0
0.0211 0.0259 -0.8562 0.864 -0.328 -0.381 86 77 57 0 0
0.0239 0.0249 -0.8562 0.910 -0.399 0.116 34 31 21 0 0
0.0236 0.0249 -0.8588 0.960 -0.243 0.138 16 16 14 0 0
0.0239 0.0248 -0.8609 0.960 -0.243 0.138 23 22 20 0 0
0.0298 0.0379 -0.2228 0.884 -0.419 0.206 159 146 124 0 0
0.0473 0.0304 -0.2836 0.916 -0.385 0.113 60 30 13 0 0
0.0474 0.0303 -0.2851 0.897 -0.400 0.190 54 25 12 0 0
0.0476 0.0302 -0.2867 0.862 -0.339 0.377 61 32 18 0 0
0.0452 0.0304 -0.3081 0.930 -0.187 0.318 99 76 44 0 0
0.0455 0.0303 -0.3096 0.937 -0.258 0.238 110 91 58 0 0
-0.0220 0.0510 -0.3918 0.787 -0.598 0.153 38 28 18 0 0
-0.0232 0.0511 -0.4013 0.908 -0.409 0.088 81 64 43 0 0
-0.0232 0.0511 -0.4031 0.906 -0.423 -0.002 86 69 45 0 0
-0.0233 0.0510 -0.4049 0.922 -0.366 0.127 112 94 68 0 0
-0.0233 0.0510 -0.4085 0.934 -0.295 0.201 106 85 60 0 0
-0.0275 0.0511 -0.4580 0.849 -0.380 0.368 62 47 27 0 0
-0.0280 0.0511 -0.4638 0.914 -0.223 0.339 71 52 28 0 0
-0.0277 0.0509 -0.4655 0.826 -0.184 0.532 81 62 37 0 0
-0.0255 0.0500 -0.4721 0.955 -0.206 0.213 108 92 70 0 0
-0.0252 0.0498 -0.4738 0.955 -0.206 0.213 109 94 72 0 0
-0.0253 0.0498 -0.4758 0.845 -0.173 0.507 83 67 46 0 0
-0.0244 0.0495 -0.4773 0.845 -0.173 0.507 78 61 38 0 0
-0.0250 0.0494 -0.4889 0.987 0.115 0.114 90 75 47 0 0
-0.0208 0.0438 -0.6420 0.821 -0.138 0.554 83 76 63 0 0
-0.0198 0.0435 -0.6435 0.821 -0.138 0.554 71 65 52 0 0
-0.0178 0.0428 -0.6444 0.873 -0.212 0.440 35 31 20 0 0
-0.0141 0.0412 -0.6547 0.903 -0.284 0.322 53 44 37 0 0
0.0097 0.0324 -0.6814 0.885 -0.108 0.454 69 52 31 0 0
0.0236 0.0265 -0.7270 0.909 -0.316 0.270 91 75 54 0 0
0.0240 0.0263 -0.7288 0.909 -0.316 0.270 121 104 82 0 0
0.0256 0.0256 -0.7363 0.918 -0.176 0.354 71 51 25 0 0
0.0259 0.0252 -0.7447 0.923 -0.124 0.364 168 146 107 0 0
0.0263 0.0251 -0.7466 0.884 -0.205 0.420 154 135 95 0 0
0.0268 0.0249 -0.7484 0.906 -0.175 0.385 144 125 84 0 0
0.0284 0.0241 -0.7558 0.929 -0.305 0.210 132 112 76 0 0
0.0317 0.0222 -0.7840 0.926 -0.352 0.136 115 94 57 0 0
0.0313 0.0217 -0.8065 0.922 -0.307 0.237 143 125 82 0 0
0.0316 0.0216 -0.8085 0.970 -0.237 0.061 156 138 94 0 0
0.0317 0.0213 -0.8174 0.971 -0.232 -0.049 159 141 96 0 0
0.0197 0.0243 -0.8592 0.940 -0.243 -0.240 36 33 23 0 0
0.0339 0.0192 -0.8681 0.600 0.727 -0.334 174 170 169 0 0
0.0298 0.0364 -0.2181 0.873 -0.267 0.409 173 168 162 0 0
0.0304 0.0362 -0.2195 0.923 -0.024 0.385 164 154 137 0 0
0.0309 0.0360 -0.2209 0.921 -0.105 0.376 151 132 107 0 0
0.0304 0.0361 -0.2241 0.834 -0.473 0.286 155 132 92 0 0
0.0407 0.0321 -0.2416 0.730 -0.314 0.607 34 25 16 0 0
0.0440 0.0310 -0.2423 0.536 -0.628 0.564 37 27 17 0 0
0.0462 0.0301 -0.2479 0.893 -0.334 0.300 106 93 74 0 0
0.0467 0.0299 -0.2493 0.889 -0.292 0.352 61 48 32 0 0
0.0475 0.0296 -0.2507 0.808 -0.417 0.416 46 32 17 0 0
0.0481 0.0293 -0.2521 0.808 -0.417 0.416 42 29 14 0 0
0.0474 0.0286 -0.2881 0.900 -0.254 0.354 97 73 46 0 0
0.0470 0.0287 -0.2898 0.900 -0.250 0.358 83 56 29 0 0
0.0451 0.0288 -0.3079 0.937 -0.074 0.341 100 78 46 0 0
0.0456 0.0286 -0.3094 0.937 -0.074 0.341 106 83 51 0 0
-0.0365 0.0547 -0.3683 0.396 -0.477 0.784 109 105 96 0 0
-0.0258 0.0508 -0.3805 0.820 -0.458 0.342 24 22 18 0 0
-0.0232 0.0495 -0.3938 0.906 -0.363 0.216 53 41 28 0 0
-0.0237 0.0494 -0.4048 0.934 -0.357 -0.020 98 81 57 0 0
-0.0258 0.0497 -0.4201 0.948 -0.317 -0.029 115 96 69 0 0
-0.0267 0.0493 -0.4443 0.776 -0.282 0.565 65 52 37 0 0
-0.0282 0.0495 -0.4580 0.849 -0.380 0.368 56 40 22 0 0
-0.0286 0.0494 -0.4638 0.907 -0.270 0.324 79 62 41 0 0
-0.0261 0.0480 -0.4853 0.967 -0.042 0.251 84 66 42 0 0
-0.0670 0.0578 -0.6308 0.126 0.533 0.837 88 81 71 0 0
-0.0462 0.0508 -0.6294 0.099 0.416 0.904 87 80 70 0 0
-0.0327 0.0463 -0.6279 0.827 -0.092 0.555 86 78 65 0 0
-0.0206 0.0419 -0.6415 0.721 -0.121 0.682 99 90 79 0 0
-0.0146 0.0395 -0.6546 0.903 -0.284 0.322 50 41 33 0 0
-0.0119 0.0384 -0.6613 0.917 -0.067 0.392 44 36 27 0 0
0.0210 0.0255 -0.7241 0.789 -0.103 0.606 139 125 99 0 0
0.0227 0.0249 -0.7250 0.744 -0.365 0.560 128 113 88 0 0
0.0252 0.0237 -0.7382 0.918 -0.301 0.258 106 86 56 0 0
0.0256 0.0235 -0.7445 0.926 -0.008 0.376 144 122 87 0 0
0.0259 0.0233 -0.7464 0.960 -0.074 0.269 143 123 82 0 0
0.0263 0.0231 -0.7482 0.906 -0.175 0.385 153 133 92 0 0
0.0290 0.0218 -0.7614 0.900 -0.343 0.270 109 96 62 0 0
0.0295 0.0216 -0.7633 0.900 -0.343 0.270 124 109 74 0 0
0.0317 0.0194 -0.8169 0.996 -0.089 -0.010 153 134 91 0 0
0.0439 0.0296 -0.2346 0.911 0.141 0.388 43 32 20 0 0
0.0445 0.0294 -0.2359 0.911 0.141 0.388 30 21 11 0 0
0.0428 0.0298 -0.2425 0.576 -0.604 0.551 40 30 20 0 0
0.0446 0.0291 -0.2435 0.711 -0.674 0.202 44 32 21 0 0
0.0453 0.0288 -0.2465 0.889 -0.292 0.352 110 99 84 0 0
0.0457 0.0286 -0.2479 0.889 -0.292 0.352 114 105 87 0 0
0.0462 0.0284 -0.2493 0.873 -0.321 0.367 50 41 26 0 0
0.0468 0.0282 -0.2507 0.808 -0.417 0.416 40 28 14 0 0
0.0474 0.0280 -0.2521 0.808 -0.417 0.416 39 26 13 0 0
0.0461 0.0278 -0.2726 0.921 -0.324 0.218 84 57 32 0 0
0.0463 0.0276 -0.2772 0.962 -0.263 0.076 108 89 57 0 0
0.0466 0.0272 -0.2882 0.744 -0.579 0.334 107 86 54 0 0
0.0455 0.0275 -0.2900 0.898 -0.325 0.296 88 61 34 0 0
0.0459 0.0274 -0.2915 0.898 -0.325 0.296 75 42 19 0 0
0.0440 0.0277 -0.3032 0.947 -0.253 0.196 93 67 40 0 0
0.0443 0.0275 -0.3047 0.947 -0.253 0.196 101 78 48 0 0
0.0446 0.0274 -0.3063 0.947 -0.253 0.196 101 79 48 0 0
0.0452 0.0272 -0.3077 0.817 -0.335 0.470 92 67 36 0 0
0.0456 0.0268 -0.3140 0.764 -0.626 0.159 122 102 66 0 0
-0.0298 0.0505 -0.3746 0.820 -0.315 0.479 78 70 62 0 0
-0.0291 0.0502 -0.3761 0.820 -0.315 0.479 76 68 61 0 0
-0.0238 0.0479 -0.3938 0.906 -0.363 0.216 50 41 30 0 0
-0.0244 0.0479 -0.4012 0.979 -0.168 0.117 82 67 47 0 0
-0.0247 0.0479 -0.4067 0.897 -0.431 0.097 91 74 52 0 0
-0.0246 0.0478 -0.4085 0.897 -0.431 0.097 114 97 73 0 0
-0.0261 0.0480 -0.4199 0.817 -0.573 0.060 122 105 74 0 0
-0.0317 0.0494 -0.4350 0.655 -0.697 0.291 48 38 27 0 0
-0.0308 0.0491 -0.4384 0.645 -0.631 0.431 29 24 20 0 0
-0.0302 0.0488 -0.4399 0.631 -0.639 0.440 18 12 9 0 0
-0.0273 0.0476 -0.4462 0.856 -0.450 0.254 80 69 54 0 0
-0.0282 0.0476 -0.4577 0.866 -0.135 0.481 54 39 23 0 0
-0.0292 0.0478 -0.4619 0.856 -0.362 0.369 52 34 19 0 0
-0.0291 0.0478 -0.4637 0.907 -0.270 0.324 65 45 28 0 0
-0.0283 0.0475 -0.4653 0.880 -0.270 0.390 72 52 30 0 0
-0.0261 0.0464 -0.4774 0.765 -0.479 0.430 96 81 58 0 0
-0.0272 0.0466 -0.4836 0.883 -0.209 0.421 81 63 39 0 0
-0.0256 0.0458 -0.4905 0.954 -0.265 0.139 85 69 44 0 0
-0.0255 0.0458 -0.4924 0.986 -0.159 0.048 96 80 56 0 0
-0.0660 0.0555 -0.6299 0.127 0.414 0.901 83 76 66 0 0
-0.0452 0.0486 -0.6285 0.099 0.416 0.904 82 75 65 0 0
-0.0377 0.0461 -0.6262 0.365 0.195 0.910 84 78 67 0 0
-0.0329 0.0444 -0.6276 0.746 -0.111 0.657 74 66 53 0 0
-0.0200 0.0397 -0.6429 0.833 -0.178 0.525 104 96 85 0 0
-0.0102 0.0357 -0.6682 0.799 -0.363 0.480 38 30 23 0 0
-0.0093 0.0353 -0.6697 0.880 -0.262 0.395 20 15 11 0 0
0.0204 0.0238 -0.7240 0.824 -0.285 0.490 149 136 108 0 0
0.0246 0.0220 -0.7382 0.918 -0.301 0.258 85 68 42 0 0
0.0255 0.0216 -0.7441 0.889 -0.318 0.330 140 116 83 0 0
0.0256 0.0215 -0.7461 0.894 -0.316 0.318 148 124 85 0 0
0.0262 0.0212 -0.7479 0.894 -0.316 0.318 165 143 102 0 0
0.0280 0.0206 -0.7487 0.948 -0.044 0.316 149 132 89 0 0
0.0286 0.0203 -0.7504 0.910 -0.130 0.393 156 138 97 0 0
0.0288 0.0199 -0.7633 0.900 -0.343 0.270 90 78 44 0 0
0.0298 0.0183 -0.8112 0.945 -0.324 -0.043 164 146 102 0 0
0.0289 0.0183 -0.8209 0.970 -0.226 0.095 162 143 98 0 0
0.0387 0.0300 -0.2265 0.848 0.023 0.530 88 72 51 0 0
0.0431 0.0281 -0.2422 0.565 -0.811 0.154 41 31 21 0 0
0.0446 0.0275 -0.2465 0.757 -0.483 0.439 85 71 56 0 0
0.0467 0.0266 -0.2521 0.808 -0.417 0.416 38 24 13 0 0
0.0464 0.0257 -0.2864 0.926 -0.217 0.310 93 68 43 0 0
0.0451 0.0260 -0.2900 0.946 -0.212 0.246 88 61 34 0 0
0.0454 0.0259 -0.2915 0.898 -0.325 0.296 76 42 19 0 0
0.0480 0.0249 -0.2955 0.965 -0.260 -0.010 82 50 25 0 0
0.0439 0.0260 -0.3047 0.947 -0.253 0.196 93 68 39 0 0
0.0444 0.0258 -0.3077 0.922 -0.253 0.294 100 77 45 0 0
0.0431 0.0260 -0.3162 0.975 -0.029 -0.218 126 106 68 0 0
-0.0398 0.0526 -0.3565 0.625 0.270 0.732 89 82 71 0 0
-0.0399 0.0525 -0.3583 0.623 0.761 0.182 88 80 71 0 0
-0.0377 0.0517 -0.3611 0.441 0.801 0.405 91 83 74 0 0
-0.0245 0.0464 -0.3938 0.906 -0.363 0.216 38 32 23 0 0
-0.0242 0.0462 -0.3955 0.967 -0.255 0.018 40 31 23 0 0
-0.0246 0.0462 -0.4010 0.962 -0.189 0.195 75 62 43 0 0
-0.0243 0.0461 -0.4027 0.962 -0.189 0.195 76 61 41 0 0
-0.0240 0.0459 -0.4044 0.962 -0.189 0.195 77 62 43 0 0
-0.0279 0.0460 -0.4461 0.910 -0.341 0.236 82 72 60 0 0
-0.0301 0.0463 -0.4620 0.880 -0.270 0.390 48 31 19 0 0
-0.0295 0.0461 -0.4636 0.880 -0.270 0.390 56 37 22 0 0
-0.0289 0.0458 -0.4652 0.880 -0.270 0.390 72 52 32 0 0
-0.0276 0.0449 -0.4835 0.883 -0.209 0.421 84 66 42 0 0
-0.0268 0.0445 -0.4869 0.879 -0.422 0.220 97 81 56 0 0
-0.0261 0.0442 -0.4885 0.881 -0.383 0.277 99 84 58 0 0
-0.0260 0.0441 -0.4904 0.954 -0.265 0.139 83 69 42 0 0
-0.0277 0.0441 -0.5103 0.989 -0.138 -0.049 115 100 71 0 0
-0.0278 0.0441 -0.5123 0.989 -0.138 -0.049 110 94 66 0 0
-0.0275 0.0439 -0.5141 0.988 -0.000 0.154 89 73 47 0 0
-0.0283 0.0439 -0.5242 0.964 -0.215 0.154 77 61 35 0 0
-0.0281 0.0438 -0.5260 0.928 -0.338 0.158 93 78 48 0 0
-0.0648 0.0532 -0.6288 0.169 0.455 0.874 83 76 66 0 0
-0.0430 0.0459 -0.6268 0.048 0.119 0.992 83 76 66 0 0
-0.0381 0.0443 -0.6261 0.268 0.102 0.958 83 76 66 0 0
-0.0333 0.0426 -0.6275 0.694 -0.118 0.711 53 45 33 0 0
-0.0149 0.0358 -0.6519 0.991 -0.060 0.119 49 41 26 0 0
-0.0147 0.0357 -0.6538 0.997 -0.022 0.076 54 44 27 0 0
0.0150 0.0237 -0.7231 0.621 -0.410 0.668 128 116 94 0 0
0.0220 0.0212 -0.7310 0.897 -0.303 0.322 67 51 28 0 0
0.0256 0.0195 -0.7479 0.943 -0.180 0.280 160 139 97 0 0
0.0298 0.0168 -0.7928 0.974 -0.224 0.036 137 118 81 0 0
0.0295 0.0165 -0.8064 0.959 -0.283 0.033 156 137 94 0 0
0.0285 0.0165 -0.8207 0.963 -0.168 0.212 163 145 100 0 0
0.0178 0.0189 -0.8593 0.862 -0.293 0.414 28 26 20 0 0
0.0187 0.0186 -0.8608 0.817 -0.128 0.562 13 12 12 0 0
0.0456 0.0248 -0.2708 0.965 -0.228 0.130 74 46 26 0 0
0.0456 0.0244 -0.2833 0.936 -0.324 0.139 90 65 41 0 0
0.0460 0.0242 -0.2864 0.926 -0.217 0.310 89 62 37 0 0
0.0451 0.0245 -0.2882 0.851 -0.348 0.394 86 57 32 0 0
0.0471 0.0236 -0.2955 0.733 -0.597 0.325 82 50 25 0 0
-0.0366 0.0497 -0.3570 0.538 0.813 0.222 61 52 45 0 0
-0.0364 0.0496 -0.3587 0.456 0.792 0.407 59 50 42 0 0
-0.0342 0.0488 -0.3597 0.446 0.778 0.444 68 59 52 0 0
-0.0283 0.0461 -0.3842 0.861 -0.370 0.350 42 31 26 0 0
-0.0277 0.0459 -0.3858 0.896 -0.316 0.314 41 33 26 0 0
-0.0251 0.0448 -0.3938 0.906 -0.363 0.216 27 19 13 0 0
-0.0260 0.0450 -0.3959 0.901 -0.404 0.154 32 23 17 0 0
-0.0270 0.0447 -0.4180 0.962 -0.260 -0.084 115 98 74 0 0
-0.0271 0.0447 -0.4198 0.950 -0.303 0.077 115 99 74 0 0
-0.0336 0.0463 -0.4408 0.255 -0.769 0.586 16 12 11 0 0
-0.0293 0.0447 -0.4446 0.425 -0.581 0.694 22 16 13 0 0
-0.0285 0.0444 -0.4461 0.910 -0.341 0.236 61 53 44 0 0
-0.0309 0.0451 -0.4508 0.845 -0.481 0.233 63 52 38 0 0
-0.0273 0.0437 -0.4586 0.967 0.208 0.146 49 34 21 0 0
-0.0273 0.0430 -0.4793 0.973 -0.155 0.172 84 67 41 0 0
-0.0280 0.0432 -0.4834 0.826 -0.305 0.475 84 67 41 0 0
-0.0272 0.0428 -0.4868 0.881 -0.383 0.277 97 80 57 0 0
-0.0268 0.0426 -0.4885 0.881 -0.383 0.277 96 79 56 0 0
-0.0258 0.0422 -0.4900 0.939 -0.319 0.133 107 92 63 0 0
-0.0289 0.0423 -0.5241 0.915 -0.296 0.273 111 97 67 0 0
-0.0284 0.0420 -0.5278 0.947 -0.170 0.271 106 92 64 0 0
-0.0637 0.0508 -0.6278 0.091 0.411 0.907 79 74 63 0 0
-0.0381 0.0424 -0.6257 0.307 -0.067 0.949 92 86 75 0 0
-0.0159 0.0343 -0.6479 0.899 0.046 0.435 74 62 46 0 0
-0.0144 0.0337 -0.6532 0.955 -0.296 0.033 69 58 35 0 0
0.0130 0.0225 -0.7220 0.838 -0.289 0.462 125 115 94 0 0
0.0218 0.0193 -0.7308 0.875 -0.313 0.370 68 52 30 0 0
0.0224 0.0191 -0.7325 0.875 -0.313 0.370 64 46 26 0 0
0.0265 0.0169 -0.7619 0.878 -0.288 0.382 152 131 89 0 0
0.0264 0.0168 -0.7641 0.870 -0.252 0.424 161 139 99 0 0
0.0273 0.0162 -0.7766 0.962 -0.242 0.129 139 120 86 0 0
0.0254 0.0150 -0.8386 0.922 -0.385 -0.036 162 144 99 0 0
0.0255 0.0149 -0.8409 0.900 -0.369 -0.233 155 138 95 0 0
0.0171 0.0172 -0.8593 0.857 -0.329 0.397 27 24 20 0 0
0.0178 0.0169 -0.8610 0.857 -0.329 0.397 12 12 12 0 0
0.0167 0.0345 -0.2126 0.457 0.587 0.669 178 178 178 0 0
0.0435 0.0247 -0.2448 0.922 -0.153 0.357 46 32 18 0 0
0.0451 0.0234 -0.2707 0.963 -0.267 -0.032 86 59 34 0 0
-0.0294 0.0455 -0.3579 0.730 0.683 -0.030 45 36 29 0 0
-0.0295 0.0455 -0.3597 0.716 0.698 0.016 54 46 37 0 0
-0.0306 0.0454 -0.3742 0.899 0.035 0.437 69 60 53 0 0
-0.0289 0.0446 -0.3842 0.880 -0.313 0.358 42 32 26 0 0
-0.0287 0.0437 -0.4093 0.976 -0.127 0.179 88 75 58 0 0
-0.0284 0.0436 -0.4110 0.976 -0.127 0.179 101 85 67 0 0
-0.0307 0.0433 -0.4449 0.335 -0.727 0.599 17 13 9 0 0
-0.0316 0.0433 -0.4583 0.797 -0.337 0.501 46 32 21 0 0
-0.0296 0.0426 -0.4593 0.784 -0.606 0.138 51 36 23 0 0
-0.0292 0.0424 -0.4610 0.752 -0.474 0.458 51 35 22 0 0
-0.0276 0.0413 -0.4791 0.973 -0.155 0.172 80 63 37 0 0
-0.0269 0.0410 -0.4807 0.901 -0.391 0.189 85 68 40 0 0
-0.0268 0.0405 -0.4958 0.990 -0.071 0.119 89 73 47 0 0
-0.0306 0.0409 -0.5247 0.990 0.050 0.129 122 108 78 0 0
-0.0295 0.0404 -0.5300 0.956 -0.082 0.281 92 78 54 0 0
-0.0223 0.0349 -0.6348 0.867 -0.026 0.497 103 92 75 0 0
-0.0149 0.0320 -0.6490 0.763 -0.401 0.507 89 78 60 0 0
-0.0115 0.0306 -0.6615 0.910 -0.025 0.415 59 45 31 0 0
-0.0058 0.0282 -0.6768 0.690 -0.284 0.666 107 95 74 0 0
-0.0047 0.0278 -0.6782 0.690 -0.284 0.666 116 104 82 0 0
0.0119 0.0210 -0.7201 0.653 -0.370 0.661 103 93 66 0 0
0.0132 0.0206 -0.7214 0.812 -0.178 0.556 135 124 98 0 0
0.0258 0.0151 -0.7642 0.851 -0.255 0.460 163 141 102 0 0
0.0265 0.0148 -0.7658 0.851 -0.255 0.460 148 127 87 0 0
0.0272 0.0143 -0.7762 0.937 -0.306 0.167 138 120 86 0 0
0.0279 0.0140 -0.7779 0.847 -0.356 0.396 111 92 59 0 0
0.0273 0.0129 -0.8229 0.981 -0.149 0.123 153 134 90 0 0
0.0173 0.0150 -0.8609 0.930 -0.170 0.325 13 12 12 0 0
0.0400 0.0249 -0.2242 0.927 -0.239 0.288 50 36 23 0 0
0.0403 0.0244 -0.2363 0.952 -0.267 0.152 34 24 15 0 0
0.0424 0.0233 -0.2480 0.806 -0.318 0.500 54 38 23 0 0
0.0431 0.0231 -0.2494 0.806 -0.318 0.500 58 42 26 0 0
0.0448 0.0222 -0.2597 0.889 -0.431 0.151 57 34 17 0 0
0.0444 0.0213 -0.2943 0.808 -0.402 0.431 79 46 22 0 0
0.0408 0.0219 -0.3147 0.978 -0.155 0.138 124 103 68 0 0
0.0434 0.0209 -0.3187 0.737 -0.281 0.615 139 125 85 0 0
-0.0297 0.0430 -0.3843 0.934 -0.143 0.327 33 24 19 0 0
-0.0286 0.0426 -0.3874 0.912 -0.226 0.342 49 42 32 0 0
-0.0279 0.0423 -0.3890 0.891 -0.236 0.388 53 46 37 0 0
-0.0328 0.0419 -0.4566 0.921 -0.274 0.278 40 29 20 0 0
-0.0315 0.0413 -0.4598 0.923 -0.350 0.159 54 40 27 0 0
-0.0301 0.0408 -0.4611 0.699 -0.448 0.557 60 46 33 0 0
-0.0298 0.0407 -0.4629 0.842 -0.428 0.329 45 29 16 0 0
-0.0285 0.0400 -0.4717 0.861 -0.420 0.285 75 57 37 0 0
-0.0276 0.0394 -0.4807 0.965 -0.174 0.197 90 73 46 0 0
-0.0284 0.0393 -0.4925 0.921 -0.353 0.166 58 41 19 0 0
-0.0299 0.0387 -0.5299 0.959 -0.233 0.162 115 99 75 0 0
-0.0153 0.0302 -0.6488 0.776 -0.383 0.502 105 94 74 0 0
-0.0067 0.0266 -0.6770 0.721 -0.387 0.575 82 73 57 0 0
-0.0057 0.0262 -0.6785 0.746 -0.532 0.401 80 70 54 0 0
0.0081 0.0206 -0.7138 0.909 -0.162 0.384 99 89 72 0 0
0.0243 0.0144 -0.7388 0.944 -0.117 0.310 120 103 71 0 0
0.0284 0.0110 -0.8081 0.967 -0.251 0.040 162 143 99 0 0
0.0269 0.0110 -0.8228 0.966 -0.192 0.172 161 143 96 0 0
0.0425 0.0195 -0.3188 0.864 -0.503 -0.018 129 114 74 0 0
0.0441 0.0190 -0.3199 0.672 -0.078 0.737 108 94 69 0 0
-0.0353 0.0409 -0.4537 0.898 -0.279 0.341 25 18 15 0 0
-0.0308 0.0392 -0.4630 0.814 -0.043 0.579 50 35 22 0 0
-0.0285 0.0380 -0.4771 0.933 -0.244 0.265 92 76 50 0 0
-0.0376 0.0364 -0.6243 0.556 0.214 0.803 66 59 49 0 0
-0.0358 0.0358 -0.6253 0.537 0.005 0.844 63 56 46 0 0
-0.0148 0.0281 -0.6503 0.933 -0.216 0.288 80 69 47 0 0
-0.0140 0.0278 -0.6518 0.877 -0.261 0.404 83 69 47 0 0
-0.0134 0.0275 -0.6556 0.834 0.065 0.547 92 79 53 0 0
0.0073 0.0190 -0.7118 0.946 -0.228 0.230 108 100 83 0 0
0.0074 0.0188 -0.7160 0.855 -0.311 0.414 110 97 75 0 0
0.0216 0.0134 -0.7403 0.898 -0.297 0.324 133 113 81 0 0
0.0232 0.0128 -0.7413 0.872 -0.258 0.416 116 94 63 0 0
0.0268 0.0098 -0.8022 0.947 -0.317 0.049 156 135 93 0 0
0.0272 0.0095 -0.8063 0.962 -0.215 0.167 169 150 107 0 0
0.0229 0.0099 -0.8392 0.835 -0.534 -0.135 161 142 99 0 0
0.0406 0.0192 -0.2951 0.932 0.215 0.292 83 50 25 0 0
-0.0241 0.0386 -0.3537 0.841 0.350 0.411 62 50 42 0 0
-0.0290 0.0390 -0.3925 0.912 -0.346 0.219 35 28 22 0 0
-0.0287 0.0388 -0.3941 0.912 -0.346 0.219 37 29 25 0 0
-0.0335 0.0383 -0.4601 0.874 -0.420 0.244 50 36 24 0 0
-0.0323 0.0379 -0.4615 0.776 -0.366 0.513 85 69 54 0 0
-0.0295 0.0365 -0.4753 0.959 -0.235 0.158 97 80 55 0 0
-0.0290 0.0363 -0.4770 0.933 -0.244 0.265 83 66 40 0 0
-0.0305 0.0354 -0.5217 0.982 -0.040 0.185 137 120 88 0 0
-0.0386 0.0349 -0.6224 0.556 0.331 0.763 74 70 58 0 0
-0.0353 0.0337 -0.6247 0.583 0.330 0.743 57 51 39 0 0
-0.0183 0.0276 -0.6437 0.897 0.014 0.442 84 70 52 0 0
-0.0155 0.0264 -0.6524 0.940 -0.219 0.262 74 62 37 0 0
-0.0140 0.0258 -0.6535 0.763 -0.255 0.594 76 64 42 0 0
-0.0135 0.0256 -0.6553 0.834 0.065 0.547 80 68 45 0 0
0.0130 0.0149 -0.7224 0.629 -0.371 0.683 159 147 120 0 0
0.0211 0.0118 -0.7338 0.927 -0.300 0.228 79 62 36 0 0
0.0263 0.0078 -0.8065 0.972 -0.137 0.193 164 146 100 0 0
0.0269 0.0074 -0.8150 0.966 -0.118 0.229 141 125 89 0 0
0.0398 0.0197 -0.2374 0.980 -0.192 0.060 57 44 29 0 0
0.0435 0.0176 -0.2657 0.907 -0.129 0.402 73 42 21 0 0
0.0432 0.0169 -0.2894 0.853 -0.017 0.522 85 53 28 0 0
0.0398 0.0175 -0.3063 0.934 -0.140 0.328 104 85 56 0 0
-0.0259 0.0375 -0.3506 0.515 0.041 0.856 87 83 72 0 0
-0.0250 0.0372 -0.3520 0.695 0.216 0.686 75 68 53 0 0
-0.0305 0.0378 -0.3892 0.794 -0.452 0.407 22 15 9 0 0
-0.0298 0.0375 -0.3907 0.827 -0.197 0.526 23 16 10 0 0
-0.0295 0.0373 -0.3942 0.811 -0.583 0.058 35 28 23 0 0
-0.0292 0.0372 -0.3959 0.721 -0.692 0.036 40 32 28 0 0
-0.0566 0.0445 -0.4451 0.380 0.678 0.629 71 71 69 0 0
-0.0368 0.0379 -0.4500 0.835 -0.546 0.066 17 10 4 0 0
-0.0362 0.0376 -0.4535 0.943 -0.227 0.243 34 27 19 0 0
-0.0342 0.0367 -0.4602 0.874 -0.420 0.244 63 49 37 0 0
-0.0286 0.0342 -0.4803 0.878 -0.403 0.259 85 68 42 0 0
-0.0345 0.0342 -0.5410 0.943 -0.330 -0.049 122 106 73 0 0
-0.0179 0.0256 -0.6431 0.932 -0.112 0.346 71 57 38 0 0
-0.0107 0.0217 -0.6889 0.914 -0.373 -0.162 15 11 6 0 0
-0.0105 0.0216 -0.6909 0.864 -0.366 0.346 10 9 5 0 0
-0.0101 0.0214 -0.6928 0.409 -0.891 0.196 39 34 28 0 0
-0.0098 0.0212 -0.6947 0.526 -0.848 0.063 23 20 15 0 0
-0.0108 0.0215 -0.6975 0.275 -0.938 0.209 9 8 5 0 0
-0.0119 0.0215 -0.7089 0.715 -0.468 0.519 18 16 15 0 0
-0.0076 0.0200 -0.7125 0.904 -0.373 0.208 45 40 35 0 0
0.0097 0.0141 -0.7199 0.679 -0.114 0.725 123 106 79 0 0
0.0111 0.0136 -0.7211 0.712 -0.175 0.680 140 127 98 0 0
0.0123 0.0132 -0.7224 0.712 -0.175 0.680 136 124 101 0 0
0.0206 0.0101 -0.7315 0.830 -0.284 0.479 65 48 25 0 0
0.0267 0.0061 -0.7968 0.919 -0.374 0.125 158 138 101 0 0
0.0202 0.0066 -0.8471 0.924 -0.322 -0.208 136 122 87 0 0
0.0190 0.0067 -0.8574 0.789 -0.603 0.119 12 13 13 0 0
0.0400 0.0182 -0.2326 0.870 -0.450 0.201 36 26 14 0 0
0.0410 0.0162 -0.2835 0.813 -0.576 0.091 87 56 31 0 0
0.0381 0.0163 -0.3099 0.981 -0.168 0.098 101 83 55 0 0
-0.0248 0.0354 -0.3517 0.585 0.146 0.798 98 92 80 0 0
-0.0233 0.0348 -0.3530 0.695 0.216 0.686 101 96 85 0 0
-0.0357 0.0369 -0.4143 0.868 -0.494 -0.053 67 58 50 0 0
-0.0341 0.0349 -0.4598 0.867 -0.242 0.435 56 42 30 0 0
-0.0320 0.0340 -0.4646 0.899 -0.203 0.387 53 37 24 0 0
-0.0313 0.0338 -0.4661 0.869 -0.267 0.418 48 31 18 0 0
-0.0313 0.0337 -0.4680 0.869 -0.233 0.436 68 51 35 0 0
-0.0306 0.0334 -0.4695 0.869 -0.233 0.436 72 53 35 0 0
-0.0315 0.0320 -0.5216 0.951 -0.304 0.054 120 106 72 0 0
-0.0312 0.0318 -0.5234 0.949 -0.169 0.265 134 120 86 0 0
-0.0351 0.0325 -0.5410 0.943 -0.330 -0.049 143 127 93 0 0
-0.0356 0.0326 -0.5432 0.961 -0.054 0.271 133 117 85 0 0
-0.0353 0.0324 -0.5470 0.972 -0.217 0.091 114 98 72 0 0
-0.0226 0.0255 -0.6330 0.894 -0.025 0.448 79 66 46 0 0
-0.0129 0.0216 -0.6562 0.813 -0.073 0.578 71 60 38 0 0
-0.0144 0.0211 -0.6845 0.964 -0.255 -0.070 71 61 42 0 0
-0.0144 0.0211 -0.6866 0.916 -0.377 -0.140 67 56 39 0 0
-0.0140 0.0207 -0.6928 0.608 -0.515 0.605 11 9 5 0 0
-0.0129 0.0203 -0.6942 0.401 -0.821 0.407 19 17 12 0 0
-0.0105 0.0195 -0.6969 0.522 -0.790 0.321 9 8 5 0 0
-0.0115 0.0197 -0.6997 0.516 -0.856 0.032 10 9 7 0 0
-0.0029 0.0165 -0.7110 0.686 -0.210 0.697 53 45 39 0 0
0.0164 0.0097 -0.7277 0.829 -0.356 0.431 138 119 89 0 0
0.0185 0.0086 -0.7412 0.787 -0.390 0.478 146 129 95 0 0
0.0246 0.0063 -0.7519 0.937 -0.192 0.293 138 117 82 0 0
0.0253 0.0060 -0.7535 0.867 -0.436 0.243 126 107 75 0 0
0.0259 0.0044 -0.7970 0.906 -0.396 0.150 158 137 99 0 0
0.0178 0.0050 -0.8579 0.789 -0.603 0.119 13 14 13 0 0
0.0411 0.0145 -0.2848 0.900 -0.100 0.425 86 55 30 0 0
0.0375 0.0147 -0.3131 0.980 -0.198 0.006 121 102 68 0 0
0.0377 0.0147 -0.3146 0.880 -0.402 -0.253 136 116 78 0 0
-0.0294 0.0352 -0.3496 0.504 -0.097 0.858 52 48 41 0 0
-0.0249 0.0337 -0.3515 0.565 0.068 0.822 86 80 73 0 0
-0.0323 0.0346 -0.3947 0.981 -0.189 -0.051 45 38 33 0 0
-0.0323 0.0345 -0.3965 0.981 -0.188 -0.037 47 40 35 0 0
-0.0323 0.0345 -0.3983 0.988 -0.145 -0.053 42 36 29 0 0
-0.0323 0.0322 -0.4662 0.895 -0.276 0.351 47 30 17 0 0
-0.0317 0.0320 -0.4679 0.895 -0.276 0.351 64 45 30 0 0
-0.0301 0.0313 -0.4728 0.906 -0.417 -0.065 82 62 40 0 0
-0.0352 0.0309 -0.5348 0.997 0.034 0.074 111 95 63 0 0
-0.0362 0.0307 -0.5491 0.969 -0.243 0.049 128 112 80 0 0
-0.0361 0.0306 -0.5510 0.969 -0.243 0.049 136 120 89 0 0
-0.0364 0.0307 -0.5532 0.988 -0.136 -0.076 115 100 72 0 0
-0.0365 0.0307 -0.5552 0.988 -0.127 0.090 108 96 70 0 0
-0.0368 0.0307 -0.5573 0.950 -0.238 0.200 112 100 75 0 0
-0.0365 0.0305 -0.5592 0.969 -0.243 0.037 107 96 70 0 0
-0.0227 0.0236 -0.6327 0.908 -0.130 0.398 74 61 43 0 0
-0.0193 0.0222 -0.6431 0.831 -0.376 0.411 67 55 32 0 0
-0.0186 0.0219 -0.6447 0.884 -0.311 0.349 85 75 49 0 0
-0.0132 0.0194 -0.6665 0.845 -0.087 0.528 53 40 23 0 0
-0.0117 0.0188 -0.6697 0.921 -0.241 0.305 63 51 33 0 0
-0.0103 0.0170 -0.7113 0.685 -0.402 0.608 39 34 31 0 0
0.0114 0.0096 -0.7222 0.679 -0.114 0.725 182 171 148 0 0
0.0158 0.0080 -0.7276 0.915 -0.303 0.266 170 150 123 0 0
0.0171 0.0076 -0.7289 0.884 0.149 0.444 121 100 71 0 0
0.0187 0.0069 -0.7320 0.931 -0.108 0.349 68 52 35 0 0
0.0196 0.0066 -0.7335 0.924 -0.244 0.293 73 55 34 0 0
0.0242 0.0045 -0.7517 0.937 -0.192 0.293 124 104 73 0 0
0.0245 0.0043 -0.7536 0.867 -0.436 0.243 138 119 89 0 0
0.0241 0.0034 -0.7868 0.941 -0.119 0.317 145 130 90 0 0
0.0251 0.0027 -0.7971 0.906 -0.396 0.150 159 140 99 0 0
0.0253 0.0026 -0.7991 0.905 -0.267 0.331 170 150 110 0 0
0.0197 0.0029 -0.8443 0.991 -0.089 0.105 141 126 87 0 0
0.0162 0.0036 -0.8564 0.820 -0.572 -0.005 23 23 18 0 0
0.0168 0.0034 -0.8582 0.774 -0.630 -0.060 12 13 11 0 0
0.0372 0.0165 -0.2163 0.916 -0.159 0.368 87 70 44 0 0
0.0392 0.0154 -0.2294 0.838 -0.334 0.432 49 37 26 0 0
0.0391 0.0133 -0.2931 0.571 -0.518 0.637 83 53 25 0 0
0.0400 0.0129 -0.2945 0.777 -0.378 0.503 83 54 26 0 0
0.0418 0.0121 -0.3019 0.870 -0.318 0.377 92 69 40 0 0
-0.0320 0.0328 -0.3925 0.988 0.064 -0.140 43 36 30 0 0
-0.0325 0.0328 -0.3963 0.986 -0.116 -0.117 67 60 53 0 0
-0.0320 0.0302 -0.4696 0.878 -0.285 0.384 81 63 43 0 0
-0.0314 0.0296 -0.4826 0.926 -0.341 0.164 91 73 49 0 0
-0.0314 0.0295 -0.4845 0.959 -0.199 0.204 96 78 54 0 0
-0.0321 0.0284 -0.5232 0.945 -0.318 0.076 124 109 75 0 0
-0.0400 0.0294 -0.5686 0.997 0.016 0.069 37 28 18 0 0
-0.0390 0.0289 -0.5742 0.912 -0.157 0.380 67 59 48 0 0
-0.0190 0.0202 -0.6425 0.952 -0.029 0.304 72 60 38 0 0
-0.0135 0.0169 -0.6874 0.896 0.415 0.160 88 78 58 0 0
-0.0169 0.0177 -0.6960 0.936 -0.095 -0.339 11 10 6 0 0
-0.0184 0.0181 -0.6991 0.848 -0.193 -0.494 13 12 8 0 0
-0.0162 0.0173 -0.6998 0.919 -0.015 0.394 11 10 6 0 0
-0.0148 0.0166 -0.7075 0.817 -0.207 0.538 21 18 15 0 0
-0.0139 0.0163 -0.7090 0.817 -0.207 0.538 30 27 21 0 0
-0.0095 0.0147 -0.7125 0.541 -0.115 0.833 50 43 38 0 0
0.0171 0.0056 -0.7306 0.924 -0.243 0.297 77 62 41 0 0
0.0215 0.0038 -0.7403 0.902 -0.361 0.238 118 98 68 0 0
0.0219 0.0037 -0.7422 0.902 -0.361 0.238 126 106 75 0 0
0.0244 0.0010 -0.7972 0.896 -0.401 0.189 158 139 97 0 0
0.0248 0.0008 -0.7991 0.905 -0.267 0.331 158 139 99 0 0
0.0180 0.0014 -0.8451 0.982 0.046 0.181 141 126 87 0 0
0.0146 0.0022 -0.8548 0.902 -0.364 -0.232 65 61 45 0 0
0.0155 0.0018 -0.8587 0.774 -0.630 -0.060 11 12 10 0 0
0.0379 0.0143 -0.2281 0.951 -0.067 0.301 44 31 18 0 0
0.0391 0.0134 -0.2415 0.993 -0.120 0.006 46 30 17 0 0
0.0395 0.0132 -0.2429 0.957 -0.220 0.192 40 24 11 0 0
0.0411 0.0120 -0.2657 0.929 -0.171 0.328 75 43 23 0 0
0.0415 0.0118 -0.2671 0.929 -0.171 0.328 77 46 25 0 0
0.0404 0.0115 -0.2847 0.801 -0.315 0.510 80 50 22 0 0
0.0360 0.0121 -0.3099 0.896 -0.351 0.271 117 98 64 0 0
-0.0287 0.0314 -0.3489 0.862 0.504 0.054 20 16 9 0 0
-0.0314 0.0277 -0.4841 0.887 -0.424 0.181 85 66 42 0 0
-0.0191 0.0183 -0.6422 0.975 -0.014 0.220 59 46 28 0 0
-0.0191 0.0182 -0.6443 0.947 -0.085 0.309 77 65 47 0 0
-0.0128 0.0148 -0.6865 0.879 0.463 0.112 95 84 63 0 0
-0.0149 0.0147 -0.7092 0.763 -0.311 0.566 36 32 26 0 0
-0.0139 0.0143 -0.7107 0.746 -0.351 0.566 42 37 31 0 0
0.0233 0.0002 -0.7755 0.891 -0.428 0.155 163 145 103 0 0
0.0221 -0.0002 -0.7962 0.867 -0.418 0.271 162 143 100 0 0
0.0236 -0.0007 -0.7973 0.896 -0.401 0.189 150 131 89 0 0
0.0198 -0.0008 -0.8363 0.983 -0.144 -0.113 162 144 98 0 0
0.0327 0.0150 -0.2094 0.888 0.008 0.460 178 178 177 0 0
0.0372 0.0129 -0.2296 0.940 -0.231 0.252 42 30 19 0 0
0.0378 0.0097 -0.3140 0.709 0.214 0.672 122 107 69 0 0
-0.0349 0.0296 -0.4075 0.975 0.167 -0.144 64 55 45 0 0
-0.0303 0.0251 -0.4947 0.950 -0.124 0.287 94 77 51 0 0
-0.0305 0.0247 -0.5082 0.931 -0.328 0.159 107 93 66 0 0
-0.0309 0.0241 -0.5297 0.841 -0.499 0.208 113 97 63 0 0
-0.0385 0.0254 -0.5632 0.971 -0.180 -0.155 99 87 67 0 0
-0.0392 0.0255 -0.5655 0.994 -0.081 -0.073 78 68 53 0 0
-0.0391 0.0254 -0.5675 0.955 -0.296 0.005 33 24 12 0 0
-0.0392 0.0253 -0.5716 0.926 -0.377 -0.021 22 13 6 0 0
-0.0443 0.0262 -0.5925 0.970 0.102 -0.220 38 31 20 0 0
-0.0438 0.0258 -0.5984 0.923 0.301 0.240 96 84 68 0 0
-0.0432 0.0256 -0.6001 0.909 0.272 0.315 62 49 32 0 0
-0.0236 0.0182 -0.6321 0.792 -0.319 0.521 62 49 36 0 0
-0.0155 0.0149 -0.6521 0.913 -0.098 0.395 143 131 106 0 0
-0.0145 0.0145 -0.6535 0.790 -0.178 0.586 112 101 80 0 0
-0.0123 0.0126 -0.6900 0.952 0.192 -0.237 40 33 22 0 0
-0.0160 0.0131 -0.7095 0.783 -0.178 0.596 45 41 35 0 0
-0.0151 0.0127 -0.7111 0.699 -0.111 0.707 41 34 27 0 0
-0.0109 0.0113 -0.7126 0.608 -0.099 0.788 68 60 50 0 0
0.0002 0.0077 -0.7157 0.759 -0.221 0.613 144 126 103 0 0
0.0053 0.0059 -0.7187 0.594 -0.424 0.684 152 137 110 0 0
0.0192 0.0006 -0.7454 0.973 -0.182 0.139 113 92 58 0 0
0.0195 0.0003 -0.7495 0.933 -0.225 0.279 134 114 82 0 0
0.0207 -0.0008 -0.7703 0.986 -0.091 0.139 172 156 110 0 0
0.0215 -0.0011 -0.7719 0.891 -0.325 0.316 168 152 109 0 0
0.0224 -0.0015 -0.7756 0.936 -0.257 0.239 160 141 97 0 0
0.0227 -0.0019 -0.7842 0.879 -0.292 0.378 156 139 96 0 0
0.0125 -0.0015 -0.8648 0.856 -0.517 -0.026 39 35 31 0 0
0.0390 0.0100 -0.2473 0.775 -0.563 0.287 49 32 16 0 0
0.0368 0.0098 -0.2727 0.907 -0.416 0.069 81 50 28 0 0
0.0368 0.0092 -0.2901 0.953 0.010 0.302 81 54 27 0 0
0.0372 0.0090 -0.2915 0.953 0.010 0.302 85 53 28 0 0
0.0354 0.0090 -0.3097 0.977 0.025 0.213 131 116 78 0 0
-0.0263 0.0258 -0.3879 0.789 0.321 -0.524 52 43 35 0 0
-0.0417 0.0292 -0.4300 0.733 -0.667 0.131 20 15 11 0 0
-0.0413 0.0289 -0.4335 0.688 -0.662 0.297 57 49 43 0 0
-0.0415 0.0289 -0.4373 0.959 -0.223 -0.176 32 25 19 0 0
-0.0406 0.0280 -0.4537 0.901 -0.227 0.371 13 7 7 0 0
-0.0398 0.0276 -0.4590 0.870 -0.345 0.354 26 23 19 0 0
-0.0305 0.0234 -0.4946 0.909 -0.215 0.357 85 69 45 0 0
-0.0312 0.0234 -0.4987 0.942 -0.335 0.031 106 90 64 0 0
-0.0311 0.0233 -0.5006 0.942 -0.335 0.031 94 79 52 0 0
-0.0315 0.0232 -0.5065 0.907 -0.404 0.114 103 87 64 0 0
-0.0313 0.0231 -0.5083 0.907 -0.404 0.114 113 99 73 0 0
-0.0380 0.0235 -0.5566 0.983 -0.160 0.089 115 100 73 0 0
-0.0409 0.0239 -0.5721 0.765 -0.541 0.350 41 35 23 0 0
-0.0420 0.0232 -0.6011 0.860 0.367 0.355 76 63 46 0 0
-0.0436 0.0235 -0.6061 0.825 0.227 0.518 84 71 53 0 0
-0.0326 0.0195 -0.6205 0.867 -0.230 0.442 121 108 91 0 0
-0.0311 0.0190 -0.6238 0.889 -0.152 0.431 64 52 38 0 0
-0.0237 0.0163 -0.6318 0.905 -0.186 0.382 65 52 36 0 0
-0.0135 0.0122 -0.6567 0.827 -0.340 0.448 59 46 30 0 0
-0.0132 0.0118 -0.6649 0.969 -0.230 0.086 91 79 58 0 0
-0.0120 0.0113 -0.6683 0.933 0.128 0.336 133 119 91 0 0
-0.0114 0.0111 -0.6700 0.898 0.276 0.342 108 93 66 0 0
-0.0131 0.0113 -0.6795 0.986 0.138 -0.095 29 20 5 0 0
-0.0165 0.0113 -0.7094 0.783 -0.178 0.596 63 57 50 0 0
-0.0155 0.0109 -0.7109 0.699 -0.111 0.707 63 55 46 0 0
-0.0130 0.0101 -0.7114 0.532 -0.278 0.800 75 67 56 0 0
0.0196 -0.0018 -0.7554 0.923 -0.304 0.237 141 124 90 0 0
0.0206 -0.0027 -0.7721 0.873 -0.485 0.053 174 155 112 0 0
0.0219 -0.0035 -0.7821 0.883 -0.373 0.286 161 142 98 0 0
0.0222 -0.0036 -0.7841 0.879 -0.292 0.378 153 134 92 0 0
0.0212 -0.0046 -0.8205 0.966 -0.259 -0.005 158 139 96 0 0
0.0119 -0.0030 -0.8579 0.921 -0.389 -0.007 21 20 16 0 0
0.0122 -0.0033 -0.8645 0.933 -0.311 0.181 42 37 33 0 0
0.0349 0.0105 -0.2252 0.893 -0.147 0.426 42 28 17 0 0
0.0361 0.0101 -0.2265 0.931 -0.321 0.173 46 32 20 0 0
0.0372 0.0094 -0.2353 0.803 -0.514 0.302 70 59 39 0 0
0.0374 0.0094 -0.2368 0.846 -0.502 0.181 49 37 19 0 0
0.0381 0.0084 -0.2566 0.911 -0.278 0.306 63 37 21 0 0
0.0381 0.0084 -0.2582 0.843 -0.260 0.470 70 43 26 0 0
0.0395 0.0078 -0.2609 0.807 -0.225 0.546 52 26 9 0 0
0.0391 0.0073 -0.2782 0.882 -0.387 0.269 87 61 34 0 0
0.0393 0.0071 -0.2813 0.915 -0.392 0.090 83 55 31 0 0
-0.0444 0.0275 -0.4494 0.892 -0.285 0.350 27 20 12 0 0
-0.0358 0.0241 -0.4701 0.885 -0.410 0.221 42 28 20 0 0
-0.0339 0.0231 -0.4806 0.919 -0.273 0.285 80 62 39 0 0
-0.0310 0.0217 -0.4945 0.909 -0.215 0.357 92 76 51 0 0
-0.0320 0.0215 -0.5083 0.907 -0.404 0.114 106 92 66 0 0
-0.0329 0.0211 -0.5281 0.986 -0.166 0.027 122 103 66 0 0
-0.0329 0.0210 -0.5301 0.986 -0.166 0.027 136 120 85 0 0
-0.0395 0.0226 -0.5432 0.963 -0.142 0.228 127 111 78 0 0
-0.0390 0.0224 -0.5449 0.957 -0.109 0.268 133 117 84 0 0
-0.0389 0.0223 -0.5468 0.954 -0.281 0.100 134 118 85 0 0
-0.0388 0.0222 -0.5487 0.970 -0.183 0.162 140 124 91 0 0
-0.0387 0.0221 -0.5507 0.937 -0.319 0.140 131 114 83 0 0
-0.0266 0.0154 -0.6311 0.768 -0.108 0.631 94 81 62 0 0
-0.0146 0.0107 -0.6549 0.914 -0.115 0.388 80 67 50 0 0
-0.0142 0.0105 -0.6567 0.744 -0.409 0.529 50 36 23 0 0
-0.0184 0.0103 -0.6996 0.936 -0.353 0.003 18 14 12 0 0
-0.0100 0.0071 -0.7132 0.583 -0.041 0.811 62 54 43 0 0
-0.0003 0.0040 -0.7153 0.728 -0.203 0.655 110 93 68 0 0
0.0035 0.0027 -0.7191 0.722 -0.191 0.665 140 124 93 0 0
0.0133 -0.0009 -0.7337 0.823 -0.241 0.515 65 49 34 0 0
0.0139 -0.0012 -0.7354 0.778 -0.146 0.611 61 45 30 0 0
0.0176 -0.0026 -0.7413 0.884 -0.296 0.362 133 118 83 0 0
0.0199 -0.0065 -0.8301 0.887 -0.460 0.038 162 144 97 0 0
0.0123 -0.0052 -0.8593 0.984 -0.065 0.163 11 11 10 0 0
0.0124 -0.0054 -0.8638 0.561 -0.459 0.689 43 39 35 0 0
0.0348 0.0090 -0.2251 0.972 0.047 0.230 42 29 16 0 0
0.0366 0.0082 -0.2323 0.979 -0.181 0.095 60 42 27 0 0
0.0378 0.0069 -0.2565 0.941 -0.025 0.338 64 38 21 0 0
0.0376 0.0069 -0.2581 0.843 -0.260 0.470 68 42 25 0 0
0.0383 0.0066 -0.2595 0.843 -0.260 0.470 70 43 26 0 0
0.0402 0.0059 -0.2636 0.923 -0.084 0.377 71 44 23 0 0
0.0408 0.0057 -0.2650 0.923 -0.084 0.377 72 45 22 0 0
0.0386 0.0061 -0.2719 0.858 -0.511 0.053 79 49 26 0 0
-0.0239 0.0231 -0.3447 0.857 0.422 -0.296 44 37 31 0 0
-0.0423 0.0200 -0.5863 0.910 -0.392 -0.133 61 51 35 0 0
-0.0435 0.0201 -0.5951 0.918 -0.327 0.223 47 36 24 0 0
-0.0158 0.0092 -0.6531 0.869 -0.053 0.492 126 114 91 0 0
-0.0149 0.0089 -0.6547 0.869 -0.053 0.492 94 81 63 0 0
-0.0121 0.0072 -0.6780 0.959 -0.284 -0.024 38 29 14 0 0
-0.0189 0.0085 -0.6994 0.948 -0.278 -0.157 25 20 17 0 0
-0.0123 0.0060 -0.7122 0.459 -0.102 0.883 62 53 43 0 0
-0.0103 0.0053 -0.7131 0.583 -0.041 0.811 68 59 50 0 0
0.0029 0.0009 -0.7190 0.644 -0.365 0.672 132 117 87 0 0
0.0155 -0.0037 -0.7381 0.830 -0.287 0.479 111 94 67 0 0
0.0163 -0.0040 -0.7396 0.830 -0.287 0.479 92 74 42 0 0
0.0169 -0.0043 -0.7413 0.907 -0.255 0.336 135 119 82 0 0
0.0180 -0.0047 -0.7427 0.873 -0.283 0.397 119 97 60 0 0
0.0189 -0.0055 -0.7572 0.882 -0.389 0.264 136 117 85 0 0
0.0187 -0.0057 -0.7639 0.889 -0.368 0.271 139 119 83 0 0
0.0188 -0.0060 -0.7725 0.978 -0.126 0.166 158 139 98 0 0
0.0194 -0.0064 -0.7787 0.930 -0.138 0.341 150 131 89 0 0
0.0191 -0.0082 -0.8303 0.986 -0.076 0.150 165 147 100 0 0
0.0105 -0.0065 -0.8556 0.928 -0.198 -0.316 59 54 40 0 0
0.0107 -0.0067 -0.8601 0.863 -0.497 -0.093 13 12 11 0 0
0.0352 0.0075 -0.2188 0.886 -0.212 0.412 58 44 27 0 0
0.0359 0.0071 -0.2232 0.981 -0.155 0.113 41 28 16 0 0
0.0363 0.0067 -0.2322 0.979 -0.181 0.095 50 32 19 0 0
0.0370 0.0055 -0.2566 0.934 -0.242 0.264 63 37 19 0 0
0.0372 0.0054 -0.2580 0.878 -0.334 0.343 65 39 21 0 0
-0.0455 0.0243 -0.4474 0.986 -0.053 0.160 39 31 23 0 0
-0.0343 0.0200 -0.4689 0.827 -0.473 0.305 57 42 29 0 0
-0.0336 0.0189 -0.4912 0.864 -0.295 0.408 83 65 43 0 0
-0.0332 0.0187 -0.4929 0.827 -0.338 0.449 83 65 43 0 0
-0.0324 0.0184 -0.4945 0.827 -0.338 0.449 89 73 48 0 0
-0.0328 0.0183 -0.5004 0.973 -0.114 0.200 113 97 70 0 0
-0.0325 0.0182 -0.5022 0.973 -0.114 0.200 112 96 68 0 0
-0.0389 0.0186 -0.5462 0.868 -0.313 0.385 138 122 89 0 0
-0.0401 0.0185 -0.5587 0.927 -0.305 0.217 121 108 81 0 0
-0.0434 0.0191 -0.5684 0.946 -0.161 -0.281 45 38 27 0 0
-0.0447 0.0194 -0.5731 0.889 0.044 0.456 23 15 9 0 0
-0.0415 0.0179 -0.5855 0.895 -0.446 -0.011 60 50 34 0 0
