ply
format ascii 1.0
element vertex 675
property float x
property float y
property float z
property uchar diffuse_red
property uchar diffuse_green
property uchar diffuse_blue
end_header
-0.10059362308338633 0.12988809912871596 -0.5110688622160795 87 78 62
-0.09954109229277595 0.13047783365860816 -0.5124016401764021 93 82 65
-0.09855380239969032 0.1310325844090247 -0.5137677609499611 90 78 61
-0.09762799822860098 0.13155436859907227 -0.5151655712169272 82 70 53
-0.09646582618625726 0.13220277872826852 -0.5164336964592021 78 66 49
-0.09539665054268744 0.13280133387155724 -0.5177502338180789 82 67 49
-0.09410513797137252 0.13351897782625013 -0.5189432685710329 78 64 45
-0.09273269905347192 0.13427993738889019 -0.5200891052608508 95 81 61
-0.09231016003748206 0.13453200665970838 -0.5217550661908263 86 72 53
-0.09140832634678123 0.13504082314764665 -0.5231567014408531 100 86 66
-0.09043430712666466 0.1355882874965101 -0.524517030153168 120 107 82
-0.08964431888497548 0.1360371627319833 -0.5259782653384726 116 103 76
-0.08863303559785297 0.13660454789454535 -0.527315039146964 131 117 86
-0.0879853282664088 0.13697719589464016 -0.5288539582307401 137 117 84
-0.08667424227511512 0.1377050968492782 -0.5300193651020599 147 124 90
-0.08506236133424594 0.1385940341071905 -0.5310120449235635 133 112 78
-0.08338834805961191 0.1395161861333774 -0.5319654320049945 120 104 73
-0.08418550432257699 0.13911510256027573 -0.5343195490593554 101 87 56
-0.08327291797758218 0.13962952110667612 -0.5357035987741897 94 79 48
-0.08308906122441223 0.13975376590127642 -0.5375035646389078 123 108 77
-0.08209873359657184 0.14030978811566336 -0.5388417465834929 139 125 96
-0.08118658334120407 0.1408239368438866 -0.540223363433665 106 93 65
-0.08043843384274922 0.14125027620334302 -0.5416985321796125 71 56 29
-0.08047514953602998 0.14125648086382636 -0.5436286667533426 116 100 69
-0.07995123026882521 0.14156280244591124 -0.5452346741265669 138 120 83
-0.08004075394301158 0.14154079428238725 -0.5471994833751934 135 116 82
-0.08000102050597681 0.14158800115190506 -0.5490911595092849 144 127 95
-0.0824278332042353 0.14031520323670513 -0.5524366877518415 151 135 101
-0.08241887078828955 0.14034606899089655 -0.5543558322307898 152 136 104
-0.0841109349086246 0.13946671155387502 -0.5572852617205115 115 98 72
-0.08703521154768387 0.13792812951699468 -0.5609565108817303 134 118 94
-0.09094501031554679 0.13586241976300736 -0.5652298765598618 151 143 133
-0.1375232379811458 0.11175735762061284 -0.6533559997782441 195 193 190
-0.13110771524081544 0.11521343540856274 -0.651252124704696 130 122 112
-0.12488625983402714 0.11856551343691976 -0.6492521516661347 115 103 89
-0.12659658663188678 0.11768032360727035 -0.6524832768364518 109 97 81
-0.12181800991332412 0.12026128361014785 -0.6514118477526418 109 97 82
-0.11750047864332694 0.12259575466035946 -0.6506303031688414 103 90 77
-0.11406924875638218 0.12445665157185462 -0.6504259265617566 97 85 70
-0.11211594180853512 0.12552808866866313 -0.6512012082415614 98 86 69
-0.10898752386140906 0.12722699507058788 -0.651179990681443 104 93 75
-0.10717625083787467 0.12822239889133258 -0.6520373713539622 104 93 72
-0.10487772429481099 0.1294779146275045 -0.6525596976226442 113 99 76
-0.10270394048620962 0.1306667277969019 -0.6531596224692358 118 104 79
-0.10012632062429429 0.13207106582857206 -0.6534777147363701 120 105 81
-0.09851930043734854 0.132957099541723 -0.6544509478589577 109 95 69
-0.09616000060450891 0.1342446868313009 -0.6549040806286972 132 118 91
-0.09396160245321299 0.13544627897933587 -0.6554604334760119 135 121 92
-0.09199926789853433 0.13652176823231799 -0.6561728822987382 121 109 80
-0.08949243888900027 0.13788781500839037 -0.6565026861222665 132 117 87
-0.08744137398897313 0.13901049071056296 -0.6571407798518046 186 168 129
-0.08502586134495348 0.14032759344405374 -0.6575188803891752 179 162 120
-0.08387551072977724 0.14096939283122523 -0.6587729830494997 202 184 147
-0.0820188920901158 0.1419880645688268 -0.659529861420183 214 195 155
-0.08109497833902436 0.14250894682463433 -0.6609368875604091 205 187 145
-0.08068132695234718 0.1427575354020303 -0.6627022540026369 203 186 150
-0.08005896002977812 0.14311749898021775 -0.6643208367224847 174 157 127
-0.07812733887525639 0.14417600005742423 -0.6650106779780107 130 113 85
-0.07713637332146084 0.14473257398203004 -0.6663640092887342 92 77 52
-0.07691921986043775 0.14487631107576093 -0.6682678582445245 70 56 36
-0.0761489761467179 0.14531511748336715 -0.6697774726096055 59 46 25
-0.07550910906437096 0.14568436812750474 -0.6713799545714364 66 55 32
-0.074714884318331 0.14613594970801616 -0.6728711084864316 72 61 44
-0.0747553223748142 0.1461423413162507 -0.6749642910330911 44 33 23
-0.07454364115275419 0.14628323443602895 -0.6768776081733348 43 34 23
-0.0738982063719893 0.14665547317419672 -0.6784774333745266 49 40 22
-0.07353677801846831 0.14687625579546787 -0.6802840558378537 87 75 52
-0.07313930378989145 0.14711627386808376 -0.6820653735912754 108 92 62
-0.07251612837498854 0.14747665138915436 -0.6836820969424298 115 97 64
-0.07367152541371479 0.14688871774368928 -0.6866066662205631 136 118 84
-0.07437835234473311 0.14654004638107343 -0.6892080795742404 102 87 56
-0.07509777773628212 0.1461847362899826 -0.6918245594412926 109 95 69
-0.07622106692823953 0.1456142064639805 -0.69474650871993 93 78 54
-0.07705433081307293 0.14519838251336747 -0.6974602298332636 82 66 40
-0.07675301793067021 0.145387415913754 -0.6993334650444113 86 71 44
-0.076332388937568 0.1456400638611314 -0.7011187256123843 63 49 28
-0.07878809994245432 0.14435969905141305 -0.705064343639644 50 37 23
-0.07926349953938994 0.14413491936769854 -0.7075323206472676 66 54 39
-0.07909530879255867 0.1442531851300589 -0.7095190441973548 78 66 50
-0.07488494159134343 0.14652550173085122 -0.7084460234443963 69 57 36
-0.07528169934177442 0.1463426620314315 -0.7108568513802712 98 86 58
-0.07413871843262453 0.14698029721947647 -0.7120990426667235 108 93 63
-0.07214352605839447 0.14807195574602877 -0.7126876680140312 118 104 74
-0.06968953985175665 0.1494079605305444 -0.7129185146577071 149 134 101
-0.06773122566328868 0.15047979101304013 -0.7135220712559129 136 118 85
-0.06576883104669307 0.15155371322874805 -0.7141164341653029 158 141 108
-0.06616730767407669 0.15136997387101792 -0.7165297679890883 144 129 95
-0.06477607356715104 0.1521395767884709 -0.7175600615491502 134 119 89
-0.06039154902758581 0.15450340374355867 -0.7162594667693956 123 109 82
-0.05781202002273586 0.1559056875150493 -0.7163493679936497 141 126 101
-0.05728297470470843 0.15621585687065664 -0.7180338874193058 166 150 117
-0.05805994526142355 0.15583054603855215 -0.7207429957180949 179 159 121
-0.05150073615182364 0.1593517852722109 -0.7176882152026136 144 125 89
-0.0996096791730681 0.13418535543237184 -0.7888386261340061 150 133 103
-0.09823229311345266 0.13494852053764075 -0.7899489197235867 97 84 59
-0.0967136268667867 0.13578679573041813 -0.7909391860864485 96 84 62
-0.0945291723776868 0.13697917270229962 -0.7913743493069723 128 115 88
-0.0911759331577594 0.1387931353118287 -0.7908323353295836 144 130 100
-0.08830445716330557 0.14035068999178146 -0.7906786692111895 136 124 94
-0.08549986045727417 0.1418725347092828 -0.7905704305612645 116 102 78
-0.08521809760474267 0.14205257151336179 -0.7925633980619886 111 97 75
-0.08340438072673209 0.1430472920513144 -0.7932723532291555 107 94 75
-0.08275447024220348 0.14342308592309252 -0.7949551635516258 103 90 68
-0.08225144194761233 0.14372077862460436 -0.7967618126680293 83 71 48
-0.08165368390173058 0.14406884552096005 -0.79848887884263 80 68 48
-0.0818753782413808 0.14398124962351158 -0.8009114047507093 71 59 41
-0.08147770120150316 0.1442229787346152 -0.8028108986366957 68 58 40
-0.0812876260882649 0.1443543633049532 -0.8048885941794864 91 80 61
-0.08170665271194733 0.1441620026215078 -0.80748945604641 104 90 69
-0.07496294112014187 0.14777689305695102 -0.8039503505484185 117 102 80
-0.07286888072430217 0.14892012966488177 -0.8043823397885919 117 103 77
-0.07100224004050723 0.14994240745629 -0.8050035824795421 122 107 77
-0.06950655716497858 0.15076746747006864 -0.8059398272320067 137 120 88
-0.0691098585862088 0.15100847273567947 -0.8078251185372131 117 101 70
-0.06817535521655513 0.15153526402098325 -0.8092437564511217 118 102 74
-0.06567509467139943 0.1528939764300894 -0.8092955033709663 120 101 75
-0.06341135312556975 0.15412690509835347 -0.8095451653406223 132 113 84
-0.0626843656171508 0.15454329609258566 -0.8111344386779111 114 98 70
-0.0631941112222223 0.15430268017408305 -0.8138104925833064 107 92 64
-0.0633006701823825 0.15427631223126928 -0.8161364928514093 85 72 47
-0.06302069572284008 0.15445530762323473 -0.8181242892956333 94 84 58
-0.0627634757266676 0.15462223919577806 -0.8201338787708148 104 94 67
-0.061604124369768254 0.15526832452628825 -0.8213434837531439 100 88 62
-0.05881831805902807 0.15677814741230067 -0.8211011989330408 101 89 65
-0.05756494591891287 0.1574740393857055 -0.8222177506038273 109 97 71
-0.0567183870529224 0.15795386751238605 -0.8236957185785114 115 104 77
-0.055862119481626865 0.1584388359586248 -0.8251638727133198 102 91 65
-0.05517598170747462 0.1588334590787451 -0.8267841188766573 110 99 71
-0.05857862379826051 0.157057286776636 -0.8320965912105757 124 112 84
-0.059168704969317615 0.15677451360392505 -0.8348816648874234 125 112 84
-0.051235629078242306 0.16101632720124073 -0.829934260226452 121 109 78
-0.050373484474096536 0.1615042983049594 -0.8313884299471989 125 112 77
-0.04763238524846078 0.16298957100341985 -0.8311263891780029 131 117 78
-0.04702409173843167 0.16334271670028205 -0.8328059514398898 141 127 86
-0.046614685316243826 0.16359031001398563 -0.8346680493459532 141 126 86
-0.047060538036336474 0.16338404401977089 -0.8373180179973769 144 129 89
-0.046310355063084035 0.16381252635912172 -0.8388698483452778 148 130 90
-0.052585323272761 0.16051332348500222 -0.8469186210872404 157 138 97
-0.05289924593036621 0.1603774211881735 -0.8494730787415068 160 142 100
-0.05127784394257667 0.16126837216071366 -0.850232664781769 157 140 97
-0.05135073490560635 0.16126040161068814 -0.8525668360310653 153 135 93
-0.0528631445965487 0.1604888322779836 -0.8562499000577851 153 136 94
-0.04579086543241462 0.1642711785576225 -0.8518984149086244 152 136 97
-0.04596240743765029 0.1642108301452216 -0.8543214831605355 154 138 98
-0.046022634564594295 0.1642095742776204 -0.856643573547619 148 134 99
-0.04587863301539444 0.16431667703490574 -0.8587761131551205 105 98 74
-0.04573458739234815 0.16442383493898874 -0.8609109565313515 82 76 58
-0.04564087384593801 0.1645043342734646 -0.8630959376816746 91 88 73
-0.04315190749276407 0.16585495809969092 -0.8630034292884097 112 108 99
-0.041924812202569633 0.16653638839978413 -0.8641059954418292 135 130 126
-0.040832378794874 0.1671463820878337 -0.8653344026045283 156 153 153
-0.03966675026075325 0.16779514846032 -0.8664902379821456 167 166 167
-0.04050422820730237 0.16738199469899506 -0.86957003302951 175 174 177
-0.03848043298867693 0.1684856557280013 -0.8698978489900143 182 180 183
-0.03892800324322865 0.16827927276970045 -0.8726080477144327 186 184 186
-0.13129839655294234 0.11073601942852378 -0.47403540955617046 166 163 162
-0.1296093805654276 0.11167016852956033 -0.4751140717957055 103 96 89
-0.12760776961843956 0.11277260567667481 -0.4760367254977349 78 70 59
-0.12592910911641936 0.11370106355539543 -0.4771115668340342 72 64 48
-0.12501029593954222 0.11422030530654834 -0.47855433169556233 77 69 53
-0.12433388887140275 0.11460900595336945 -0.48011499843472905 70 63 46
-0.12329724648806852 0.11519166439181905 -0.48149759473114395 74 67 48
-0.12204395077832039 0.11589094855850166 -0.48277118652104456 79 71 54
-0.12119848577619032 0.11637063126464672 -0.48424503282396925 71 59 43
-0.1205045309570702 0.1167687346885962 -0.48579352466094483 71 59 42
-0.11975703394285409 0.1171956564890718 -0.48731479225854696 70 58 42
-0.11883875266509063 0.11771450509496034 -0.4887495656361163 78 66 49
-0.1178746122778135 0.11825802266024488 -0.49015993130769037 76 64 48
-0.11789414536397376 0.11827205050501072 -0.49206732612660675 75 63 48
-0.11686507903495424 0.1188505006448444 -0.49344367787819204 64 52 38
-0.11594152145534305 0.11937214316240753 -0.4948722127984969 54 43 27
-0.11449441696006225 0.1201755340360224 -0.4960311546127608 71 62 45
-0.11324252467344338 0.12087382688173363 -0.4972872172170441 91 82 65
-0.11163363844367508 0.12176419767261702 -0.4983564025891376 81 74 57
-0.1103369986633417 0.12248649463265782 -0.49958347858668684 77 70 54
-0.10892747706842235 0.1232694962617333 -0.5007491014295273 83 76 60
-0.10743280135484166 0.12409827487499926 -0.5018670897294554 78 71 55
-0.1064497434625321 0.1246517396386316 -0.5032496748909394 71 64 47
-0.10582003381616077 0.1250150795205972 -0.5048165734478258 77 70 52
-0.10521612324150263 0.12536453765809558 -0.5063969195486053 86 79 62
-0.10420063958283461 0.12593540479795762 -0.5077591235071014 73 65 51
-0.10318605371616361 0.12650576738711466 -0.509120135087381 64 54 44
-0.1021724608486824 0.127075574241604 -0.5104800073414272 62 52 42
-0.10068795353571157 0.1278986572421242 -0.5115859546239052 56 47 36
-0.09819873021738584 0.12926209106518727 -0.5121482393135033 64 54 42
-0.09796588207423822 0.12941187260579612 -0.5139205690280295 76 65 52
-0.0971243701395188 0.1298890167737577 -0.5153646593767577 75 64 51
-0.09686274777118246 0.13005429261974016 -0.5171228965997028 77 66 53
-0.09540443773221219 0.13086311375936077 -0.518229675525471 102 89 76
-0.09368304210481611 0.13181336039750416 -0.5191890130215555 109 96 81
-0.09243590275658733 0.13250853792566983 -0.5204044180039504 100 88 71
-0.09211378789330892 0.13270631223328805 -0.522127194456224 100 88 71
-0.09093079508632139 0.13336695678958932 -0.523374678503336 103 90 74
-0.09050549800166115 0.13362020959952078 -0.5250405092703809 67 54 39
-0.08925209140143896 0.1343186670446865 -0.5262455101549564 97 84 69
-0.08815325662867758 0.13493399537701298 -0.5275342949485651 92 81 61
-0.08746289787194524 0.13532971892736897 -0.5290502600593421 94 81 56
-0.08640108408705102 0.13592510485320547 -0.530356604476137 152 136 106
-0.08468175006053834 0.13687388572567333 -0.5312894547455265 160 144 113
-0.08312135958401369 0.1377371794878533 -0.5323079270716173 155 140 108
-0.082742251114221 0.1379655399858799 -0.5339947764454016 113 95 62
-0.081851613639447 0.1384688201192287 -0.5353902906465389 138 115 84
-0.08143338952328531 0.13871820881083946 -0.5370552962320659 114 96 64
-0.08049937820055468 0.13924477704372212 -0.5384243262264489 90 76 47
-0.07991262933855492 0.13958472567904834 -0.5399923342837681 77 63 38
-0.07915905746521446 0.14001431183964844 -0.5414637088800771 65 50 27
-0.07839841960032692 0.14044768549944478 -0.5429302785726339 74 57 32
-0.07822904894268021 0.14056337853521716 -0.5447408693839154 111 95 63
-0.07792635457741373 0.14075072040422826 -0.5464750967067241 115 99 65
-0.07790089336288009 0.1407891414412044 -0.5483731909845607 119 102 69
-0.07774803400202016 0.14089602876370844 -0.5501984610088066 148 132 98
-0.08056542091279541 0.1394074173397301 -0.5537811693778291 135 119 86
-0.08242505816577414 0.13843343035407418 -0.55680950637382 149 133 100
-0.08368002867978616 0.13778434677559903 -0.5594878335063063 147 129 96
-0.08677567996515345 0.1361467486578918 -0.5632727552798249 122 110 89
-0.14014768415667217 0.10823708841555674 -0.6535873944935608 211 209 209
-0.13429264661752885 0.11140473279254046 -0.6518665780464679 149 144 134
-0.12849765271091135 0.11453989308620777 -0.6501634264341893 123 116 99
-0.12177130634789662 0.11817422351187598 -0.6478229601447331 120 110 95
-0.12471117073033082 0.11662484581822802 -0.6518665609333961 115 105 90
-0.11990978484143186 0.11922659332466601 -0.6507755949676894 95 83 69
-0.11561596967114926 0.12155596276071823 -0.6500057343086956 108 96 82
-0.11182004181646617 0.12361818703083527 -0.6495536744158279 95 83 69
-0.1099121436305255 0.12466801280959952 -0.6503560664433149 103 91 75
-0.10746912250548168 0.12600464745726964 -0.6507925083067819 97 85 69
-0.10356986691676157 0.1281218298468862 -0.6502371386779738 114 103 84
-0.10328833492529238 0.12829956758087116 -0.6521202328043205 117 103 82
-0.1010620508616486 0.12951974565631602 -0.652682285053617 124 109 86
-0.09908622473866109 0.13060559187327803 -0.6534083194049168 125 111 86
-0.0967935264203752 0.1318611947484713 -0.6539117223684885 135 122 96
-0.09472633289184738 0.13299584885090168 -0.6545627380693501 140 126 100
-0.09234406633353273 0.13429927262397615 -0.6549905982713986 125 110 84
-0.09102115954695911 0.13503490828070594 -0.6561425287647109 142 127 101
-0.08806516574094884 0.13664559839995344 -0.6561600081144587 154 138 108
-0.08600246937130651 0.13777750727543217 -0.6567882062610754 149 133 95
-0.08377715952034069 0.13899646316525668 -0.6572967996902825 164 147 108
-0.08258026683232268 0.13966433442482737 -0.6585175216524897 177 157 122
-0.0811495741450008 0.14045742906407846 -0.6595717089064086 181 158 122
-0.07990866499843258 0.14114880789844822 -0.6607558469145596 205 185 146
-0.07935856696582783 0.14147009320341722 -0.6624247168712055 215 198 158
-0.07880449093060121 0.14179351219825137 -0.6640909906748217 206 187 151
-0.07873191493187949 0.14185902782556895 -0.6660993269787611 170 152 114
-0.07583077311937528 0.14343955936304276 -0.6660955828215827 148 130 96
-0.07544776477310237 0.1436713145520238 -0.667880624094836 106 89 64
-0.07484140865111917 0.14402269497217948 -0.6695065809069496 78 65 41
-0.07417562980238826 0.14440589699218048 -0.6710898061828915 70 59 35
-0.07438015591009177 0.14432305563770723 -0.6733000847440987 50 38 21
-0.07365364043001743 0.1447387969116344 -0.674840719331957 41 30 20
-0.07316953706719305 0.14502473545200145 -0.6765565976792237 41 30 23
-0.06958596317551845 0.14697015432793983 -0.6760185470564843 57 47 37
-0.06899028931414085 0.14731575077502185 -0.6776472766244847 81 70 52
-0.06936467389036412 0.14714202754329836 -0.679985842688083 86 74 51
-0.07184419332526416 0.14584143712576478 -0.6838736750990088 98 84 58
-0.07220538244774967 0.145674947339703 -0.6862156732794167 113 98 70
-0.07226808159523475 0.14566828313093105 -0.6883415187026554 101 87 59
-0.07309034774762892 0.1452551094477261 -0.6910327505216228 113 100 75
-0.07364815153148906 0.14498355899045143 -0.6935338339362572 89 75 51
-0.07510232195043741 0.1442323584875463 -0.6967077479933079 81 66 38
-0.07535639724442884 0.14412350640010377 -0.698994130761128 90 74 48
-0.073727573428868 0.14502228315481352 -0.6998734023320301 68 54 34
-0.07417038124610911 0.14481248607714173 -0.7023050606380767 48 36 21
-0.07609121401840577 0.14381191077474206 -0.7058554282380001 51 39 23
-0.07708170110526963 0.14330924840912487 -0.7087136869624366 81 69 52
-0.07603159036502848 0.14389841156344152 -0.7100318763872935 85 73 50
-0.07393885565941799 0.1450453302597623 -0.7105552743498286 91 77 49
-0.07155399672499345 0.1463484351075536 -0.710849276340966 108 92 62
-0.07076530625815088 0.14679761432445626 -0.7123562159144226 128 114 86
-0.06824297038121967 0.1481740953122942 -0.7125324564666 147 132 104
-0.06546682870502421 0.14968621676616078 -0.7125048695161326 149 131 103
-0.06395877301634512 0.1505199973816365 -0.7134459882329844 130 112 84
-0.06118453273741771 0.1520308870943489 -0.7134032598566145 119 104 75
-0.06031939442450776 0.1525207093901523 -0.7148323636768796 117 103 75
-0.058431817893859414 0.15355726180237783 -0.7154645137392396 111 98 73
-0.05643796185582409 0.15465056889494055 -0.7160079203341743 100 85 62
-0.05537232270825106 0.15524748794498636 -0.7172716642441697 140 123 92
-0.05438045281958835 0.15580493838191797 -0.7185912190512473 169 148 110
-0.05350597707349565 0.15629960343992608 -0.7200014270517507 187 168 132
-0.0538778589861007 0.1561279485067226 -0.7223944874341109 131 116 85
-0.09664011965594721 0.13366889749492408 -0.7872162707216847 101 88 63
-0.09601108931296332 0.1340338714191897 -0.7889381234958455 108 95 72
-0.09413237287639092 0.13506633769083856 -0.7896275621024398 113 98 74
-0.0917041758609004 0.13639220591713974 -0.7898560165352431 155 139 107
-0.09122719566617879 0.13667588411404358 -0.79169718370993 158 143 109
-0.08598085034607592 0.13950659395654125 -0.7895657307486079 143 129 100
-0.08439731657035776 0.1403810559769851 -0.7904728265608802 122 107 83
-0.08412649878311293 0.14055449911387122 -0.792475193442521 110 97 74
-0.08212070659335394 0.14165434963317353 -0.7930217279316966 104 92 71
-0.08159164475310804 0.14196566451383033 -0.794805829023153 84 72 52
-0.08119426370557337 0.1422066825266834 -0.796701618602686 64 54 35
-0.08083594152207213 0.142426862518188 -0.7986315636937792 59 50 33
-0.08078345568348871 0.14248379499548172 -0.8008225412088061 69 58 41
-0.07789133834832984 0.14405654867153928 -0.8005975763559174 87 76 56
-0.07540356712272286 0.1454133385544256 -0.8007073371326447 99 86 65
-0.07364718147611349 0.14637964840939616 -0.8014347381872091 121 105 84
-0.07239390648982966 0.14707737636921497 -0.8025888813170704 122 107 84
-0.07050556591673465 0.14811398483585209 -0.8031931812574463 122 108 82
-0.06871718532053486 0.1490971730492105 -0.8038778329841217 115 99 72
-0.06766301805108027 0.14968850333972875 -0.8051927044240967 140 122 94
-0.06608216437327541 0.15056083850798885 -0.8060482528528715 135 117 92
-0.06566674564463257 0.1508112934618471 -0.8079138714457095 117 101 76
-0.06527727960526505 0.15104791466211145 -0.8098031190034908 119 102 77
-0.0652416429694031 0.15109578497891707 -0.8120031817021998 111 93 69
-0.06499285705962038 0.15125739812028816 -0.8140189445034093 100 85 59
-0.0632376548090858 0.15222260235046228 -0.8147107104215057 98 84 57
-0.0629089435364866 0.15242684714747845 -0.8166559037570852 87 74 48
-0.062248109842037075 0.1528082536707375 -0.8183086130933743 121 110 84
-0.06090829711544332 0.15355178290972057 -0.8193587172011546 114 104 78
-0.05970928518252061 0.15422017766467747 -0.8205306444973341 112 100 75
-0.056736032082572385 0.15583469659461405 -0.8201171361032858 130 118 94
-0.05580878613575127 0.15635804679017493 -0.8215223372521436 118 106 81
-0.05488427916609703 0.15687991736438459 -0.8229285133089932 117 105 79
-0.05422258116883877 0.15726164371141924 -0.8245695431287743 111 99 73
-0.0534840127462651 0.15768435094577926 -0.8261410551166388 107 97 71
-0.05523923990055049 0.1567775574196773 -0.8299664920551002 104 94 67
-0.05693839564186917 0.15590080315874244 -0.8337525611322856 104 95 66
-0.0511535476808824 0.15901360121076427 -0.8307478050463283 106 95 66
-0.05090499031970583 0.15917508583629603 -0.8327632586116579 117 106 73
-0.0473798196695058 0.16108301294576027 -0.8317865937256818 124 111 76
-0.05057276559370555 0.1594102441907498 -0.8369506038364692 135 122 86
-0.05141868650829626 0.15898852063233165 -0.8399772028726294 126 112 76
-0.05054942414861349 0.1594809120854807 -0.8414312277975 120 107 71
-0.05040303795681711 0.15958808918661607 -0.8435515748314486 140 125 86
-0.05031985478155859 0.1596616191898789 -0.8457327497497258 152 133 92
-0.050252713103957763 0.15972663610083968 -0.8479314389694582 155 138 96
-0.04852678315622111 0.16067544835830008 -0.8485888729679457 149 132 89
-0.04798939880885131 0.16099100126351312 -0.850350073773762 154 137 94
-0.04877522904894674 0.1606016681158964 -0.8533497839063178 157 140 97
-0.04603329906478823 0.16209158974805785 -0.8530468822925875 153 138 97
-0.04371371440229077 0.16335641518389998 -0.8531308028721794 152 137 98
-0.04387667500608497 0.1632988894536728 -0.8555475334869798 140 126 89
-0.0429317689078737 0.1638314455449263 -0.8569206027148873 118 109 83
-0.04307950684321876 0.16378209107394273 -0.8593278813436322 94 87 68
-0.043042189149645416 0.16383133144542866 -0.8615630609463383 77 74 56
-0.04127765363084457 0.16480033178019063 -0.86215518181787 99 94 81
-0.04001030189621624 0.16550453023987372 -0.8632166450512815 118 114 106
-0.03907219050732741 0.16603339165395523 -0.8645902685850427 141 140 136
-0.037711428048491896 0.16678724838848874 -0.8655563913142634 158 158 158
-0.036810978597604516 0.16729600532932692 -0.8669620429413627 170 170 173
-0.037178191229268936 0.16712993305375476 -0.8695900527851167 177 177 180
-0.035157328086257406 0.16823508488660574 -0.8699116298031703 183 183 185
-0.12948688036768813 0.1097904646170212 -0.4773730970415797 160 158 155
-0.12807367429179586 0.11057765493651572 -0.47858252514659405 115 112 104
-0.12694161736885606 0.11121286166113319 -0.47992662276932774 83 78 67
-0.12172711597003544 0.11414764757899205 -0.4868390290875117 63 51 37
-0.11992886688010412 0.11514265867311067 -0.48783758100510477 67 55 41
-0.11940520341692307 0.11544898007880432 -0.4894730960160318 71 59 45
-0.1188570072698245 0.11576855853098149 -0.49109646785607386 74 62 48
-0.11889512457839325 0.11577139323541212 -0.4930173664654387 66 54 41
-0.11727533955540485 0.11666987152069239 -0.4940966363769322 68 56 44
-0.11607484918244232 0.11734180427171548 -0.4953862233672023 60 48 35
-0.1153240542200852 0.11777079982312426 -0.4969041289866962 66 56 43
-0.11420252058389405 0.11840003782385915 -0.49823053585436283 76 66 53
-0.11325546631501865 0.11893501175013962 -0.4996450611076749 77 69 55
-0.11211266896737775 0.11957568768542769 -0.5009566721421204 72 64 51
-0.1109712054662199 0.12021561691073063 -0.5022668393142995 73 64 53
-0.108886101583216 0.12136512633361751 -0.5030817525419912 67 59 47
-0.10778341693439937 0.12198403904789346 -0.5044061568446279 72 66 51
-0.1069420601570068 0.12246181129466725 -0.5058661374773321 73 66 52
-0.10577519191367425 0.1231153383258433 -0.507153138253778 88 80 70
-0.10468171850618666 0.12372920823635805 -0.5084768092234812 55 47 39
-0.10373886415055883 0.12426173105814498 -0.5098786775128938 53 46 39
-0.10268876087988964 0.12485214043742984 -0.511221864103491 48 41 33
-0.10125970087719913 0.12564711709756154 -0.5123600629352466 53 46 37
-0.10022107944592307 0.12623127426891378 -0.5137050677550762 63 54 46
-0.09808937003516575 0.12742892433729464 -0.5163602381043184 67 58 50
-0.09702528905420295 0.12802675714525158 -0.5176859629104896 65 55 47
-0.09525285435461492 0.12900690452033858 -0.5186230980403407 85 75 66
-0.09382698988083714 0.12979993966819445 -0.519745451153302 82 72 60
-0.09334398688416504 0.13008406506060535 -0.5213829274747922 86 77 63
-0.09225802092377741 0.13069360402011976 -0.5226880694885503 93 83 71
-0.09166411045449593 0.13103757660771945 -0.5242637232450431 50 40 29
-0.09058277193688377 0.13164458150953434 -0.5255684393017832 67 57 46
-0.09000725391721154 0.1319786163679455 -0.5271532974914306 73 63 53
-0.08800357709884801 0.13308326548286784 -0.5279388306595794 59 48 35
-0.08720851841381785 0.1335357217990131 -0.5293976019841428 88 80 61
-0.08584067863897567 0.13429720417469365 -0.5305326686776084 101 91 69
-0.08477541174524424 0.13489540628019858 -0.5318357647652703 114 102 78
-0.08316569261504507 0.1357873100930012 -0.5328278861772097 137 122 93
-0.08178560219602946 0.13655528718299453 -0.5339467163188378 153 134 101
-0.08165112716202523 0.1366512915744639 -0.5357743695070485 127 105 74
-0.08087201906349799 0.13709504214992696 -0.5372340299114544 149 131 98
-0.08068312851753062 0.13722042557282818 -0.5390326228054966 108 93 61
-0.07891379300308929 0.1381982652323378 -0.5399199138369065 90 76 49
-0.07786176196609547 0.13878917485820785 -0.5412181937634495 93 78 53
-0.07710423737528317 0.13922122912759238 -0.5426858634550117 103 86 59
-0.07656755196739037 0.1395341779262293 -0.5442816981523816 101 86 57
-0.07603986924498486 0.13984227394123463 -0.5458829723674193 91 76 46
-0.07501515125341515 0.140418394617613 -0.5471923818115826 119 103 72
-0.07483380084543557 0.14053973509630308 -0.548997273397896 129 112 83
-0.07811205169531257 0.13879570559401228 -0.552850631232236 143 127 95
-0.07971545993295283 0.13795488805484174 -0.5557252509666826 151 135 99
-0.08038362742731665 0.13761840711358328 -0.5580515837674813 153 136 100
-0.08251025078465635 0.13649570943377543 -0.561254701496755 141 124 96
-0.0874844170750126 0.13383805779819635 -0.566176549844452 147 139 125
-0.1373169019609688 0.10766737247676658 -0.6523650661463883 177 172 167
-0.13115598203873732 0.11101043559842444 -0.6504362089690049 125 116 104
-0.12557632459585563 0.11404028672667271 -0.6488675006056637 114 105 90
-0.12165550429155474 0.11617687981726998 -0.6483755218995522 111 101 88
-0.11742224090495938 0.11848149131174118 -0.6476622869225872 104 94 83
-0.11747912188218203 0.11847662488794841 -0.6497904016625855 99 89 77
-0.11339563269762953 0.12070035624521344 -0.6491557907222966 93 82 68
-0.11082130162667178 0.12211163915542561 -0.6495177809835799 98 86 72
-0.10842484515194853 0.12342708797062607 -0.6499910562227437 107 95 79
-0.10611666635994219 0.12469493513605234 -0.6505163156445125 99 87 71
-0.10196044941694157 0.12695721153265038 -0.6497843569070478 109 98 80
-0.0996200516293623 0.1282421710304411 -0.6502694582522948 118 103 86
-0.09942299651177468 0.12837371692063126 -0.6522060958227114 105 90 69
-0.09761161339861175 0.12937390476345612 -0.6530422468769103 117 103 78
-0.09479080409951104 0.13091714430801868 -0.6531819074878347 127 113 87
-0.09334566151481909 0.13172013584514589 -0.6542572846978365 127 112 88
-0.09112306131294078 0.13294134812645625 -0.6547932746065589 121 106 83
-0.08873489459826972 0.13425154416203824 -0.6552078977344415 121 108 83
-0.08635882778053437 0.13555513721893678 -0.6556232827444529 131 116 87
-0.08474925093201204 0.13644633307170087 -0.6565642502719456 153 139 103
-0.08206923093767875 0.13791325100279744 -0.6567539993374231 161 145 109
-0.08059821638100176 0.13872978516618953 -0.657781005863937 164 144 106
-0.07977798090084125 0.13919626346529496 -0.6592611525623174 154 130 93
-0.07792566071057586 0.14021779091793513 -0.660013558051231 169 149 110
-0.07794591473031783 0.14023222104506602 -0.6620832799033045 178 161 117
-0.07763297408567649 0.1404258603811631 -0.6639196071249792 183 163 123
-0.0776574155489734 0.14043809604552102 -0.6659969505244403 170 148 107
-0.07523743332090452 0.1417647291487723 -0.6663345018925875 188 167 128
-0.07429153678373256 0.1422986901443287 -0.6677181620234822 126 107 76
-0.07323089708823458 0.14289432380028225 -0.6690180297157631 101 86 60
-0.07298565409035748 0.1430515602409409 -0.6709024574348301 84 71 47
-0.07289693461263794 0.1431246699018734 -0.6729013646520378 78 65 45
-0.06890331052901073 0.14529694745465482 -0.6720764726075004 58 46 31
-0.06884725122141565 0.1453524510236594 -0.6740950289688705 48 37 26
-0.06827699737674209 0.14568436914938562 -0.6757415796559197 43 32 20
-0.06778178764200195 0.14597595375793435 -0.6774430557460145 55 43 29
-0.0671183240256301 0.1463579732327751 -0.6790217458569321 59 48 32
-0.06960501709007595 0.1450469992477368 -0.6829144023922112 67 55 36
-0.06987566129233834 0.1449271042232527 -0.6851877272843369 75 62 40
-0.0693908976851443 0.1452131946090988 -0.6869066053173212 103 91 65
-0.0710506348402191 0.14434694561629047 -0.6902155854637535 99 87 61
-0.07185919788910815 0.14393817395986658 -0.6929017292981512 81 67 43
-0.07310058844921864 0.1432969230335631 -0.6959168379807785 88 72 47
-0.0706977313293362 0.14461370877866878 -0.6962147125562659 87 71 48
-0.07124430998596917 0.14434584057251265 -0.6987169194297581 74 59 42
-0.07161390943066893 0.14417311067427502 -0.7010910816015345 47 35 19
-0.0733829419695785 0.1432486784677435 -0.7045254409632937 50 38 22
-0.0741617759596696 0.14285626960563635 -0.7072210350885957 84 73 55
-0.07346674548968665 0.14325559492471912 -0.7088042021808185 99 88 65
-0.0710369644404606 0.14458665616929334 -0.7090665308226558 117 101 73
-0.06951380020384 0.14543069507298642 -0.7100128482460332 120 101 69
-0.06853644777165148 0.1459815560622391 -0.7113729643124076 120 104 77
-0.06636580542074444 0.14717321841907888 -0.7118151263265584 117 102 76
-0.06462866036428896 0.14813200922554753 -0.7125841219358423 144 125 101
-0.062348132262635234 0.14938251565894423 -0.7129283595949796 122 103 79
-0.06047767927245469 0.15041274436369448 -0.713582713174297 118 103 77
-0.05953631605153843 0.15094406473344735 -0.7149531219430774 124 110 84
-0.057410085837123925 0.15211150109010224 -0.71539888732461 113 99 74
-0.055509194692066235 0.15315787838900619 -0.716013850498913 108 92 71
-0.053953056791782486 0.15401911044981584 -0.7168930948792704 125 108 82
-0.052557043408857224 0.1547943345204693 -0.7178938534855168 162 145 114
-0.05142187831537552 0.1554294982077448 -0.7190965857190608 148 133 102
-0.050479925345617155 0.15596092654308294 -0.7204495980243518 137 125 98
-0.05031793531579923 0.1560737171727039 -0.7224192837666851 103 89 60
-0.05066665487072666 0.15591244050877756 -0.7247969175275314 133 117 84
-0.05576434656784442 0.15325486092229557 -0.7352039467011603 125 110 81
-0.06455309965822068 0.14859163942072504 -0.7465406461743803 115 100 76
-0.09041512004290286 0.13487921926005683 -0.7806877050165681 83 75 54
-0.09366156108011975 0.13316541396672998 -0.7855833479798734 103 91 67
-0.09302980469275912 0.13353178821810238 -0.7872985806728745 121 106 81
-0.09319778182549446 0.1334692712537894 -0.7896751903021516 133 116 88
-0.09029583257468218 0.135053091249672 -0.7895095702015109 163 144 108
-0.08860532633779691 0.13598716279394865 -0.7903409021127493 156 139 106
-0.0853587265655027 0.13775556195925187 -0.7898696095333184 130 119 93
-0.08326109055944203 0.13890776180571196 -0.790347005621646 86 75 54
-0.08258425763180538 0.13929811426348382 -0.7920090499109032 72 60 39
-0.08113767499234836 0.14010114285443656 -0.7930235569216746 76 63 44
-0.08099922423880734 0.1402028449543539 -0.7951373391016426 57 45 26
-0.08148066872153767 0.13997227193396009 -0.7977775831726232 61 52 33
-0.08061556304706557 0.14046356036290578 -0.7992812218808809 87 77 60
-0.07999444934402947 0.14082405396537614 -0.8009912091067302 96 84 65
-0.07418777297355861 0.14396388997633772 -0.7982798957008761 100 87 63
-0.07311663963742429 0.14456542144374487 -0.7995930132178002 118 104 79
-0.07159664087328627 0.14540748254745722 -0.8005192062034283 134 119 96
-0.07033531701773171 0.14611087035203696 -0.8016635559233409 125 111 85
-0.06847516185870256 0.14713511144084035 -0.8022886845304471 123 109 83
-0.06729653119683104 0.14779409797125853 -0.8034970768993069 123 108 82
-0.06557667791480518 0.14874304068771338 -0.8042337292813114 127 108 82
-0.06444121434909603 0.14937881873875228 -0.8054730898866378 128 110 86
-0.06385296654791439 0.14972139891769573 -0.8071869059473393 118 102 80
-0.06332313607492801 0.1500326859261034 -0.8089519237118877 88 72 49
-0.06283392457661485 0.15032221922575378 -0.810752964209329 82 69 44
-0.06190840242439802 0.15084547293135128 -0.8121712779969003 95 82 57
-0.06122548919428117 0.1512387607748961 -0.8138018782303068 84 69 45
-0.06046428404741511 0.15167397793332205 -0.8153630181434915 94 81 57
-0.05947400295325528 0.15223187266482302 -0.8167205751513916 83 71 49
-0.058759197324738804 0.15264221772704223 -0.818321030900874 78 67 46
-0.057641854475097065 0.15326811971495377 -0.8195625478412284 83 71 50
-0.0569027202356398 0.15369146917310753 -0.8211394049994444 98 85 64
-0.05570359100967737 0.1543611160623383 -0.8223038259738298 83 71 49
-0.05484798612216621 0.15484679854567324 -0.8237738647012571 83 70 45
-0.05167156703826409 0.15657501031297777 -0.8231536266759134 83 70 45
-0.050794474584492266 0.15707209939919434 -0.8245963966360539 88 74 51
-0.04990311008868617 0.15757681330953238 -0.8260249961563537 86 74 48
-0.05055512100531226 0.157255339102167 -0.8288527549522855 99 88 62
-0.050073170121780836 0.15754091866376355 -0.8306549359435325 108 95 69
-0.047742773084991585 0.15881587275265777 -0.8307715096780184 108 96 66
-0.04545317151438111 0.16006889019727794 -0.8309170860458212 112 99 67
-0.046532580103011645 0.15951877261304676 -0.8341443131320707 118 104 71
-0.04540373456007152 0.16015050915079806 -0.8353491854462932 119 104 72
-0.047124309384686563 0.1592574263515408 -0.8391786958040787 123 109 76
-0.04423255296483411 0.1608325070507935 -0.8387558388673579 136 121 85
-0.04646775602079603 0.15966420858645983 -0.8430739068714396 146 128 89
-0.046406890917936316 0.15972455213042672 -0.8452721494388404 150 132 92
-0.04541639721163762 0.16028228238655007 -0.846606924922865 150 133 90
-0.04413526747014965 0.16099547221660074 -0.8476683579977897 151 134 91
-0.045266683751193054 0.16041805118761923 -0.8509863150982948 157 140 97
-0.042919225179277765 0.16172948343628873 -0.8533070111571541 150 135 94
-0.042369049859758645 0.16205164094625504 -0.8550519334349387 143 128 90
-0.04296334202759419 0.16176171857952476 -0.8578804743553341 130 119 86
-0.041898215412063455 0.1623593098137893 -0.8591402083985987 117 108 80
-0.04082154986875258 0.1629630443928469 -0.8603867554544621 73 68 49
-0.03940672389970434 0.16374757499941686 -0.861308439198934 74 71 55
-0.038338984999923414 0.16434647019907506 -0.8625581407311143 107 104 90
-0.037314642114385566 0.1649221354325876 -0.8638472207507105 125 123 115
-0.036446728932125805 0.16541414269993931 -0.8652846724017591 148 147 145
-0.03509854877407892 0.16616288810150526 -0.8662579373871466 163 163 163
-0.03445901159237838 0.1665327657044154 -0.8679123975617744 174 174 176
-0.03394050765631296 0.16683794429221918 -0.8696840158935955 181 180 183
-0.12221082443071292 0.1119407272399401 -0.4894204574880597 64 53 41
-0.12171992314057055 0.11222922631942393 -0.4910787966903325 67 56 44
-0.12002693223791583 0.11316954230806786 -0.49212960872226774 66 57 42
-0.11911334460648632 0.11368720838867856 -0.4935718497339719 68 59 43
-0.11774559699243436 0.11445110004916147 -0.49478143845097206 77 68 54
-0.11538349886732756 0.11579865517944848 -0.49928951959533274 57 47 37
-0.11340282832584173 0.11689471029268064 -0.5001734717870557 73 63 54
-0.11235702728612836 0.1174839329473375 -0.5015374135022534 67 60 49
-0.11153174484177594 0.11795360226235704 -0.5030145038321028 70 62 52
-0.11004202998530024 0.11878340322121075 -0.5041431602480256 64 56 48
-0.10905712437517719 0.11933955300555656 -0.5055333377508924 67 59 49
-0.10744340226485882 0.12023649372567109 -0.5065906499356512 60 55 45
-0.10388055263268048 0.12225661223555315 -0.5123263447565651 50 44 40
-0.09740908976994689 0.12587470507256332 -0.5183706312782841 45 37 32
-0.09598175441080174 0.12667030293799336 -0.5194984637847848 47 39 31
-0.09572673509634008 0.12683077934660575 -0.5212658624482814 47 39 30
-0.09424338770643463 0.12765666892858074 -0.5223585475530452 54 45 35
-0.09315327647853508 0.12826950604000154 -0.5236648834970171 62 53 43
-0.09244570437432831 0.1286751120259479 -0.5251812599264017 62 53 43
-0.09121008328697558 0.12936672532638782 -0.5264034133397137 69 60 49
-0.09060384065088617 0.12971742575563794 -0.5279743314645478 73 64 51
-0.08824744407501581 0.13101599947009213 -0.5285646949359674 76 66 51
-0.08719060929553232 0.13161068510746565 -0.5298786413970006 86 77 60
-0.0859847878914778 0.13228603217368196 -0.5311066491140627 102 91 73
-0.08510614859727947 0.132784172863465 -0.5325174168902085 121 107 88
-0.08333774735785413 0.13376410754383117 -0.5334214823299378 110 96 72
-0.08159776392031116 0.13472859927149336 -0.5343370237314408 148 131 104
-0.08122477688480793 0.13495286941064183 -0.5360300496282536 119 101 74
-0.08097823901249525 0.13510868557876093 -0.5377964982080379 97 80 48
-0.08050980148464842 0.13538465570981026 -0.5394364354768875 133 118 85
-0.07856073517387654 0.13646222156284848 -0.5402208271301097 118 105 72
-0.07643844567092516 0.1376334996551265 -0.5408992443289093 130 116 84
-0.07432303064771387 0.1388009839091906 -0.5415754762695397 138 122 88
-0.07223748170373742 0.13995222898433185 -0.5422629833987327 94 78 50
-0.07389806050094595 0.13907565683817807 -0.5451402250004239 87 71 42
-0.0730288211352654 0.13956849898020712 -0.5465385228826287 139 121 90
-0.07284305341538773 0.1396914023488406 -0.548339016003662 144 126 94
-0.07357234095949006 0.13931907751611255 -0.550682980472389 138 120 87
-0.07618787391460222 0.1379259843080257 -0.5541530578020857 148 131 95
-0.07764155472971092 0.1371618055656898 -0.5569433136761206 150 135 98
-0.080368266128246 0.13570882331436135 -0.5605034095601341 140 123 91
-0.08311410468860328 0.13424564784512025 -0.5640883990931208 136 123 102
-0.14090573455128869 0.1036103439431594 -0.6532225051497155 206 206 203
-0.13441336440279328 0.10714422249490102 -0.6510928236444845 132 128 118
-0.12831570820282456 0.11046449019879775 -0.6491982947931003 117 106 95
-0.12374687920868178 0.11295827251288748 -0.6482900610675175 108 98 88
-0.11977507292776773 0.11512922932040695 -0.6477606224939176 106 96 85
-0.1157441238776809 0.1173319802884 -0.647177781035467 102 92 82
-0.11560054236111918 0.11743401986398025 -0.6491714138200797 88 78 68
-0.10830115291958059 0.12140255414216888 -0.6463827241485719 89 79 66
-0.10896312848761963 0.12106921980424654 -0.6489055295034964 92 82 68
-0.1028168803673324 0.12441427393458293 -0.6468530026788667 105 95 80
-0.10199343040800962 0.12488340134546161 -0.6483696132325161 107 95 79
-0.10014869809664087 0.1259042426632105 -0.6491938484575204 101 90 72
-0.09683535284825422 0.12771837068957442 -0.6490153759791512 107 94 76
-0.09499838242202768 0.1287348598069355 -0.6498312806824182 108 94 75
-0.09491477252443994 0.12880420565974351 -0.6518402784020983 116 101 76
-0.09319986260472661 0.12975468768193535 -0.6527331278203113 132 116 91
-0.09167306650539239 0.1306035136286627 -0.6537506185860931 140 124 100
-0.08939057844629157 0.1318604257762469 -0.6542428632107863 135 120 95
-0.08702566679113297 0.133161767017537 -0.654670897427139 112 98 71
-0.0851833167772195 0.13418082241422283 -0.655454118723283 131 116 87
-0.08314660253102753 0.13530477275066177 -0.6560966956770069 148 133 102
-0.08115414886698126 0.13640475131289834 -0.6567640278528036 134 118 85
-0.07929337809365061 0.13743355746570324 -0.6575176355675545 146 129 92
-0.07839474921736446 0.1379428140473475 -0.6589419500376162 158 139 101
-0.07726705652729556 0.1385757274971296 -0.6602035165344078 167 150 110
-0.07736665608798174 0.1385460284696256 -0.6623305650556147 168 153 111
-0.07662733724806502 0.13896925571476457 -0.6638656706169332 148 129 93
-0.07375163282872561 0.14054575143868966 -0.6638804024644395 141 121 86
-0.07317538527480409 0.14088088455028352 -0.6655260376581571 160 139 103
-0.07280126246302104 0.14110691701241473 -0.667316437702959 148 129 100
-0.07219801200841193 0.1414566324336076 -0.6689433296506064 103 87 64
-0.07188131694434435 0.14165168689467902 -0.6707765443489533 77 65 42
-0.07180385452889461 0.14171764232275486 -0.6727837761470988 79 65 44
-0.06746781472334772 0.144081862910839 -0.6717082731227575 82 69 50
-0.06698761443889154 0.1443650992626997 -0.6734181339804994 77 65 48
-0.06690416851600137 0.14443424439025584 -0.6754176618938759 66 54 37
-0.06647404810811149 0.14469048006630514 -0.6771660293064973 47 35 20
-0.06578503960334478 0.14508641271788553 -0.6787253232448882 42 33 17
-0.06877432435385088 0.1434977371760876 -0.682989133218263 58 49 33
-0.06850639536074364 0.14366657476203382 -0.6848662911679242 69 58 39
-0.06785635265396216 0.1440415772316787 -0.6864622367681272 87 76 51
-0.06886899558301263 0.1435196124767684 -0.6892916358416713 85 74 47
-0.06953326140294373 0.1431856601520157 -0.6918688991523281 96 81 58
-0.07007659224650188 0.14291700753189987 -0.6943614919538774 83 66 44
-0.07051672601134033 0.14270407770672158 -0.6967819010362517 92 76 53
-0.06851295377048286 0.14380935663461064 -0.6973720054475305 74 60 41
-0.06995475258506356 0.14305623572720777 -0.700550537251262 51 39 22
-0.07272667183337736 0.14158587129091116 -0.7047427320311669 52 39 23
-0.07394089873963203 0.14095572413156074 -0.7077700214801846 82 70 52
-0.07307117377803757 0.14144946345010298 -0.7092222285398965 101 88 67
-0.07075496730999618 0.14272318076461987 -0.7095711432203231 122 106 79
-0.06905050496592255 0.14366695169773613 -0.7103799049952505 123 105 75
-0.06793436958634111 0.14429345018370954 -0.7116346537502766 124 108 79
-0.06547770081939991 0.14564267759825925 -0.7118567317486781 142 128 100
-0.06364526233665856 0.14665526722508007 -0.7125517205491151 124 107 82
-0.06159328359767785 0.14778614711547255 -0.7130714667653246 122 105 80
-0.05972003902946542 0.14882059944009166 -0.713723290207862 121 106 81
-0.05791699586992091 0.14981714277361105 -0.7144239872267713 132 117 94
-0.05608453201007532 0.15082948122811599 -0.715096328665531 112 97 75
-0.05447571767675462 0.15172120815115586 -0.715938037924342 101 85 63
-0.052487111592745925 0.15281757849464156 -0.7164772893209275 118 100 75
-0.05115692150097721 0.1535590256189693 -0.7175281992765473 117 101 76
-0.049272130319535035 0.1545993185004764 -0.7181382669507692 105 92 64
-0.04795944556873359 0.1553312398137489 -0.7191951383576002 138 126 97
-0.047213771755716324 0.1557575808051818 -0.7206986547167038 109 97 66
-0.04631999509363667 0.1562637173706638 -0.7220836464314128 107 93 58
-0.04551584139382231 0.15672154821252415 -0.7235388048695879 133 117 81
-0.04835988060153654 0.15523843786070382 -0.7300195299653522 112 98 70
-0.05238594922261197 0.15309416114550267 -0.735369564193783 110 95 70
-0.060873556862527906 0.14857177286469742 -0.7464856281198822 100 88 66
-0.08920903063521035 0.13346390255990112 -0.7827338276679164 101 88 61
-0.08946123150117813 0.13335418478513633 -0.7851710029889583 122 104 77
-0.08945077124132386 0.1333859478705762 -0.7873948148937809 141 122 88
-0.08783102338988988 0.13428424155468582 -0.7882855237645491 163 143 102
-0.08553803749820596 0.13554495822253615 -0.788611179610947 176 159 125
-0.08287881737939953 0.13700275788489583 -0.7886233700151579 112 103 78
-0.08234257913393644 0.13731753209815883 -0.7904033335558294 75 68 47
-0.08118761235415617 0.13796538910498923 -0.7916643198368625 76 67 47
-0.08047438710212246 0.13837542827387783 -0.793294700639892 82 70 53
-0.08014960567935508 0.13857637441835022 -0.7952525761024808 65 54 36
-0.07918249625405718 0.1391230664668542 -0.7966681516878208 73 62 43
-0.07531119219239377 0.14123282639810983 -0.7956170144623077 93 81 62
-0.0732483748111134 0.1423690998315975 -0.7960899695337634 104 90 68
-0.07182532689361157 0.1431609946411957 -0.7971022181827128 108 94 70
-0.0692662882304794 0.1445641611698766 -0.7971384617324891 125 111 85
-0.06971255733340878 0.1443500442861046 -0.7997447808421784 127 112 86
-0.06733382069668109 0.14565606336597564 -0.7999250232453212 127 112 87
-0.06648005272937874 0.1461414735140118 -0.80141291555759 128 113 87
-0.0657280519486988 0.14657211762009495 -0.8029877679797872 122 106 80
-0.06385177917414175 0.14760760862647548 -0.8035865161199607 126 107 81
-0.06070607095985564 0.14932594633058507 -0.8030748694332823 113 96 72
-0.060203907843206755 0.14962207309102243 -0.8048574728398116 86 72 51
-0.06030198869589437 0.14959532732822503 -0.8071657104358652 77 64 44
-0.060215051027371735 0.14966814019683766 -0.8093150686395203 81 69 49
-0.059397674583899246 0.15013385451813827 -0.8108245129554241 80 67 46
-0.05924124310735182 0.15024408222855676 -0.8129159178418626 94 81 60
-0.05837349051350402 0.15073688527730897 -0.814380503383227 78 65 44
-0.05743690013968644 0.15126669356320274 -0.8157828637241216 71 58 40
-0.056615155925907545 0.151734726092768 -0.8172858154888346 77 66 48
-0.05557895285312717 0.15231806548633722 -0.8185966067184424 74 61 45
-0.05450814344509666 0.15291998889064332 -0.8198744607679547 80 67 49
-0.053535769304738634 0.15346896205802357 -0.8212383698972459 79 67 45
-0.05269769580591943 0.15394571085894412 -0.8227212734914272 80 67 44
-0.05186696757462181 0.15441849841390815 -0.8242097369876918 83 70 48
-0.05056276998995729 0.15514579987496158 -0.8252693769468981 83 70 48
-0.04830746134364952 0.15638433038220384 -0.8254640351559281 85 72 48
-0.04738177201950555 0.15690807152438443 -0.8268585601708638 90 77 51
-0.04759518899092219 0.1568195353839847 -0.8292890854692263 96 82 56
-0.047376839462562576 0.15696310487139234 -0.8313293377981323 92 78 50
-0.04496422388490201 0.15828597122677854 -0.8313623298687015 108 94 63
