ply
format ascii 1.0
element vertex 675
property float x
property float y
property float z
property uchar diffuse_red
property uchar diffuse_green
property uchar diffuse_blue
end_header
-0.030126223005673886 0.15012824080040202 -0.7266928257112606 108 94 64
-0.03035197908727401 0.14987547927424064 -0.7289805599871839 122 104 70
-0.030788075229146936 0.149392001119545 -0.7314996565280953 107 88 48
-0.03297044304789688 0.14699314400666072 -0.7359150319197547 137 118 79
-0.033859753321404576 0.14601252129210499 -0.7389427965101486 128 111 78
-0.03506773230416767 0.14468234670179056 -0.7423259732744988 78 64 40
-0.039358835569839976 0.13997040756151194 -0.7490862902461085 109 97 71
-0.043190286026903044 0.13576256975886355 -0.7553728100711171 93 80 59
-0.04578391389977028 0.13291239500950963 -0.7603267280572182 74 63 50
-0.04755129579347345 0.13096846300745926 -0.7643898194046519 49 40 32
-0.04984599917397721 0.1284460843209618 -0.7690493130735688 42 33 26
-0.0509225343874013 0.12725986277479748 -0.7723769690251252 52 43 36
-0.053302872944109195 0.12464347292327532 -0.7771624789657374 53 44 35
-0.05304266951569228 0.1249234729283556 -0.7790249011087653 96 85 73
-0.05234097444190508 0.12568774910150868 -0.7803956383240148 95 83 69
-0.05265713917048191 0.12533551269340346 -0.7829051118809932 79 66 49
-0.05252436990215119 0.12547571406433006 -0.7849153949953178 68 54 38
-0.051338370633902536 0.12677124087341526 -0.7857416061035938 67 54 37
-0.050145796803213724 0.12807399069823533 -0.7865560001792407 84 70 55
-0.04848536594346822 0.12988997065915003 -0.7868360265750567 74 61 41
-0.047428989847547356 0.13104334248601973 -0.7877947456814429 95 83 61
-0.0460357112274373 0.13256629626261862 -0.7883661347123474 103 91 70
-0.04490436311627245 0.1338019317876453 -0.7892309462605944 75 63 43
-0.04453816931680307 0.13419821198377443 -0.7909680220662656 71 58 36
-0.04361085126206214 0.13521004172372245 -0.7920614005174307 65 51 25
-0.04243829821477492 0.13649090248278875 -0.7928695334835485 88 74 49
-0.04193725987519463 0.13703511407018545 -0.7944488098867597 97 84 62
-0.04086682017411486 0.13820397104285143 -0.7953685749781849 104 94 72
-0.039858440918714905 0.13930475533832445 -0.7963566677065674 82 72 47
-0.0392908652478641 0.13992197027609632 -0.7978547131437087 76 64 40
-0.038469550195368796 0.140817550069658 -0.7990559388453808 94 82 58
-0.037572049838540164 0.1417967146323577 -0.8001657962940304 106 93 71
-0.03715294526314958 0.14225105645872502 -0.8018346838064669 102 90 68
-0.03634170452604672 0.14313559776587403 -0.8030423156264693 84 72 49
-0.035985538951712 0.1435208917190804 -0.804785076402409 76 64 39
-0.03532924296330496 0.14423545232913929 -0.8061733718518438 64 52 29
-0.034840405619161144 0.14476629793214602 -0.8077593273917151 71 59 36
-0.03425381527468689 0.14540438861408655 -0.809228898356948 83 71 50
-0.03534950692947471 0.1441968326022255 -0.8127056007916129 80 67 48
-0.03484289270599572 0.14474716963713444 -0.8142750098056017 81 68 49
-0.034030451141648876 0.14563303826591556 -0.8154772840293749 83 70 51
-0.03341402263849037 0.14630385956886033 -0.8169132768060721 82 69 51
-0.03308897188589312 0.1466550000478196 -0.8186999609700916 70 57 41
-0.032415903021408676 0.14738796632382173 -0.8200666590061118 62 49 32
-0.03154269942365377 0.14834051537801252 -0.8211893482715149 54 42 25
-0.031310734895003814 0.14858952419228955 -0.823089449463247 53 41 28
-0.030611033223555434 0.14935171868996305 -0.8244207461788718 51 37 23
-0.02995604754712214 0.15006485507811412 -0.8258053100526139 69 55 33
-0.029160086666908114 0.1509326712078955 -0.8270158866107216 74 60 34
-0.028472947301121668 0.1516810934844611 -0.8283582012548358 89 74 47
-0.02797747286483293 0.1522192226722691 -0.8299354551915142 98 80 49
-0.027445389368619677 0.15279752014978495 -0.8314673783293453 125 106 71
-0.027404903927425395 0.15283642447746656 -0.8336082678495637 133 117 82
-0.02736441237567923 0.15287532811344406 -0.8357520870697125 100 87 60
-0.02719555292094003 0.15305507502762403 -0.8377388989075537 91 79 56
-0.025207821502103225 0.1552305751128812 -0.8374553796208668 86 74 51
-0.024611446486083946 0.15587942201874821 -0.8389047888015752 87 76 50
-0.02324337570742345 0.15737502745198495 -0.8393841749552576 134 121 90
-0.021564505236881304 0.15921168075925485 -0.8394662417435759 110 97 63
-0.02392284258274431 0.1566183896118015 -0.8446381228959388 109 94 61
-0.023127223162174276 0.15748586428606678 -0.8458359370461035 132 118 79
-0.022748339626291025 0.15789605946552404 -0.847560668669474 132 119 80
-0.022246856397679773 0.15844078269403894 -0.8491300622503127 129 116 76
-0.02214966296505115 0.15854187172605788 -0.851215263752899 141 126 83
-0.021527705778948483 0.15921879140289558 -0.8526316321287762 149 132 92
-0.021835844314826977 0.15887508679050288 -0.8552402671846284 139 128 96
-0.02203941346993213 0.15864611723840813 -0.8577197509374761 94 91 70
-0.022327762874567322 0.15832410217944878 -0.8603132264654237 44 45 31
-0.022592377866141433 0.15802811913372833 -0.8628812534952062 44 44 32
-0.023746695167791446 0.1567557913931567 -0.8666078014602314 83 80 71
-0.024740298148177048 0.15565979988918935 -0.8701366001441815 119 116 109
-0.023551157337974124 0.1569590961044921 -0.8708308744082476 151 149 145
-0.008322120885558254 0.1736491104345113 -0.8597689804987928 189 187 188
-0.007991161210050807 0.1740067643556661 -0.8615364191208781 193 191 192
-0.14696016663771466 0.020885131327727707 -0.3075216356471892 168 165 162
-0.14524167177369326 0.022766672388427084 -0.3085709569220445 134 124 114
-0.1431318670431378 0.02507797955505789 -0.3094657458872397 124 112 96
-0.14023754213014794 0.028250899161907206 -0.3100527876420228 105 94 80
-0.13777493870218227 0.030949719495226485 -0.31079554725759073 106 96 82
-0.1360382750887998 0.032851305600585246 -0.31181084226346945 98 89 74
-0.1331568858680653 0.03601011463401185 -0.3123744743884416 76 67 52
-0.13128656339118094 0.038058539961160404 -0.31332368795669513 80 71 58
-0.12939995367725549 0.040124874081489875 -0.3142602805240256 100 91 79
-0.12773063910884966 0.04195257848571847 -0.31527669192092345 120 110 98
-0.12668522767723464 0.043095075832543586 -0.31653635916317246 98 88 75
-0.1254222762750997 0.044476505059064836 -0.31770626439536237 108 99 88
-0.12406467833425722 0.04596189687487619 -0.31883447325474334 116 106 94
-0.12250746328557607 0.04766654364501492 -0.3198778325562535 131 119 99
-0.12215612782404861 0.04804676829772368 -0.3214074382980318 151 136 108
-0.12139426101092943 0.04887788826564814 -0.32276938205177547 184 169 137
-0.1204462330258711 0.0499134797212049 -0.3240533108828918 184 171 138
-0.11895325781073866 0.05154761590974852 -0.3251094745558834 166 153 120
-0.11815246833736928 0.05242150729615515 -0.3264490622099869 150 137 103
-0.11682615882928206 0.053872611462014525 -0.32756723633462975 143 129 95
-0.11542178531885197 0.05540947136633784 -0.3286486810800492 128 113 79
-0.1142122720405889 0.05673231700735615 -0.3298082650004354 117 101 69
-0.11360111710373012 0.05739795074635372 -0.33121879116251357 97 81 56
-0.11285353871201621 0.05821343241532795 -0.3325703031867793 104 91 64
-0.11202513123189985 0.05911770066908181 -0.3338857633830865 105 93 63
-0.11167449439051584 0.05949719129601663 -0.3354058063678737 102 89 63
-0.11102339459267585 0.060206711283838865 -0.33679588888691636 96 83 61
-0.11029866608591715 0.06099710924404758 -0.3381529438050559 88 77 55
-0.11006801174395096 0.061244808988566324 -0.3397254057869798 96 84 60
-0.11073346632695175 0.06050819198662666 -0.34169380035509994 119 108 81
-0.10992459326469964 0.061391015790472625 -0.34301409713946895 95 83 58
-0.10981205056458496 0.06150896391294601 -0.34464281276673064 92 78 57
-0.11009531772449321 0.06119212819888138 -0.3464501762090557 103 90 67
-0.10939536588517038 0.061955309082518936 -0.3478186328531666 97 86 64
-0.10927108795234126 0.062086134013487976 -0.34944617953033286 99 87 70
-0.11131428976136178 0.05983602866323823 -0.3520598796834702 115 103 87
-0.11176235519871838 0.059338116933877555 -0.3539566088293302 101 90 73
-0.11230769872404404 0.05873333221863236 -0.35590205932284513 89 78 59
-0.11222599087508928 0.0588173477362042 -0.35756290578685346 90 80 60
-0.11151620402040299 0.05959130679652516 -0.358934396661423 105 97 73
-0.11427395244609424 0.05655613095218415 -0.36191943725547093 119 107 79
-0.116001155395284 0.054652982993675214 -0.3644368894624231 150 136 100
-0.1161700310519982 0.05446167100122368 -0.3662315320086707 179 164 124
-0.11639209121652809 0.05421192414319412 -0.36805416484780756 176 163 121
-0.11450531170882365 0.05627882359072889 -0.36887859571851866 178 164 123
-0.11292835882796273 0.05800538409226602 -0.36984428722678164 183 165 123
-0.11207233072223242 0.058939981981998235 -0.37115044496068095 185 168 120
-0.11148693302186716 0.05957727992527144 -0.3725851232989101 166 148 100
-0.11298365006888342 0.057927216957566724 -0.3750269602847777 140 121 75
-0.11305826028292847 0.0578394282261383 -0.37678620535156615 148 128 83
-0.11090357505612096 0.06020071820764526 -0.3774586202070033 130 111 69
-0.10995292506212312 0.06123928137671383 -0.37871428490564235 139 120 79
-0.1100090827972891 0.06117176525504783 -0.3804642601347876 104 88 51
-0.10946133989841485 0.06176769593221948 -0.381917333831036 93 77 46
-0.11029330375315692 0.06084784955093947 -0.3840569072400321 81 63 36
-0.10897616171654255 0.06228905844919998 -0.3851274714012617 92 75 49
-0.10939797818287561 0.06181979258377118 -0.3870679050487321 85 70 42
-0.10945794573703742 0.06174805722652549 -0.38882974195197184 85 69 41
-0.10957279677328292 0.06161601572143641 -0.39062182015824953 89 74 47
-0.10898447389736082 0.06225651637490087 -0.39205828408999455 91 75 48
-0.10938048402429665 0.06181556107289357 -0.3939979685773059 85 69 44
-0.1094612025029987 0.061720996543326107 -0.3957795209933661 80 64 39
-0.10950235594513949 0.061669893079267846 -0.3975431561230231 87 71 46
-0.109417566324862 0.06175715468085566 -0.39924378039847813 92 76 50
-0.10943006592109535 0.061737518448810674 -0.4009968661097234 84 68 41
-0.10914145898427426 0.06204870365978099 -0.40259451085424125 95 78 53
-0.10892683407282516 0.06227860075172964 -0.4042318640593917 89 72 47
-0.10917046984308461 0.062004990827480344 -0.4061124605120305 83 68 42
-0.10854866574023243 0.06268225828623775 -0.40753712605168035 82 67 41
-0.10876664498018157 0.06243682277071547 -0.4094086362160689 75 60 34
-0.10886317318537594 0.0623248208067636 -0.41121832640069134 83 69 43
-0.10881374409827513 0.062373181746967904 -0.412952161598597 86 70 44
-0.10889435557556892 0.06227865190658374 -0.4147581791815418 84 68 43
-0.10861130736620571 0.06258369336226718 -0.41636948171187077 82 66 41
-0.10929980583515694 0.06182121350410699 -0.4185109899552524 89 74 49
-0.10907193976023018 0.06206560783904225 -0.4201564894288859 88 73 48
-0.109679659050691 0.06139185840899908 -0.42226236257723526 87 73 47
-0.10979789763668234 0.06125593638748231 -0.42410313564161595 85 71 45
-0.1096280981400234 0.06143650548135762 -0.4257869908950036 86 73 47
-0.10980395117147458 0.06123725897005211 -0.427664702970136 85 71 46
-0.1101458004623292 0.06085560030946399 -0.4296382956590858 81 68 44
-0.10990923983424393 0.061109507979671934 -0.4312909189718185 72 60 37
-0.11050915186022822 0.06044425641471701 -0.4334163924502835 63 53 34
-0.11118883236743635 0.05969133355941317 -0.4355921583656596 42 33 23
-0.11309725313178426 0.057588174444204276 -0.43847233665846497 22 17 13
-0.1140773550429033 0.05650507981070782 -0.4408336886027542 21 17 15
-0.11589204978483997 0.05450484449976714 -0.44368076090701053 26 22 20
-0.11672140746135684 0.05358734683376756 -0.4459712671454297 31 27 24
-0.1155447142641893 0.05487426923001737 -0.44710763972847245 24 22 21
-0.11704915743643043 0.053214891222467114 -0.44979800029520495 10 9 10
-0.11811474739394755 0.05203774210039938 -0.45224194712244237 6 5 5
-0.12310805200621452 0.04654432127889779 -0.45699393515713005 4 3 3
-0.1267475400661709 0.04253855867022155 -0.460976227632725 2 2 2
-0.1192045790043154 0.050815327956419354 -0.4602110386362866 4 4 4
-0.1300611480702631 0.038878247620181994 -0.4685149347418011 4 4 5
-0.1526553939272896 0.013982855543835687 -0.5013100046636529 64 57 45
-0.12712240518984952 0.04203817487236147 -0.48736281388710345 67 61 54
-0.13186912424412106 0.03681490103654983 -0.4922162369175174 62 57 52
-0.1252762333457143 0.04405447019356204 -0.48998027569622704 56 51 47
-0.12065488812504623 0.04912727505195075 -0.4889559679926377 56 51 48
-0.11881278027129694 0.05114554955403791 -0.48966878472691433 84 80 75
-0.11417605203295642 0.056235377613025495 -0.4886004086900213 82 77 72
-0.10988159463834782 0.060949087479351655 -0.48772946839359066 78 72 66
-0.10924232691413809 0.061645429134897484 -0.48917850449464584 72 64 58
-0.10794830482405024 0.06306142211285662 -0.49020607770717173 69 62 56
-0.10605560607443118 0.06513544686694026 -0.49084343678897613 69 63 58
-0.10492423225636005 0.06637270128364164 -0.4919665818821101 65 57 53
-0.10641166293393187 0.0647315404162134 -0.49478848133065345 92 87 80
-0.1011849097268049 0.07047021525117347 -0.493239530005777 110 105 96
-0.0974053471294063 0.07461828472885415 -0.49261452246187254 85 78 70
-0.09236663153249605 0.08015042508267012 -0.49114496234848953 39 32 25
-0.07492065202896675 0.0993021706727645 -0.48684412377645403 75 68 55
-0.0662918874115551 0.10878088176675152 -0.48285990211988267 98 89 71
-0.06683567590464042 0.10817713062694412 -0.48500424664788366 114 101 79
-0.06764526435683645 0.10728118901537118 -0.48733310477390984 115 100 79
-0.06710629723616267 0.10786760063831798 -0.4887543838017598 116 100 81
-0.06762390145211808 0.10729258810596501 -0.49089399401636846 110 94 76
-0.06658922930818689 0.10842389684735293 -0.49197856922525324 106 91 74
-0.06420854672839572 0.11103482767641235 -0.49213759978508703 95 85 69
-0.06320930740290547 0.11212721814344115 -0.49323713589359985 95 85 67
-0.06275271224290682 0.11262310310462562 -0.4947085618093321 87 78 58
-0.06154662341181112 0.11394289416793292 -0.49566048300474347 84 73 53
-0.06084224174787746 0.11471117565342952 -0.49695752937359106 86 72 53
-0.06120679286292527 0.1143043829503115 -0.49899961355158773 88 73 56
-0.06141131346586143 0.11407349916931897 -0.5009337315693683 97 82 66
-0.06054842115458059 0.1150160304480067 -0.5021204231006506 102 87 66
-0.06046069519930643 0.11510640770878824 -0.5038522119372677 113 98 72
-0.05913403769819818 0.11655878027979057 -0.5047080325936446 114 99 72
-0.058313987794908914 0.11745423197984953 -0.5059195739864327 108 93 66
-0.0578002623251921 0.11801293145869975 -0.5073478188624244 112 96 67
-0.05736794370947751 0.11848213649343031 -0.5088340359915967 108 92 61
-0.056888668481514706 0.1190029639754587 -0.5102865772287797 101 87 56
-0.05642890542235239 0.11950234072822008 -0.5117530343283861 101 87 59
-0.055359560225574034 0.12067188514900624 -0.5127780225354599 100 85 58
-0.05501429936249892 0.12104538430492202 -0.5143259792142829 112 97 70
-0.05465489009605509 0.12143443649271624 -0.5158641515234454 101 86 58
-0.054277172272620286 0.12184361581819224 -0.5173893845215425 103 89 60
-0.054046911867425704 0.12209067573795582 -0.5190233013824328 96 81 55
-0.05400124284521446 0.12213478604432748 -0.5207944370341431 102 87 65
-0.0539716952516959 0.12216116464914675 -0.5225796110723888 104 90 68
-0.053336645966943264 0.12285325478310752 -0.5239174370039185 89 76 54
-0.05293715923020238 0.12328635684617412 -0.5254297918715811 96 83 61
-0.052135597439661174 0.12416152670054335 -0.5266417702825691 82 69 44
-0.05157065892293586 0.12477654102208365 -0.5280294340386971 84 68 39
-0.051034242754671846 0.12536019751021255 -0.5294379576801539 86 68 41
-0.05136053812376619 0.12499530872804827 -0.5314979058069479 88 69 43
-0.051278116509597946 0.12507979193981522 -0.5332520338214758 92 73 47
-0.05142832388706024 0.12490849005414506 -0.5351851186092466 94 77 51
-0.05376439085935242 0.1223337773786375 -0.5387904802132969 99 82 55
-0.053010237245736114 0.12315680697780293 -0.5400427824640782 103 86 59
-0.052546578547517084 0.12366043134795776 -0.5415168345369643 99 82 55
-0.05262064098850508 0.12357280537742309 -0.5434057103918923 94 76 51
-0.05112504302846449 0.12521110213191478 -0.5440820866146595 94 76 49
-0.050305403131714735 0.12610615675191483 -0.5452780429430597 111 94 66
-0.04975945893165343 0.12670026888980757 -0.5466853945492881 118 102 73
-0.05000870222837189 0.12642000663949768 -0.5487142880968464 124 108 77
-0.050700826019826645 0.1256527430041578 -0.5510945782218892 126 109 78
-0.05044510695916049 0.12592770945659149 -0.5527344453243971 125 109 75
-0.050128853138551296 0.12626923710526744 -0.5543275223215798 135 118 83
-0.049978837576792653 0.12642796317776794 -0.556053159991641 124 107 74
-0.04946461011664004 0.12698718219701594 -0.5574906108449416 113 95 63
-0.05186352844388953 0.12434299233152925 -0.5612536674133403 136 119 84
-0.054113601177051635 0.12186242819224657 -0.5649129004532633 154 138 99
-0.05457499102608651 0.12134875353864139 -0.5671489582987181 129 112 80
-0.1175640773614625 0.05205468730798424 -0.6259574989867553 73 59 37
-0.11734503615561186 0.05228863739140943 -0.6278290214080143 101 88 69
-0.11808482246717197 0.05146814729484142 -0.6304884747269419 85 72 56
-0.11667447607847822 0.05301218288997561 -0.6313853483892135 56 43 33
-0.11671863122426104 0.05295667429741899 -0.6334781355387398 57 46 36
-0.11647664667183351 0.05321583510007186 -0.6353368692922339 50 40 30
-0.11862076544571006 0.050850874089959 -0.6391801751422566 42 33 23
-0.11895002798272399 0.050481768885491635 -0.6415246493393791 43 36 25
-0.11793466153713596 0.051591428885598256 -0.6427487424734493 52 43 32
-0.11659284972050184 0.05306011583555528 -0.6436959944576603 63 56 46
-0.11496460066365921 0.0548438384582671 -0.644397389787526 58 53 44
-0.11349832431255652 0.05644944510938055 -0.645229409371022 55 48 40
-0.11232170624409493 0.057736501939436746 -0.6463016208624838 56 49 43
-0.11031990234298268 0.05993112339634868 -0.6466683084054979 64 57 52
-0.1084552343551463 0.06197494757180233 -0.6471436672710497 54 47 41
-0.10504033986836354 0.06572378921959346 -0.6462844474785507 57 49 42
-0.10355853705358252 0.06734658759136006 -0.6470690942241988 60 52 46
-0.09958921214516292 0.07170531272096195 -0.6457050888594158 55 47 40
-0.09613515398715976 0.07549738090745725 -0.6447670744886074 60 52 44
-0.09084268591484367 0.08131152001338882 -0.6422183490159515 85 78 69
-0.08555366964710878 0.08712195331771744 -0.6396457681090609 58 51 42
-0.0802526251803882 0.09294570721612161 -0.6370357964908208 79 72 63
-0.08067909977861938 0.09246985373917754 -0.63941352146731 78 71 61
-0.07804481673638072 0.0953605396600187 -0.6391079110348804 70 62 52
-0.07628962421788339 0.09728433806139952 -0.6395648198816082 65 57 48
-0.07461420784273237 0.09912041266898211 -0.6400850692132004 79 72 62
-0.07270361250027765 0.10121519238298277 -0.640390016545749 73 67 55
-0.07171438835703428 0.10229653933317912 -0.6415065520389192 53 46 36
-0.0706838514843813 0.1034233382971547 -0.6425833244494957 47 41 32
-0.06827850490577399 0.10606239285711952 -0.6424261204192517 52 48 42
-0.07025154251501729 0.10388536526338024 -0.6461902849520719 64 58 50
-0.07152291485125324 0.1024801126367583 -0.6493361801289598 65 57 46
-0.06663434231063478 0.10785073843639364 -0.6469246684021829 93 81 66
-0.06482706617080113 0.10983200708177071 -0.6472816913553814 93 83 65
-0.06421762985072654 0.11049565984275977 -0.6487205504079452 133 120 99
-0.06320552449797462 0.11160226099324733 -0.6497912642437796 172 157 131
-0.062101618818973955 0.1128098560233595 -0.6507748879682449 187 172 144
-0.06104645974142356 0.11396383984313235 -0.651799658803147 193 181 148
-0.059807557444756104 0.11531996229569971 -0.652651880807259 195 184 146
-0.05874156451540821 0.11648588837472132 -0.6536594421122194 205 188 149
-0.057813628298305816 0.11749995353377554 -0.6547915271219518 193 173 139
-0.05702849188615766 0.1183569359750388 -0.6560537295237372 164 140 109
-0.05604792205277134 0.11942891932787048 -0.6571318978058631 161 139 104
-0.05542988081293884 0.1201020941399506 -0.6585462097768773 125 107 76
-0.054912171723120004 0.12066489522923435 -0.6600538064727606 94 79 56
-0.05454187590242848 0.12106552470063248 -0.6616998651168564 83 68 51
-0.053505358383574175 0.12219908362547566 -0.6627175954208946 60 45 30
-0.05237750134290803 0.12343314000895755 -0.6636455565959509 36 25 12
-0.052180908300082485 0.12364267822630917 -0.6654542202491536 64 52 43
-0.05167868521593437 0.12418845327577485 -0.6669732988434887 38 27 17
-0.05085668661884302 0.12508603660686587 -0.6681866069810026 38 26 16
-0.050192509495179394 0.1258099947456002 -0.66954914384773 69 57 41
-0.049439601160489094 0.12663157794327756 -0.6708252363375878 81 68 48
-0.05076114645718785 0.125170852130049 -0.6741002580782998 77 64 43
-0.050704539040110436 0.1252263485800686 -0.6760526610416183 61 49 28
-0.050763984660470704 0.12515415291854448 -0.6781200970586464 77 65 44
-0.05038635942684613 0.12556282521763523 -0.6797652993512826 90 78 56
-0.05035533890273097 0.1255901472688222 -0.6817493876659576 96 83 62
-0.05034812954982018 0.1255912623012377 -0.6837593862485544 86 75 53
-0.05047826434525267 0.12544125379745716 -0.685907003400879 97 85 65
-0.05090094107979806 0.12496935816368937 -0.6883463281835455 65 53 38
-0.050622610091766565 0.12526874934714058 -0.6900984000391859 50 36 26
-0.05054248713393446 0.12535005032134725 -0.6920480324541303 47 33 23
-0.050295676823656196 0.125614749491064 -0.6938343351909988 57 43 24
-0.05032980291685858 0.12557032696810064 -0.6959020341364833 88 72 46
-0.0497767431577594 0.12617198658880827 -0.6973856839868892 88 71 43
-0.04889016802951855 0.12714062479177513 -0.6985344220277765 71 54 33
-0.049021580554579364 0.12698913857849148 -0.700704560524251 57 42 29
-0.048826691586440235 0.12719668607944626 -0.7025491583855844 37 26 17
-0.04870107801763854 0.12732800002104472 -0.7044655182018147 40 29 18
-0.04878571472274003 0.1272279536941255 -0.7065973184056278 59 46 28
-0.05100526040427579 0.1247786835156732 -0.7109052510752989 98 85 62
-0.04956323148857732 0.1263585215957622 -0.711491854339184 130 117 92
-0.04746594417890458 0.1286594262458231 -0.7114018368014959 127 114 91
-0.0462583337993 0.12998135348762394 -0.7122155419208627 101 86 68
-0.04464585631815152 0.13174882004272634 -0.7126079102095124 106 91 73
-0.04267215272412028 0.13391381441861097 -0.7126203367658884 112 98 80
-0.04141116699833289 0.13529453494796342 -0.7133619401846335 109 95 77
-0.04027820132493441 0.13653439168267564 -0.714231765343897 112 99 79
-0.03937407751044414 0.13752243013039162 -0.7153360108967359 127 114 95
-0.037656658143862626 0.1394054868291879 -0.7155878083325703 124 110 92
-0.03578989901008406 0.14145291497149023 -0.7156755288862431 122 108 88
-0.0342558203138328 0.14313425933057528 -0.7161043960152885 101 87 63
-0.03301274873657077 0.14449537130825582 -0.7168335095444048 167 151 124
-0.03214524434414234 0.14544318243032728 -0.7179549106070435 163 145 119
-0.030921372067121256 0.14678319321478248 -0.7186960647774651 89 74 48
-0.02982857230504174 0.14797896982839168 -0.7195719515856187 104 94 67
-0.029291789204328234 0.14856283818350452 -0.7210368814102213 94 85 63
-0.028620147432219592 0.14929512737886066 -0.7223571726468783 65 53 35
-0.029092118297094655 0.1487688001912908 -0.7249026610400874 79 62 44
-0.028568182703800737 0.14933852411959514 -0.7263828197982948 88 72 52
-0.02860361633859558 0.14929261508154051 -0.7284659695368003 62 47 21
-0.028806260136531342 0.14906266456881484 -0.7307330977021615 119 103 66
-0.029094047414700966 0.14873899050073758 -0.7330967378021592 151 132 93
-0.0325594581804452 0.14491795193403378 -0.7389219359161645 131 114 81
-0.03265461080695027 0.14480623197624676 -0.7410946526005509 78 63 39
-0.035447045495497764 0.14172576713848148 -0.7462219540929359 90 77 54
-0.03824279573897463 0.13864158439750304 -0.7513732029732471 94 81 60
-0.04182662914125279 0.134689921411098 -0.7574119627928316 76 63 47
-0.04585547284947056 0.1302483631959642 -0.7639670940873955 62 51 39
-0.04879972985810123 0.12700049356056942 -0.7693502378975315 44 34 24
-0.04931182585821707 0.1264296101401925 -0.7720558962574781 44 36 27
-0.05372783409826079 0.1215616616721921 -0.7791121387747273 57 48 38
-0.052119518724453404 0.12332465804123552 -0.7794762797220003 90 78 66
-0.05053492587053293 0.12506156623328185 -0.7798599408794051 74 61 48
-0.04951592276605489 0.12617593395218665 -0.7808714359934107 53 38 25
-0.04880652007032209 0.12694952203442453 -0.7822280079270528 64 49 35
-0.04850378272301217 0.12727547586964696 -0.7840421219228821 58 44 29
-0.04730098943867349 0.12859217656391964 -0.784838807296337 68 55 40
-0.04567802729896703 0.13037140455513652 -0.7851541320629505 98 87 68
-0.045368280921152304 0.13070508574341383 -0.7869567479560354 99 88 66
-0.045248457225612854 0.13082969664336785 -0.7889772270179505 68 57 36
-0.04343445178911369 0.13281926963299084 -0.7890612371208212 67 54 34
-0.04287216350288986 0.1334309566012186 -0.7905732332788656 69 56 32
-0.042270422723417675 0.1340860757106351 -0.792039342534211 101 88 61
-0.04144543416810152 0.13498695762233737 -0.7932470960814266 127 113 86
-0.04086090283497738 0.13562313909760126 -0.7947309249429431 102 88 65
-0.03989251169245478 0.13668189962535343 -0.7957687109639255 92 82 55
-0.03886795738147146 0.1378024991556804 -0.7967380528536454 111 101 73
-0.03689966205050865 0.13996206005005807 -0.7966028144708492 120 109 80
-0.03625765000308985 0.1406615543410514 -0.7980097537530116 119 108 79
-0.03559198804903334 0.14138708840220587 -0.799387927753876 93 82 55
-0.0348384917529192 0.1422093247452334 -0.8006615980311832 87 76 49
-0.034069467919373334 0.14304866167976116 -0.8019152076166411 109 97 72
-0.034320528794189606 0.14276495406413436 -0.80437360296692 121 109 84
-0.03245409490063754 0.14481248562161575 -0.8043251623727564 100 88 64
-0.03173745168737832 0.1455941731780771 -0.805635264640971 97 84 59
-0.031577751145367525 0.14576268778885937 -0.8076080580648052 84 71 47
-0.0314700181030627 0.14587397999318774 -0.8096450955242727 70 58 35
-0.03248472068911977 0.14474946946854836 -0.8130304991261874 66 53 31
-0.03191012421221279 0.14537475159420907 -0.8145147418081378 73 60 38
-0.03209218275410233 0.14516694667311686 -0.816910644380181 82 68 47
-0.031266083108907786 0.14606913615484318 -0.8180921323235675 87 73 55
-0.030871791903860538 0.1464958957812901 -0.8197948129555194 85 72 52
-0.03009941720520168 0.14733894182997553 -0.8210385362154726 72 60 39
-0.02938381757792266 0.14811948151704463 -0.8223495607991407 64 52 35
-0.02868889302810987 0.14887726162348436 -0.8236843273038758 57 43 28
-0.028408189989683988 0.14917895447560486 -0.8255252621331175 67 52 32
-0.027589161539485804 0.15007338936148187 -0.8267061323335485 63 48 24
-0.027126777813443234 0.15057512859780028 -0.82832415099291 81 65 40
-0.026448426245148232 0.15131467295372159 -0.8296755366310262 101 83 52
-0.025780811881189025 0.15204239864705402 -0.8310389301328323 129 109 72
-0.02572130681384821 0.15210051611330563 -0.8331562987107478 140 123 86
-0.02559855891055593 0.15222826386968677 -0.8351977343115096 109 97 67
-0.025447513008258787 0.15238716415006995 -0.8372062413093626 92 81 56
-0.025005897768440616 0.15286602372573224 -0.83885321421772 85 74 52
-0.024526205668042728 0.1533868119411804 -0.8404526768692338 89 77 53
-0.02385236083995068 0.1541213999711678 -0.8418078196029859 97 84 52
-0.020461152154843773 0.15784836917125786 -0.8397326714950679 140 126 90
-0.021811281385563097 0.15635416165269253 -0.8436369837942566 108 94 59
-0.02172911134747746 0.15643720131954975 -0.8457365800627682 136 121 84
-0.0210702078202379 0.15715535377659598 -0.8471052883577289 130 115 80
-0.020682979013895736 0.157574328101988 -0.8488192914065286 119 103 69
-0.020562247669280886 0.15769981653620477 -0.8508747152969675 130 112 77
-0.02003582284379786 0.15827207639392965 -0.8524124564180114 126 110 75
-0.020017009616120934 0.1582853119404916 -0.8546024268386891 117 106 77
-0.020214787132616374 0.15806000611751775 -0.857074701258985 91 89 68
-0.020436334428210037 0.15780850680035638 -0.859582318756805 47 49 35
-0.020551143749357778 0.1576745439200854 -0.8619564401207328 38 38 28
-0.021269320817791065 0.1568760594014716 -0.8651184481239258 69 67 56
-0.02525022554033425 0.15248416519201502 -0.8725382207701834 107 104 95
-0.02224013612722206 0.1557917303746601 -0.870859162258388 144 141 137
-0.0011463020771305538 0.17894959329409205 -0.8651865612368415 203 201 200
-0.0021481929484957474 0.17783857466807543 -0.8687381912900609 204 203 201
-0.004125971021918917 0.17565258723547486 -0.8736148284701135 204 204 202
-0.14619311439651717 0.019257720017299917 -0.3059717710631679 168 164 159
-0.143872550636706 0.021806344602454092 -0.306796218374211 138 130 116
-0.14156493794826058 0.024340739293913893 -0.3076174816133131 128 115 92
-0.1390069870959719 0.02715089188751041 -0.30833518508920293 124 109 86
-0.13637489944252196 0.030042738702661026 -0.30901528017510255 114 102 84
-0.13373198767437905 0.03294654778582298 -0.30968169490086245 109 99 83
-0.13111682087074764 0.035819838257933084 -0.3103493085553373 94 85 69
-0.12960789661024835 0.037474706660780815 -0.31143918050680897 80 70 55
-0.12774822292225113 0.03951592817697598 -0.3123867758344252 85 75 61
-0.1261614461744638 0.041256590595872875 -0.31343589725973386 92 83 68
-0.12464805157654404 0.04291644591337675 -0.3145091571835775 106 95 81
-0.12328728577140019 0.044408203553011935 -0.3156386555677794 85 74 60
-0.12206387587940497 0.04574868217139873 -0.31681926560841056 80 70 58
-0.1208407593143567 0.04708885213943381 -0.3179965894220704 90 81 67
-0.11994938387833308 0.0480636211819329 -0.31930508512020395 103 92 74
-0.11929185890545825 0.04878080821291825 -0.32070702056649913 115 101 76
-0.11860942876274552 0.0495254328250226 -0.3220978284463621 158 144 115
-0.11807261539385938 0.0501096596898814 -0.3235476527514489 173 160 129
-0.11711180746416713 0.05116093738878073 -0.3248213284539012 157 145 115
-0.11565776630573207 0.05275554811541201 -0.32588716847792853 164 151 123
-0.11457340989719346 0.053942946321083526 -0.32710343926496926 144 130 100
-0.11304718517917954 0.05561710701982335 -0.3281307523502065 148 132 99
-0.11194814445241823 0.05682070943445222 -0.3293341572965017 145 127 94
-0.11087969125949228 0.05799062917636823 -0.33054767833047166 131 112 79
-0.11043223288651735 0.058476471480141665 -0.33202417360182357 102 87 55
-0.10955076672509322 0.059440421791308234 -0.33331397202108676 111 98 67
-0.10891344858823568 0.0601354217215684 -0.33470740257471465 107 93 67
-0.10903209467328094 0.0599976318812082 -0.3364285768349376 88 73 51
-0.10781499466113138 0.061331342848672615 -0.33756868985516386 67 55 32
-0.10757405374135587 0.061589683062910475 -0.33913403927767083 83 72 49
-0.1079985009508817 0.06111498827108816 -0.3409940385091911 117 106 82
-0.10746274917895124 0.061698098138670096 -0.3424319558813794 96 85 61
-0.10738597550665295 0.06177556337187602 -0.3440741549742019 94 82 58
-0.10730510698717118 0.06185753271202664 -0.3457162005684291 100 88 62
-0.10695506548238796 0.062236042244072046 -0.34723865944308446 99 88 63
-0.10708966905419431 0.062080612833450996 -0.3489809815880103 100 88 70
-0.10683718067880422 0.06235163794610944 -0.35054982572733023 97 85 69
-0.10783907494925636 0.06124067250216925 -0.35269316444507104 79 67 51
-0.10788381249036105 0.06118421331847412 -0.3544032460325889 92 81 63
-0.1076207016621923 0.061466915254284854 -0.3559734100454136 94 84 64
-0.10821683937859213 0.06080293163130758 -0.35794321778564875 95 87 64
-0.10935359652267114 0.05954329196810895 -0.3601699514384157 97 85 62
-0.10966824914283455 0.05918939571736022 -0.36201864241713255 105 91 64
-0.11200783362824546 0.05660444550157964 -0.3648245354047125 150 133 100
-0.11260913612337958 0.05593467045554801 -0.36682056221078163 182 168 130
-0.11206148176254196 0.05653080035715205 -0.3682750364939582 183 168 129
-0.11162158887308193 0.05700819896700997 -0.36978058061752617 177 159 119
-0.10994574104361451 0.05884740177865316 -0.3706927378446039 190 171 127
-0.10920391811307885 0.059657488517326704 -0.37204990438567115 182 165 119
-0.1093430281754898 0.059496930758304006 -0.37383279583958356 168 151 107
-0.10876878101804546 0.06012237624098603 -0.3752709653467769 179 159 117
-0.10970169179875032 0.059087142618832966 -0.3774461737930089 148 128 88
-0.10999527958488214 0.058756334319517295 -0.37931344605461254 113 94 57
-0.1085979794487553 0.06028867124306091 -0.38034884787913703 96 81 45
-0.10921083688728421 0.05960604928562699 -0.3823776148010673 94 79 45
-0.10873053371449805 0.06012796245157226 -0.38386621867920406 86 70 39
-0.10860595749204376 0.06025789624351374 -0.38553292703723857 94 79 48
-0.10806526859566892 0.06084634721859472 -0.3869917384315537 102 87 56
-0.10799734568971484 0.06091384391691346 -0.3886892132439466 103 88 58
-0.10730718322308118 0.06166700474437359 -0.39007240696498385 103 87 58
-0.10741354484206807 0.06154243907458151 -0.3918609982314617 90 72 46
-0.10751936680295912 0.06141845691159889 -0.39365194618166927 91 75 49
-0.10813699009741307 0.06073047299435394 -0.3957091156343081 95 79 52
-0.10817722270751017 0.06067874160183234 -0.39747260735640566 102 87 57
-0.10809119729483857 0.06076613556401572 -0.39917282000032533 101 87 57
-0.10810274831541822 0.060745992719786146 -0.40092572286243344 88 74 45
-0.10811432781413569 0.06072580910507461 -0.40268085258255243 93 79 52
-0.10776033332444783 0.06110848651081269 -0.4042456221807367 94 80 53
-0.10775177136995483 0.06111048424942253 -0.4059936675356157 73 59 33
-0.10738653152411597 0.061505546843814596 -0.4075542656070256 86 72 47
-0.10750195292606554 0.06137089401910231 -0.40937191784363214 75 62 37
-0.10719740853670963 0.061699057870470336 -0.4109670902881941 75 62 37
-0.10710735706918122 0.06179083200140484 -0.4126785260063225 83 67 42
-0.10697711589179033 0.061926891034908726 -0.4143699747534905 83 68 43
-0.10713893754530848 0.06174106331113649 -0.4162216881429526 85 69 44
-0.10714050168241128 0.061731843164111094 -0.41798890255541554 84 69 46
-0.10748058581471608 0.06134952664739576 -0.4199438737398495 83 68 44
-0.1100084853766837 0.05855595362532154 -0.4231071068869843 84 70 43
-0.10991608801893592 0.058650234334360146 -0.4248358376814697 84 70 43
-0.10764603800810212 0.06114459138686337 -0.42535708002640965 81 67 41
-0.10765775699269349 0.0611241270548632 -0.42714220852982454 78 63 39
-0.10764350830415667 0.061132273683119825 -0.42891506596975265 70 55 32
-0.10767174814732061 0.06109358145337637 -0.4307139763200041 63 51 30
-0.10792387822304689 0.06080811110175166 -0.432641725766132 44 35 21
-0.10922574809827325 0.05936560960938375 -0.4351684557648048 32 24 18
-0.11135635024345715 0.05700964007235179 -0.4381758527157904 18 13 11
-0.11210611070168666 0.05617560054895329 -0.4404057410393786 23 19 16
-0.11306448867156862 0.05511159277052832 -0.4427613716634226 28 24 21
-0.11346311543083422 0.05466453288863915 -0.4448009354731415 30 26 23
-0.11318570074330997 0.05496261844418693 -0.44645299629914165 25 23 21
-0.11486066085326332 0.053108684733963185 -0.4492419385097496 23 22 21
-0.11512057844636202 0.05281445943021634 -0.4512145402057192 17 16 15
-0.11891569629648359 0.04862345312905586 -0.4552647763036297 15 14 13
-0.12257847555996772 0.04457823364184954 -0.45925782664568315 11 10 9
-0.11880371870606962 0.04873129898830475 -0.458871228592644 6 5 4
-0.11977968473884923 0.04764767801028044 -0.46129050182895814 5 4 3
-0.12150766132150306 0.045735072718395636 -0.4641654041352191 5 4 2
-0.12515491970671505 0.04170674419871834 -0.4682005562117053 41 34 27
-0.1457968122861813 0.01888738933961645 -0.495932146077941 70 63 50
-0.1418017928519529 0.02328338617781381 -0.4953830111594134 65 58 50
-0.1258657278727155 0.04084365105626647 -0.4873706003108594 47 42 37
-0.12402962054963532 0.04285984398940498 -0.48810863162995105 41 36 32
-0.12078409639856 0.04642988185203342 -0.4879540778050032 55 50 46
-0.1153190607057353 0.0524469095738159 -0.4863852231335213 67 62 58
-0.11215489831383564 0.05592738854910498 -0.48624913465086606 87 81 75
-0.10793094658772666 0.060576326416685866 -0.4854256064820084 82 76 70
-0.10719337460233376 0.0613816250662052 -0.4868093897083872 80 74 68
-0.10579794966195093 0.06291221640423489 -0.48777016056421085 82 76 69
-0.1046661753410193 0.06415214809908337 -0.4888959646689624 58 51 45
-0.10363380120339953 0.06528250241009542 -0.49008266899952113 49 42 37
-0.1027498868284681 0.0662491861232842 -0.49136283220858556 52 45 41
-0.0990545333735187 0.07031562780672457 -0.4908105665001851 96 91 83
-0.09417086724458057 0.07569232396411887 -0.4894654363852635 104 98 90
-0.09033109355583012 0.07991814977970121 -0.4887829176927773 74 66 56
-0.07417419544269001 0.09770946547126917 -0.4835552784701961 85 77 64
-0.06760922169112288 0.10494047278895807 -0.4809771833281849 106 97 82
-0.0665988922717038 0.10604692754299354 -0.48208261508720807 120 110 91
-0.06345786039933865 0.10950278101225923 -0.4817549317047612 122 110 87
-0.06373666224222807 0.10918782808209851 -0.4837178709656511 125 110 84
-0.06370839731713249 0.10921144858188171 -0.4854768235711992 125 108 82
-0.06333625319766185 0.10961424430485309 -0.48700445565980466 123 106 80
-0.06293729165066815 0.11004660936504135 -0.48851420184120803 118 102 76
-0.06210884045460362 0.1109525668148413 -0.48973042359683205 124 110 83
-0.060757747104316695 0.11243484989255109 -0.49058586732110626 108 94 70
-0.060120783965258925 0.11312967364121089 -0.49192881634103186 108 94 69
-0.05941394262538538 0.11390155771019989 -0.49322245844253504 105 91 63
-0.059003389030479844 0.11434672133403823 -0.49472047211631465 103 89 60
-0.05847788645619796 0.11491864337669407 -0.49613857319708704 108 92 64
-0.058152560659763805 0.11526982133182528 -0.49769627948194284 111 96 70
-0.05641045574380138 0.11718337135352143 -0.4982600341342874 105 88 65
-0.05742566120207847 0.11605625355598345 -0.5007598576578862 107 92 65
-0.05687752025568239 0.1166531420079788 -0.5021616895752172 118 104 73
-0.05585377201007993 0.11777453152074692 -0.5032254330984612 114 100 69
-0.055399431136775285 0.11826798605749224 -0.5046918067029131 109 95 66
-0.054945027350942297 0.11876151013667444 -0.5061580973369355 103 88 58
-0.054410400303827586 0.1193435070943978 -0.5075667854863668 85 70 43
-0.05394102930703412 0.11985353885857225 -0.5090220117783467 87 71 48
-0.053508897777076625 0.12032250144933708 -0.5105040363601049 103 87 64
-0.05317740244412621 0.12068047563445918 -0.5120591365099687 96 80 57
-0.05268743958497621 0.1212132172069806 -0.5134994787374654 92 75 52
-0.05228060597850026 0.1216542775958795 -0.515000330308559 86 70 46
-0.0519003122107731 0.12206606636447243 -0.5165208518251302 90 74 48
-0.051781142425721446 0.12218985770031986 -0.5182338691804195 79 63 38
-0.05155689864957551 0.12242952992948972 -0.5198710154498153 66 51 33
-0.05166587819681406 0.12230167479838637 -0.5217562861414482 63 48 33
-0.051158858968452375 0.12285321834784478 -0.5231863498560113 52 38 24
-0.050583606100433026 0.12348002175549301 -0.5245651737354761 52 38 21
-0.05034518569327519 0.12373531370051014 -0.5261956149270762 87 75 49
-0.05053798862190603 0.12351497198574601 -0.528151293105421 102 87 54
-0.05014302816228454 0.12394291135465152 -0.5296670128801048 94 78 47
-0.04993692040252665 0.12416254529445622 -0.5313259674533836 88 71 43
-0.04975498117862877 0.12435551564918583 -0.5330045661545235 94 76 50
-0.0495103017605098 0.1246176837420456 -0.5346367568192834 95 78 52
-0.04975285634068585 0.12434241240763946 -0.5366427306116585 99 82 56
-0.050881047941627316 0.12309022921135677 -0.5393321953102382 100 83 57
-0.05022288910856025 0.12380845288762554 -0.5406541259303794 100 83 55
-0.049610746246888965 0.1244759226152479 -0.5420105125101576 88 71 45
-0.04911042358447097 0.1250200496668005 -0.5434527603591748 110 93 64
-0.048724480178991295 0.12543800736731892 -0.5449837581243493 128 112 80
-0.04818176735861432 0.12602889600663952 -0.5463926674002052 121 105 74
-0.04891980279048139 0.1252069783191574 -0.5488047415723749 108 91 61
-0.04879798628790481 0.12533355609563074 -0.5505470671975737 130 114 83
-0.04856563325995443 0.12558206301866126 -0.5522039469662035 128 112 80
-0.048143902369092884 0.1260394763773086 -0.5537120688547301 112 97 65
-0.047770261092296956 0.1264438386454403 -0.5552585531641472 136 121 89
-0.047376228877603135 0.12687069378616062 -0.5567892018982594 127 111 79
-0.04800175990326591 0.1261727853712276 -0.5591356518851665 117 97 68
-0.05088971727829754 0.1229789616127124 -0.5633036624018213 147 130 98
-0.05098359284383783 0.12286750168938755 -0.565239815076696 142 125 95
-0.11547411643331706 0.05168665600583042 -0.6253426780584685 72 59 39
-0.11554565514603049 0.05159903244580488 -0.6274506984397612 85 72 55
-0.11436794185577656 0.052889661562626644 -0.6285354114283956 76 63 46
-0.11466239449431227 0.05255608852987537 -0.6308300191278953 62 50 39
-0.11498184719529463 0.05219491455818023 -0.6331496557283016 56 45 36
-0.11506853230980692 0.05209053580941014 -0.6352806238247015 56 47 37
-0.11690899559495771 0.050051165656226915 -0.638875039577959 50 42 31
-0.11697523474022822 0.0499692976778347 -0.641000215839091 56 48 37
-0.11544090695843076 0.05165339061318855 -0.641787044009051 54 45 34
-0.1140827971465671 0.053143076835425906 -0.6427163489081208 54 49 38
-0.11235892620894308 0.055036351706712006 -0.6433323374185312 65 61 51
-0.11077975431572615 0.056769997568949876 -0.6440640275148207 50 43 36
-0.10803630478136085 0.059788321041402526 -0.6438010287881721 53 46 40
-0.10606117448481162 0.06195893266110694 -0.6441801544184529 57 50 44
-0.10419512404228035 0.06400921896916811 -0.6446442998414189 53 46 40
-0.1018860979295 0.06654832820897422 -0.6447209500758239 54 47 41
-0.0998508405159342 0.0687853938086577 -0.6450230197630659 54 46 40
-0.09587030723796493 0.0731690086141597 -0.6436374807649763 49 41 34
-0.09199918096032131 0.07743197981943667 -0.6423271823318153 75 68 59
-0.0876405994053966 0.08223292494365436 -0.640574501082419 80 76 65
-0.08227838429037691 0.08814145634842621 -0.6379254413769345 61 54 44
-0.07730776331328175 0.09361798114112771 -0.6355913895393224 76 69 59
-0.07854673966617999 0.0922422697241255 -0.6386787648685297 79 72 62
-0.076553971780648 0.09443281299773729 -0.6389320446150807 73 66 56
-0.0752118068239642 0.09590543103595103 -0.6397511346182351 69 62 54
-0.07260622234453754 0.09877230920647362 -0.6394464876552859 78 72 63
-0.06925208872369026 0.10246530452937841 -0.6384648018891381 69 63 52
-0.07019736746691888 0.1014136734979548 -0.6412986684083584 49 42 33
-0.06805462202521749 0.10376989118918895 -0.6413796538667451 41 35 29
-0.06782305445859192 0.10401698757574504 -0.6431653522926071 52 47 42
-0.06884904380256615 0.10287623263016327 -0.6460839345050153 69 63 55
-0.06583612721895907 0.1061928448555183 -0.6453655390349877 83 74 63
-0.06514295614053514 0.10694938081259098 -0.6467331103055344 85 73 58
-0.06426603240368549 0.10790871896626023 -0.6479325355291049 99 90 71
-0.063109732198806 0.10917640150284888 -0.648875108794221 119 107 84
-0.06217064089256989 0.11020437472086497 -0.6500123172831225 157 143 115
-0.060653111498103346 0.11187076814872396 -0.6506165025591106 187 175 144
-0.05959928302262989 0.11302540521562188 -0.6516411928405543 193 183 152
-0.058278165707701196 0.11447506353447384 -0.6524159414058007 123 113 81
-0.057572683365155294 0.11524525777895736 -0.6537555829437331 172 159 127
-0.05646591328169662 0.11645836941853221 -0.654721333808559 196 179 148
-0.05556936429199415 0.11743946753726203 -0.6558791967849226 169 146 113
-0.054866545687467266 0.1182067460645112 -0.6572155808493241 166 143 107
-0.0538792493913169 0.11928802614236211 -0.6582840586889818 130 111 81
-0.05357906932350577 0.11961089716982329 -0.6599953981041492 92 76 52
-0.0530863810061295 0.12014625215798691 -0.661526223742658 104 88 69
-0.05215556615889691 0.12116521158815605 -0.6626425681414636 84 68 50
-0.050729245712171134 0.1227311273869908 -0.6632861761820814 72 59 42
-0.050632008812080576 0.12282999201608694 -0.665188929890869 50 37 22
-0.05040153268367849 0.1230759217684105 -0.6669666842096188 67 53 41
-0.0502097734525275 0.12327910796052727 -0.6687829075024971 33 19 10
-0.05129089156146663 0.12207720690838011 -0.6718231373832325 54 40 29
-0.05133178803272204 0.1220235408591237 -0.6738704584970804 65 52 35
-0.04994964626410264 0.12354073460201748 -0.674545868514747 70 57 39
-0.050284265493491936 0.12316282051963462 -0.6768796842985905 66 53 35
-0.050705189887937124 0.12268961306875206 -0.6793021345434983 63 50 30
-0.0504596799405474 0.12295207604975075 -0.6810800666736309 69 57 35
-0.0490083519789201 0.12454567966742758 -0.6816801054916605 94 83 59
-0.049096580679431706 0.1244397159681283 -0.6837845265537 81 71 46
-0.04918498411798708 0.12433354530075996 -0.6858924334473631 72 61 40
-0.0495060261286127 0.12397053360603047 -0.6882332350094927 43 33 21
-0.049157372302054095 0.12434683713334763 -0.6899158887919475 36 26 16
-0.049298085348013124 0.12418287689804203 -0.6920851056977247 32 23 14
-0.049144331416335174 0.12434399617082864 -0.6939647664318855 41 31 17
-0.049208839369362545 0.12426414090178464 -0.6960643135133439 56 42 21
-0.04918051572227865 0.12428676152600787 -0.698074084969756 75 60 38
-0.04825811239519477 0.12529647926686152 -0.6991882656693584 66 50 34
-0.04769632702585401 0.12590806362695933 -0.7006631518179031 47 32 19
-0.04748517189364128 0.12613252807994274 -0.7024918821840022 39 26 14
-0.04730773993216879 0.12631975248660862 -0.7043563756577252 47 34 21
-0.047401144720021396 0.1262079383048771 -0.706498001440705 59 46 30
-0.04879517746726947 0.12466006894577586 -0.7099692414334602 105 94 74
-0.04757555913500887 0.12599795222270388 -0.7107788360577216 86 75 52
-0.04627272956388885 0.12742773127332735 -0.7114986034960775 127 115 93
-0.04467739813050739 0.12918049793609074 -0.7119124831055579 100 87 69
-0.04311804951508631 0.13089356237594335 -0.7123567176889567 102 89 72
-0.04143645692875535 0.13274163370912742 -0.7126678943102086 94 81 64
-0.04012597168883461 0.1341799629956429 -0.7133568792515603 108 95 78
-0.0390396673063652 0.13537077264823394 -0.7142741128102873 117 104 87
-0.037950677567905614 0.136564563347257 -0.7151848124288664 110 97 80
-0.03641950320948528 0.13824664304377293 -0.7156288327279533 121 108 91
-0.034651243748197516 0.1401905494539362 -0.71581746644339 104 91 73
-0.03270134667845663 0.14233506368548157 -0.7158069151591345 109 97 76
-0.03153102096075949 0.14361876075323018 -0.7166105914325264 152 138 111
-0.030020410796111494 0.14527824562758213 -0.7170495716457863 168 151 127
-0.02882258601099609 0.14659235065235424 -0.717814399873606 86 69 47
-0.028396513212094937 0.14705422369084725 -0.7193968608453036 90 76 52
-0.028073432120723135 0.1474023598602373 -0.721089604900244 119 108 86
-0.026738457880240277 0.14886795922008317 -0.7216990847402236 63 52 33
-0.02746073914656076 0.14806165929123005 -0.7245137226816176 75 60 41
-0.0270138108602615 0.14854655546947584 -0.7260757857626533 90 75 54
-0.026936825697213534 0.14862289617533808 -0.7280377645170224 50 35 14
-0.02705418621977071 0.14848459407349904 -0.7302127883739885 100 84 54
-0.02861221135452413 0.14675520863273323 -0.7339572548723478 137 120 84
-0.03013856863516906 0.14506074413902828 -0.7376797876320323 131 114 83
-0.029965117553650153 0.14524353771258847 -0.7395567028898739 90 75 49
-0.032757541829458545 0.14215069751135248 -0.7446866537104596 98 86 62
-0.034971160463626735 0.139697033622734 -0.7492006692901225 95 83 60
-0.03809956094673067 0.13623295430533036 -0.7547399566816673 69 56 37
-0.042051469169357855 0.13185923322587575 -0.7612122237481328 65 52 37
-0.04559656370633465 0.1279347165332136 -0.7672612036471307 63 54 39
-0.0466211540678676 0.12679400088851572 -0.7705330624317878 49 41 28
-0.052057991227648495 0.12077983975066495 -0.7787339255479389 51 42 31
