ply
format ascii 1.0
element vertex 668
property float x
property float y
property float z
property uchar diffuse_red
property uchar diffuse_green
property uchar diffuse_blue
end_header
-0.21171467077767664 -0.0950230780305468 -0.5973445226013145 92 75 49
-0.21175615586680308 -0.09320883626242535 -0.6002378559596508 99 82 53
-0.211950904422496 -0.09326564318408519 -0.60201220773762 133 117 83
-0.21219628088000878 -0.09394313487562987 -0.6034133197815938 131 113 76
-0.21241793010576518 -0.09432793222114896 -0.6049918396433203 140 123 84
-0.2126470489851239 -0.09480395308805689 -0.6065157770627045 126 110 75
-0.21286929076741468 -0.09519388947610376 -0.6080928559154722 125 108 74
-0.2129969825125394 -0.0944068143913433 -0.61039156607136 138 119 86
-0.2131773439243669 -0.09426933212368314 -0.6122966451223583 138 120 85
-0.21333164280243397 -0.09380230456104267 -0.6144076705267639 134 116 80
-0.21344284358099314 -0.09278983160926386 -0.6168599398451591 142 123 85
-0.2136175938048395 -0.09256729782399938 -0.6188287799145468 140 121 83
-0.21374411023098797 -0.09173312162297764 -0.6211811804361664 142 123 84
-0.21388874135070512 -0.09112019916120127 -0.6234011754435548 133 115 78
-0.21373769927040626 -0.08675920404869279 -0.6279706117768383 131 115 80
-0.21366912225280316 -0.08341908129071579 -0.6319185011236975 125 109 77
-0.2137965426340225 -0.08255164686696534 -0.6343253062073936 128 112 79
-0.21365870087958977 -0.07829386846981093 -0.6388781565862729 127 111 78
-0.21358759679824718 -0.07486413585674365 -0.6429254234399177 130 115 82
-0.21259427766088107 -0.0329242996621415 -0.6912386388023728 104 89 72
-0.21312819326933827 -0.0372036757954598 -0.6904237855780011 105 90 70
-0.2136682989265381 -0.041584375355591285 -0.6895282671020735 129 112 88
-0.21414609851050345 -0.04515858210051357 -0.6891508045450258 119 102 75
-0.21458677727284417 -0.04825476643422674 -0.6890785866194244 77 66 42
-0.21494416986001444 -0.05025325213475171 -0.6897259150285684 74 63 40
-0.21529911373103772 -0.05222624771608958 -0.6903850561891387 105 91 65
-0.21565192165135644 -0.05417775178392856 -0.6910534782025566 129 114 85
-0.2159894206930228 -0.05593043287365576 -0.6918501035180816 98 83 56
-0.21635635881692067 -0.058086151234854666 -0.692371684527988 65 49 31
-0.2166661714455025 -0.05947756035851806 -0.69340250479987 56 39 26
-0.21692244677678058 -0.06014691234782682 -0.6949185054211896 72 55 39
-0.21720682248355375 -0.061198430782082175 -0.6961754717028719 89 72 56
-0.21747388449377575 -0.06201595611758881 -0.6975900086769631 92 75 57
-0.21776864924865155 -0.06321322053598022 -0.6987450718850717 89 71 52
-0.218119018309411 -0.06517619050782136 -0.6993745020680954 105 87 62
-0.21840079885733743 -0.06620305812003502 -0.7006407320945393 92 75 47
-0.21871381971255266 -0.06766295303412631 -0.7016077480736961 90 75 48
-0.21904469203983587 -0.06937439124900993 -0.7023981377427987 78 62 37
-0.21920824002854072 -0.06877017182121373 -0.7047860973787511 64 49 25
-0.2194362533313965 -0.06905562959192649 -0.7065619741865127 59 42 20
-0.219714648558782 -0.07004199932480057 -0.707851777007585 55 38 18
-0.21972923780421705 -0.06733759277903212 -0.7117152528920841 56 39 20
-0.22002378638247694 -0.06854358469000893 -0.7128562395752639 62 46 25
-0.22041575552437642 -0.07112446414279375 -0.7130303731339807 89 73 48
-0.22079915376837567 -0.07359566472064802 -0.7132740312632886 103 86 59
-0.2211021462943325 -0.07493872103948601 -0.7143065685173299 116 97 66
-0.22156025483591812 -0.07848956090001602 -0.7137739728810851 129 108 75
-0.2217993339223387 -0.07893664072484338 -0.7154325186142279 126 106 73
-0.2220433244644763 -0.07945259119400067 -0.7170429323634938 146 127 89
-0.22239744077986542 -0.08154643843864107 -0.7175277560941532 146 127 87
-0.22277301792386014 -0.08395761531210427 -0.7177796829448254 151 130 92
-0.22304595944685934 -0.08489904801348352 -0.71907949648847 163 143 104
-0.22335109909916806 -0.08630805549836798 -0.7200416263477669 153 134 98
-0.22368478166487618 -0.08813593281275148 -0.7206983812165672 123 107 77
-0.22401650606770135 -0.0899425396981283 -0.7213658036929091 93 82 52
-0.2242920883848515 -0.09093637926053175 -0.7226185601062167 120 102 72
-0.2244903573519593 -0.09079965743272536 -0.7246929415385719 134 115 82
-0.22463660678815528 -0.08989341233472578 -0.7273323150056745 144 128 91
-0.2244879562363081 -0.08462961095997695 -0.7331679073947082 147 131 93
-0.224748091677035 -0.08537388449838643 -0.7346174411436098 142 127 93
-0.224869010020596 -0.08405310567328789 -0.7375867708053083 138 125 98
-0.22524098365215478 -0.03662670118700509 -0.8064441199976456 161 156 145
-0.22568505233883618 -0.040055739217373404 -0.8059457207862804 149 142 129
-0.2259445014039136 -0.04059505812435937 -0.8076710026671117 133 124 108
-0.22641966199670494 -0.04454355744212468 -0.8067529349536527 114 105 86
-0.2267495686354557 -0.0462103186408174 -0.807595670510735 95 85 63
-0.22712157738489758 -0.048554185999668736 -0.8079063554275786 81 71 44
-0.2274528346243336 -0.05025856152249461 -0.8087101338806096 79 69 41
-0.22777190479606502 -0.05177465478642376 -0.8096572951812615 86 74 47
-0.22807053225909743 -0.05296760658602531 -0.8108550429146574 103 88 62
-0.22838238258952978 -0.05437764113700333 -0.8118795950875535 110 96 68
-0.22869277007322764 -0.05576908847484208 -0.8129158311689011 121 106 76
-0.22900541214971898 -0.05720222983644574 -0.8139160907382623 129 113 85
-0.22939230814207695 -0.059853057512846 -0.813945627359125 132 116 88
-0.22980728482369397 -0.06297836635246926 -0.8135888002713205 137 121 91
-0.2302463578696343 -0.066517909814577 -0.8128906833009573 139 124 90
-0.2305872112573725 -0.0684570980124096 -0.8134623473446275 141 126 90
-0.23091813158186617 -0.07024097340510155 -0.8141534281975885 155 139 99
-0.23126395010958586 -0.07228080402596179 -0.8146337126899307 162 144 102
-0.2315640741913846 -0.07356792238024998 -0.8157160047771836 164 146 103
-0.23175505911648978 -0.07303059183722876 -0.8182728406242754 167 148 105
-0.23208015369043264 -0.07473985942871181 -0.8190112576246977 164 145 101
-0.2323550015478441 -0.07560843005937787 -0.8204295562018954 165 147 102
-0.23262160935344997 -0.07633867679889506 -0.8219599784603959 175 155 107
-0.23286048540311743 -0.0765973128559275 -0.8238761303144825 184 164 115
-0.23321753128254827 -0.07887125559866973 -0.8241407824418953 179 160 114
-0.23356822804782482 -0.08104867580896738 -0.8244779745570371 158 139 100
-0.23394688372365136 -0.07596505105590876 -0.8350815364258546 135 120 86
-0.23411978654877158 -0.07504578753109706 -0.8379923862058376 139 125 90
-0.23437460891821346 -0.0755465747069286 -0.8397267241043009 141 127 92
-0.2347411920893967 -0.07800870749713978 -0.839822913784819 146 132 97
-0.23501647898815844 -0.07887516710350695 -0.8412482962891905 152 138 101
-0.23529218677248886 -0.07975047382349149 -0.8426654977179984 154 140 103
-0.23545019384339316 -0.07853458119043416 -0.8458431859852217 149 136 103
-0.23554232173378736 -0.07612676865593129 -0.8500357765300209 138 127 99
-0.23584496489050993 -0.07746711639957415 -0.8510687207631057 123 114 89
-0.23617160667983256 -0.07924484007389762 -0.851727573637086 98 92 70
-0.23641259657103286 -0.07948325115882032 -0.8536916890967727 77 73 52
-0.2368366820559556 -0.08304166609842856 -0.8528250084477724 66 62 44
-0.23718365554298917 -0.0852185466045649 -0.85312752534523 67 64 49
-0.2375112836304083 -0.08705388200941078 -0.8537164138174269 81 77 65
-0.23745968073920315 -0.0819259735440162 -0.8602880333064271 96 92 81
-0.23778428560611695 -0.08369510123975582 -0.860939348456106 110 106 98
-0.23833935856391372 -0.08974800256519208 -0.8578831400141868 124 122 117
-0.23908981315334893 -0.09526514315794377 -0.8574234300453247 149 147 145
-0.2399340020845573 -0.10262500041106576 -0.8553174748914358 166 165 165
-0.17563364208779939 0.023512557585422048 -0.40192141421717653 118 107 84
-0.17592561915452712 0.02244279602415017 -0.4032315861831728 127 113 87
-0.17624161073378933 0.021144750201847112 -0.4044590580819474 126 111 84
-0.17655722125661277 0.01984827640207422 -0.40568505885935113 120 106 79
-0.1767576615065075 0.019641681804925704 -0.407300970881839 126 113 85
-0.17703689331324532 0.01868828231337344 -0.4086485242378979 135 122 91
-0.17734590826533803 0.01745065546292618 -0.4098920104595433 144 128 94
-0.17757713977735273 0.01695210932008484 -0.41140290737545443 157 139 103
-0.17785161828014542 0.016041416104926293 -0.412763464513616 155 136 101
-0.17818132995647895 0.014602069994177957 -0.41392892368831313 153 134 103
-0.17831850033493896 0.015003067032372114 -0.41577105971761097 116 100 73
-0.1786530257787806 0.013515444532481075 -0.4169165255824496 100 84 59
-0.17898703571693741 0.012030074184473216 -0.4180601715921524 93 76 52
-0.17937203743693253 0.01005159470557851 -0.41901684333513967 94 78 54
-0.17994460059396883 0.006262050394580471 -0.4192894697369165 90 75 52
-0.18030075702928805 0.0045503365605357865 -0.42033537699789225 90 75 54
-0.1805800232929755 0.0035782336846287843 -0.4216578660147121 89 74 53
-0.18077553521213552 0.0034157877420035176 -0.42328708395330555 80 65 46
-0.18086532684835357 0.004279931720676117 -0.4253097028336206 73 60 42
-0.18105074236660396 0.0042203503568505885 -0.4269830398769032 56 44 27
-0.1808886369292174 0.007543168488187202 -0.42996016994018005 53 41 24
-0.18113988218191418 0.006851579611026837 -0.4313983566992978 55 43 25
-0.1812807725868288 0.007236847569002947 -0.4332543353401327 63 52 32
-0.18153023072392632 0.006564206777764314 -0.4347013366851063 79 65 42
-0.1817507887520902 0.0061744644828459205 -0.43625895562561673 71 56 33
-0.1820300343433314 0.005209959401277109 -0.4375915632660243 69 54 33
-0.18227291041317667 0.004601705932714167 -0.4390636990147902 65 50 30
-0.18254286067527006 0.0037271437943373342 -0.4404304632566308 67 52 30
-0.18287655022812388 0.002223507474743369 -0.4415462815560639 68 53 31
-0.18305563487085325 0.0022435627829143767 -0.44326783092726746 69 54 33
-0.18322739450756315 0.002338314903731903 -0.4450214811465195 70 55 36
-0.1834695768785511 0.0017378640681408042 -0.4464976460749715 52 38 25
-0.1837835499477971 0.0004250979826488921 -0.44768603766064297 31 22 15
-0.18378954358431793 0.0021717438584290816 -0.45011386139847187 24 18 13
-0.18397913392464188 0.002098276089396778 -0.45180784536458374 21 17 11
-0.1841703626497422 0.002010431590685452 -0.4534978133358195 20 14 8
-0.1843056808771428 0.002483188609655629 -0.45541984218820153 19 13 7
-0.1845263315830372 0.0021056669980330234 -0.45699492785442525 19 14 8
-0.1847480719167628 0.0017181578039492107 -0.4585667641072162 23 17 11
-0.18461405794662675 0.004904836689517383 -0.46162485554867755 28 21 15
-0.18459957693632853 0.006902145869468412 -0.46419925024235187 31 23 16
-0.18452559581788908 0.009508406536295755 -0.4670373807909465 39 30 21
-0.1844695981296448 0.01194448936968312 -0.4698146320759333 42 33 24
-0.18413636753140358 0.03656312654116556 -0.500082378822419 31 27 24
-0.18433215447362666 0.036532138132337466 -0.5018926558270611 21 17 16
-0.1844503907906206 0.03730488962109263 -0.5040603227469233 12 10 10
-0.184418878907299 0.039633218149166566 -0.5069229554639123 8 7 6
-0.18448535281276227 0.04095628061243392 -0.5093479587162534 8 7 5
-0.18537926128948898 0.03368914868177503 -0.5079399234402406 8 7 5
-0.18523859112320692 0.03716745650601569 -0.5113309344331977 8 6 6
-0.18554323370030779 0.036016964107990074 -0.5126513408340798 9 7 7
-0.18578960027471894 0.0354736109996269 -0.5142446042731265 9 7 8
-0.1860630167414014 0.03464761362833019 -0.5157100903044366 10 8 6
-0.18630933056545146 0.034105300639926006 -0.5173042666614085 10 9 5
-0.18668581989922706 0.032195772327823474 -0.5182740055564585 11 10 6
-0.18689348884262807 0.03205871849235972 -0.5200527118247054 12 11 7
-0.18707958959400967 0.03215116725016148 -0.5219389167707373 13 12 8
-0.18717362966923523 0.03321925988781768 -0.5242785959061328 16 13 9
-0.18722197046926475 0.03477775119766846 -0.5268516423114143 18 14 10
-0.18727532840580866 0.03629153327135071 -0.5294114619896771 21 17 11
-0.18804238139714935 0.030229588095135096 -0.5284393169460954 26 20 14
-0.19810612128143487 -0.0672175616440225 -0.4913655083035464 90 77 54
-0.19855257473477794 -0.07008856330932826 -0.49169195386252107 78 64 37
-0.19903365161405992 -0.07334125388476935 -0.4918278196641693 75 61 32
-0.19949197901760313 -0.07635872401336527 -0.492067770129165 77 61 35
-0.1998305657177653 -0.07809083675256584 -0.49291975768623686 86 69 42
-0.19981704520293778 -0.07601248914608377 -0.49561325144861446 93 76 47
-0.20034262327682978 -0.07977580933979238 -0.4954769508709861 103 87 54
-0.20061143191969702 -0.08075865022540624 -0.49668592297497777 106 90 55
-0.20109689835702846 -0.08410425999206655 -0.4967371782312995 120 104 72
-0.20129049922332728 -0.08427342603019397 -0.49833919294979157 127 112 81
-0.20146731967699869 -0.0842571979873856 -0.50003412516469 101 86 55
-0.20163170897318583 -0.08410214364171925 -0.5017999062889403 112 96 66
-0.2017636489680013 -0.08358749401269752 -0.5037468439304414 112 97 69
-0.20199171079710876 -0.08412644397631963 -0.5051729031547544 100 86 59
-0.20218902555653423 -0.08432591835294986 -0.506768910729865 92 78 54
-0.2025423654150161 -0.08624828299030338 -0.5075022062778296 88 75 53
-0.20285051201776536 -0.08767542458872325 -0.5084802057620026 74 59 38
-0.2031121882675998 -0.0885901408649566 -0.5097141790906177 71 55 36
-0.20326522111124318 -0.0882978451016454 -0.5115588254079603 71 55 39
-0.20365234222492937 -0.0906105163637216 -0.5120818746279926 60 44 30
-0.2038126337970756 -0.09039717161585292 -0.5138880178518198 55 38 27
-0.20399996841092932 -0.09048301641929263 -0.5155438581895441 63 47 32
-0.20423044422146164 -0.09105042796761556 -0.5169541187941018 110 93 70
-0.20438100918810512 -0.09071968991503103 -0.518827602893478 137 121 95
-0.20481511419819506 -0.09357778208449388 -0.5190547445388362 85 69 46
-0.2050497025074001 -0.0941939291775376 -0.5204377537977907 61 46 25
-0.20522058946521712 -0.09408975769903295 -0.5221959346090685 74 58 39
-0.20544616514923678 -0.09460227096674055 -0.5236343608712329 80 65 45
-0.2056874355512529 -0.09529257892423464 -0.5249799142298704 80 65 42
-0.20593156110864275 -0.09601570182475451 -0.5263079331265688 104 89 66
-0.20618349254153695 -0.09682831038575462 -0.5275883244413373 90 76 51
-0.20648203276232627 -0.09817445188981022 -0.5285853974964366 159 145 115
-0.20682611424646608 -0.10004534459329674 -0.5293009738669824 183 168 136
-0.20716171565713604 -0.10182432983194727 -0.5300610868808513 122 108 80
-0.20686622104012511 -0.09634888331823308 -0.5346984687313214 56 45 24
-0.20711135420854004 -0.0970793190999663 -0.5360260932292095 41 26 10
-0.20725727206348832 -0.0966640068623194 -0.5379704225873835 52 35 15
-0.2074690766137347 -0.09700704346986924 -0.539508628881465 72 53 29
-0.2078278741282395 -0.09905456145536233 -0.5401236604650597 95 75 49
-0.20795269411714892 -0.0983873635813843 -0.5422103238363929 91 68 39
-0.20817618221601747 -0.0988644805112487 -0.5436770508708313 95 72 41
-0.20835043336703832 -0.09876584055755931 -0.5454595511976198 95 73 42
-0.2085963950055453 -0.09950353000205346 -0.5467851668309811 98 77 48
-0.2088172687569026 -0.09994739675357485 -0.5482722974592793 100 81 50
-0.2090030441093936 -0.09997774598289157 -0.54998872229529 97 81 50
-0.20913056339823863 -0.09931884796009968 -0.5520896565362234 95 80 50
-0.20920138769607363 -0.09798446694076186 -0.5545711841850904 111 96 66
-0.2092879526267619 -0.09682759088876591 -0.5569606666377586 105 90 60
-0.20949410558789106 -0.09708170050043184 -0.5585661238629654 114 98 70
-0.20974519369321765 -0.0978685673409335 -0.559873481500998 103 88 59
-0.20935784382612652 -0.09104558828019349 -0.5654711297485081 139 125 94
-0.20914052223121962 -0.08621988304773545 -0.5699660673747332 109 97 70
-0.20919849823013348 -0.08466588286359536 -0.5726241757880342 83 72 49
-0.2092309371492219 -0.08279523648222194 -0.5754705328830022 79 67 48
-0.20931513988041542 -0.08153574591940291 -0.577976968416967 51 40 22
-0.20944245624571756 -0.08078735053650318 -0.5801974778188808 42 33 17
-0.209695627027784 -0.08155376145102161 -0.5815523091662171 55 44 27
-0.2100466511919487 -0.08350638521978625 -0.5822226183106924 63 49 31
-0.21037124114484926 -0.08514419486313866 -0.5830702012706888 83 69 49
-0.21056976677991973 -0.08525213511754978 -0.5848019249503811 61 47 29
-0.21073235948572233 -0.08491911725040804 -0.5867922986640456 53 41 25
-0.21105487383193328 -0.08653755118723505 -0.5876465472955565 40 27 14
-0.21140444544966625 -0.08849243821751297 -0.588300041428993 43 27 12
-0.21160831672395886 -0.08866300331872938 -0.5899973254394255 52 36 17
-0.21183258578221337 -0.08908263647242237 -0.5915494768890417 82 66 43
-0.21213518688466637 -0.09046860473508134 -0.5925309041608255 74 58 32
-0.21242362716732066 -0.09168292773939711 -0.5936113685656216 74 58 31
-0.21266293454203977 -0.09229036181553808 -0.5950508531577559 67 50 22
-0.21287008508703462 -0.09249764055781873 -0.5967293226854041 92 74 47
-0.21316277681116466 -0.0937695906249373 -0.5977717798153882 86 67 42
-0.21324170988863922 -0.09237240172798512 -0.6004152881567912 85 69 41
-0.21349594264982985 -0.09316209318804564 -0.6017485629579403 120 104 71
-0.2137037246233029 -0.09336897584000413 -0.6034335441474237 131 111 75
-0.21391459658782425 -0.09361265035199261 -0.605097813890827 139 118 83
-0.21417448962325672 -0.0944733343892845 -0.6063882663769999 134 115 80
-0.21438602196332696 -0.09472300233497936 -0.6080506477038453 126 108 71
-0.21449388907005146 -0.09365521062282851 -0.6105207361754599 133 114 77
-0.21467562048615688 -0.09351851938341112 -0.6124256630787329 137 117 80
-0.2148316890564754 -0.09305058520742539 -0.6145374642474856 135 115 78
-0.21494325718472118 -0.09200798435692842 -0.6170083709068728 143 125 86
-0.2151107628114165 -0.0916738948806957 -0.6190466806112398 144 126 87
-0.21528330774240684 -0.09139957800511947 -0.6210515244041527 143 124 84
-0.21518393426565186 -0.08761658213392749 -0.6252468663431616 136 117 82
-0.2151928287886443 -0.08520942916847327 -0.6285987912142882 122 106 73
-0.21516468083288393 -0.08230659039537971 -0.6322731629234382 117 104 71
-0.21520311657047175 -0.08024994002660954 -0.6354287613658688 120 105 74
-0.2151256269904867 -0.0766696409138215 -0.6395559811440208 127 111 80
-0.21417710339200766 -0.031652810769362716 -0.691693511787631 105 91 73
-0.21462949187424074 -0.03490973405345957 -0.6915522100173656 103 87 71
-0.21514957608457352 -0.039096360601267005 -0.6907892823430325 118 101 79
-0.21556504709160368 -0.041883918275874316 -0.6909358797094637 128 111 83
-0.2159472483262929 -0.04423085138106703 -0.691365870490577 100 87 59
-0.21637425854875825 -0.047198193206598266 -0.6913775789060048 69 58 33
-0.21681458503297085 -0.05036055106714843 -0.6912505333607467 84 72 45
-0.21715914547524326 -0.052223678659062606 -0.6919811825083806 124 109 80
-0.21749380464004087 -0.053957393988472435 -0.6927938360081428 125 107 78
-0.2178290597143352 -0.055705379512396486 -0.6935927552556668 91 74 49
-0.21816361157880798 -0.057449801294648106 -0.6943898592927766 59 42 24
-0.21847456606449484 -0.0588730637194671 -0.6953996902998638 54 37 22
-0.21875842224471745 -0.05992368725100736 -0.6966590107589572 84 67 50
-0.21904069518994587 -0.06095442076181004 -0.6979303534241533 92 76 59
-0.21935286842382073 -0.06240563813807645 -0.6989137654514171 92 76 57
-0.219658585727735 -0.06377082358597122 -0.6999528883928654 97 82 58
-0.2199658216437611 -0.06516146953025634 -0.7009718156621813 93 78 53
-0.22028548140517284 -0.0667317567302679 -0.7018644174679974 103 87 63
-0.2205704712316897 -0.06781650802057529 -0.7030881340477453 114 98 73
-0.22081468015534575 -0.06832460926258654 -0.7047088392429809 88 71 45
-0.22105002786566863 -0.06870553036312779 -0.7064183586970344 70 52 28
-0.22128604444046862 -0.06909427104752866 -0.7081235910015057 60 43 19
-0.22152453066228642 -0.06951670287793629 -0.709806452072326 59 44 21
-0.22162751408858933 -0.06799006071392574 -0.7128532375172446 63 48 24
-0.2219759271716557 -0.06998832319793508 -0.7134368874069754 98 83 57
-0.22232915219280017 -0.07206429391304081 -0.7139605721774244 121 102 73
-0.22270016551774718 -0.07440693289075126 -0.7142905432884985 125 105 73
-0.22322038155273527 -0.0789308270687247 -0.7130710131133005 129 109 77
-0.2233978427819269 -0.07847603975801523 -0.7153673634842229 131 111 78
-0.22383625984558014 -0.08183486118150246 -0.7149555484042608 145 126 89
-0.22386696281819427 -0.07922260428725375 -0.7187922374880986 141 122 81
-0.22430633539021574 -0.08261057710647479 -0.7183498887059097 145 126 86
-0.22458522648757742 -0.0836439324713785 -0.7195856763976729 156 138 97
-0.2249002255158612 -0.08521496784718424 -0.7204331672360259 147 129 92
-0.22517769054941528 -0.08623351863144915 -0.7216755605149965 124 110 78
-0.2255003019726365 -0.08792797131181099 -0.7224275301463787 91 82 53
-0.22573279778969368 -0.08828010382681137 -0.7241491490388448 111 100 70
-0.22586176939012043 -0.0870755531518958 -0.7270045614880036 129 115 82
-0.22597222939892186 -0.0855799728481319 -0.7300799157512 141 127 91
-0.22591992577060602 -0.08161006901245993 -0.7349743190541667 148 132 96
-0.22618612775626873 -0.08243988342294029 -0.7363663669898503 141 127 95
-0.22638240792727377 -0.08220690599212072 -0.7385396510271967 156 147 126
-0.22728425860268156 -0.03799868832951936 -0.8070859008050395 175 169 163
-0.22734300677041763 -0.035279084783927384 -0.8113336520079774 167 160 153
-0.22793616119772703 -0.04121616981476511 -0.8088857497458686 154 149 139
-0.2282727813285147 -0.04300864674568636 -0.8096371855654412 142 136 122
-0.22862317394101814 -0.04503439690592825 -0.8102022485819742 127 119 103
-0.22894276853981976 -0.04656400731472335 -0.8111494536990345 111 103 84
-0.229264338508739 -0.048132245988152716 -0.8120629089491116 104 94 73
-0.22958627999679235 -0.04971301919430307 -0.8129628631914007 101 91 66
-0.22990765580688788 -0.051290916862014285 -0.8138613691612498 101 91 62
-0.2302284847692614 -0.052866234299336706 -0.814758204123475 108 97 65
-0.23052198752976766 -0.05399091153857319 -0.8160082612318482 115 102 72
-0.23083150265588842 -0.05538769109948405 -0.8170404256120051 117 103 74
-0.23120544963456843 -0.057875931394188784 -0.8172004944606369 126 113 82
-0.23162920108425042 -0.06122061204793669 -0.8166691241504616 141 126 92
-0.231961708969207 -0.0630356087886764 -0.817351082686013 152 134 98
-0.23227117491434207 -0.06446628795691303 -0.8183367621533877 169 150 107
-0.23261081452598018 -0.06641918632256993 -0.8188989890223461 178 158 111
-0.2329099392543385 -0.06768560051967107 -0.8200098240369226 188 167 119
-0.2331924646303996 -0.06867009336535215 -0.8213463278774068 186 167 119
-0.2335039547412652 -0.07015855171885241 -0.822272721254683 173 154 111
-0.23377610993851747 -0.07096927417482335 -0.8237470104881797 166 148 103
-0.23406824985940544 -0.07212982208322502 -0.8249354783620271 166 147 102
-0.2343245794498892 -0.07266638948749901 -0.8266322138884151 170 151 105
-0.23456724425340608 -0.07296119213990068 -0.8285278685859035 162 145 100
-0.2348388724462988 -0.07376454856306952 -0.8300071714031751 152 135 96
-0.2348740910237117 -0.07037433143928268 -0.834942684238996 135 118 85
-0.23512455473494515 -0.07078525026533325 -0.836754493808671 133 117 83
-0.23529939055031387 -0.06984095697017892 -0.8396905223565141 140 125 93
-0.23557871478697331 -0.07075991416089669 -0.8410857065252335 142 127 96
-0.23579121340109974 -0.0704753658526669 -0.8434824424365681 142 128 96
-0.23600404765083105 -0.07018866276984836 -0.8458852789670719 143 130 97
-0.23629354744202052 -0.07128809626248298 -0.8471317329456187 145 132 99
-0.23658280545434618 -0.07238648651573656 -0.8483773156739466 141 129 97
-0.2368198683503408 -0.07253083115883685 -0.8504242213136296 128 117 89
-0.23700934526921458 -0.07179379746880366 -0.8532174092888305 116 107 84
-0.23735050662419074 -0.07385071688558736 -0.8536528220866908 105 98 78
-0.23768177372864935 -0.07573552242771159 -0.8542282742828036 96 90 71
-0.23798016786822293 -0.07701716029770081 -0.8553115306435704 90 87 68
-0.23838687489650068 -0.08033409003831163 -0.8546565752818641 88 85 70
-0.2386675399874846 -0.08130116507530094 -0.8559991240584853 101 98 87
-0.2390274593935927 -0.08376931008909672 -0.8560537576065278 116 113 104
-0.23929203487107545 -0.08444226949203665 -0.8576433519191267 129 126 118
-0.23969955796454923 -0.08784234888030074 -0.8568832395301226 137 134 129
-0.24034412977905723 -0.09143404758887574 -0.8581057220509213 155 154 152
-0.24092233218127335 -0.09377669785738885 -0.8603958982723807 169 168 168
-0.2412902377598699 -0.0964928074241887 -0.8601894707588359 173 173 173
-0.1779430891438206 0.02360042376480187 -0.40849831254472746 139 126 96
-0.1784029521275685 0.022646342480913878 -0.41154900975781267 143 129 94
-0.1788570252350301 0.020004446118042862 -0.4122869095503868 147 132 97
-0.1790192558314866 0.020180487426414068 -0.4140490298012604 159 143 108
-0.17920081915095207 0.020171798979890104 -0.41574589875066703 152 135 102
-0.17960803909291861 0.017974246854852785 -0.4166374520498438 134 117 87
-0.17997507736926488 0.016162413310809087 -0.417666995281366 118 100 73
-0.1805519061074875 0.012303224285946879 -0.41793126327741226 101 83 57
-0.18101325678685198 0.00956021036380822 -0.41860234794321494 93 78 52
-0.18141964602567687 0.00734743307974059 -0.41946571297107815 94 80 55
-0.181844349860374 0.0049502010885840025 -0.4202546142314818 86 71 48
-0.1819941711950712 0.005242450066799603 -0.4220554516127573 87 72 50
-0.18209733890730398 0.005996004022252366 -0.4240345138388892 86 71 50
-0.1823014790389713 0.005760854113592895 -0.4256408205834863 76 62 43
-0.18250124793313846 0.005570140691798425 -0.42726545089422335 58 45 27
-0.1826957100029717 0.005433324055751865 -0.4289122589691698 60 46 28
-0.18286342362094352 0.005562676682984546 -0.43066350397872555 60 46 27
-0.1830053660449527 0.005949866162543588 -0.43251723297222566 70 57 36
-0.18323833647260007 0.005437486425074828 -0.4340238935856353 71 57 35
-0.1835138411875511 0.0045028777049634094 -0.43536585090038443 71 56 35
-0.1835978209483767 0.005473769735278175 -0.43745515700771664 75 60 41
-0.18347222658362056 0.008539859783212811 -0.4403757878978228 64 49 31
-0.18356090776784517 0.009478398109697528 -0.4424660443551861 67 52 32
-0.18431619410438532 0.0037527995341082587 -0.44191230539568727 65 50 31
-0.18451469239075785 0.0035901546674305396 -0.4435625354403215 67 52 33
-0.18479988979205597 0.002558741276986576 -0.44486617432677933 63 47 30
-0.18494204394739494 0.0029645914165744858 -0.44674686386188067 51 37 23
-0.18526596709581244 0.0015428609213329614 -0.4478926598807731 26 18 8
-0.18555417118799278 0.0004789143588011524 -0.4491810617091755 20 16 8
-0.1857491800408471 0.0003556749212599297 -0.45085118140375446 23 17 13
-0.18591142528111046 0.000566067344359239 -0.45265940162238194 24 18 12
-0.18611560101681363 0.00035408037074477483 -0.45429703566058843 25 19 11
-0.18623045543113742 0.0010513771592262355 -0.4563107959710248 23 18 10
-0.1865334058629469 -0.000161535669202989 -0.4575386409941718 23 18 10
-0.18649735237645707 0.0020809578749843294 -0.46019986212020525 31 22 15
-0.1864165600363983 0.004790792115975329 -0.46306540175025496 35 24 18
-0.1864546435890994 0.006295886957517344 -0.46543759800887563 39 30 21
-0.1862448515492652 0.010350206100739251 -0.4688881979407359 53 44 35
-0.1858428180695494 0.03615363672297689 -0.49963037490385165 28 23 19
-0.18607806027567447 0.03571785804585301 -0.501260905809124 24 20 17
-0.186308203739285 0.03533650324790438 -0.5029162777662721 17 14 13
-0.1866294087550492 0.033998422988037375 -0.5041484213448982 13 11 9
-0.18678898646955402 0.034361112037282066 -0.506135314958467 11 9 8
-0.18731163559300915 0.030894450825103226 -0.5064149642961965 10 9 7
-0.18717732070945703 0.0343664486882824 -0.5097966450436708 10 9 7
-0.1878385564009485 0.029423148557902068 -0.5094046220979559 10 9 7
-0.18756022744027684 0.034439688030840326 -0.5134977573173125 10 9 7
-0.1879091055817653 0.03280571947887018 -0.5145944006688093 12 10 7
-0.18821938933710636 0.03157945475732449 -0.5158733866134771 13 9 6
-0.18833188912855992 0.03246311290984133 -0.5181143437018427 15 11 8
-0.18879858447846365 0.02956326454378938 -0.5186258750093073 14 11 8
-0.18889657945342497 0.030607131873756466 -0.5209447047533212 15 12 7
-0.1891602900940298 0.029877835173309192 -0.5224503906597275 18 14 10
-0.18902395291012183 0.035575106085928426 -0.5287904816619438 29 22 15
-0.1897778647261178 0.029563642287838282 -0.5278413177654202 35 27 16
-0.19922426961555698 -0.068615718788373 -0.48536605214522 91 79 62
-0.19939831932386168 -0.06855829795070728 -0.4870806736549466 89 76 59
-0.19976438749239914 -0.0705888542831376 -0.4878084347545522 89 76 55
-0.20010187857096456 -0.0723132376930469 -0.48867695080969015 100 88 61
-0.2004760589718812 -0.07444305672831815 -0.4893482326794521 93 81 52
-0.20084488569773368 -0.07652025823688265 -0.4900395397896242 99 84 57
-0.20116876642558415 -0.07811003140943631 -0.49096009367679583 105 89 62
-0.20112076741769552 -0.07561432718027161 -0.493847707234782 103 87 57
-0.20154678508416302 -0.07832912378521098 -0.49422406657130163 93 77 47
-0.20189138265687673 -0.0801534344549905 -0.49502575030742507 90 74 44
-0.2022189347728102 -0.08179405796937395 -0.4959128133008407 105 89 59
-0.20268299725014488 -0.08495214744643308 -0.4960540400603724 96 80 52
-0.20291673675081218 -0.08556212279465612 -0.49743735357535895 102 87 59
-0.20298959463471702 -0.0843813292458983 -0.49970285439053225 92 77 50
-0.20323736281063326 -0.0851440815233924 -0.5010137592345772 117 102 75
-0.20337435903142065 -0.08466938537703776 -0.5029380297959067 97 83 58
-0.20362417516855932 -0.0854537479441179 -0.5042392909611311 91 79 55
-0.20384715727611977 -0.08593765751162279 -0.5056900558002827 91 80 58
-0.20410099281003247 -0.08676800909966267 -0.5069676053026335 74 62 42
-0.20437087394941028 -0.08778008881888477 -0.5081529882345357 69 53 36
-0.20464846407657622 -0.08888089117098219 -0.5092922001719864 63 47 32
-0.2045685055067229 -0.08593738008214477 -0.5124782477063139 58 42 27
-0.20516344352079965 -0.09063273140069611 -0.5117941279441521 51 34 20
-0.20533224009365558 -0.09050233917822711 -0.5135569544497672 55 38 25
-0.20550560926154102 -0.09042086933100352 -0.515297349976935 64 47 30
-0.2056854855842613 -0.09041070722550729 -0.5170035666884525 81 63 40
-0.20583195003924024 -0.0900157341223153 -0.5189102621530889 124 106 81
-0.2060407174662719 -0.09033054558204844 -0.5204535232876378 114 96 75
-0.20649481350004437 -0.09346203649986853 -0.5205365558931827 56 38 24
-0.2066993220783137 -0.09373130386846315 -0.5221006801483384 62 44 31
-0.2069439050847799 -0.09446138538429655 -0.5234253266798503 79 64 45
-0.20715836636159932 -0.09484372503171418 -0.5249318129578853 67 52 30
-0.20742331955427756 -0.09581007508907297 -0.5261320111558401 77 62 39
-0.20766738491530715 -0.0965354195879938 -0.5274581248722053 86 73 46
-0.2080254506105493 -0.09858789988386181 -0.5280812489267257 166 153 123
-0.20832734558454713 -0.09999160245464563 -0.5290438834063343 150 134 106
-0.20867741224218586 -0.10196185767981092 -0.5297017553031967 81 67 43
-0.20837966015433337 -0.09634924494386916 -0.5344096732857023 50 37 16
-0.20859068287800164 -0.09668225123851086 -0.5359498116647425 49 32 14
-0.20881086795185086 -0.09712180644768831 -0.5374336032944432 73 55 33
-0.20913913798092845 -0.09883523342012676 -0.5382300099538075 80 61 37
-0.20935753487021663 -0.09925493083107355 -0.5397235448841035 97 76 50
-0.20949081633906963 -0.09866543995242817 -0.5417664565899498 87 65 37
-0.20972682442590956 -0.09929018125547884 -0.54315136028216 89 66 36
-0.20991656892069488 -0.0993644183209404 -0.5448375085650674 91 70 42
-0.21012576950944398 -0.09966824139567168 -0.5463995482921422 85 65 38
-0.21037512374068107 -0.10045065193684218 -0.5476990747974141 98 79 48
-0.21051764278595708 -0.09995372237736314 -0.5497050631830404 119 100 67
-0.2106051261163607 -0.09879070054743778 -0.5520844093525482 125 106 73
-0.21066802954392075 -0.09732356326961038 -0.5546393707181622 120 101 69
-0.21075235230317527 -0.0961051737296659 -0.5570630588104577 120 101 70
-0.21075224066016068 -0.09385711303532997 -0.5600699382961065 135 118 87
-0.21098604841399107 -0.09443114583672661 -0.5615019855916957 93 81 53
-0.21063448484619968 -0.08789257198561604 -0.5669424886807253 91 81 51
-0.21041179718240008 -0.08288981617313403 -0.5715407607114256 99 89 63
-0.21040535036537852 -0.08050022246321634 -0.5746773995285166 87 77 52
-0.21046349713850832 -0.07888669747702674 -0.5773834695825939 76 66 42
-0.21055747088355836 -0.07770191479216948 -0.5798530062229753 63 53 32
-0.21079095528665612 -0.07822372265307537 -0.5813518883649603 64 52 33
-0.2111390472080531 -0.08015746759539101 -0.5820400293365366 73 61 40
-0.2115154689961038 -0.08244745622389296 -0.5825180937690696 65 50 29
-0.21168743554768454 -0.08221345659908862 -0.5844493773323438 83 69 48
-0.21193223148132043 -0.08287935783632494 -0.5858619014105547 64 53 32
-0.21223413879604397 -0.08425612544784303 -0.586860691288223 50 38 20
-0.21251773759279913 -0.08540812705195455 -0.5879879390908836 55 40 24
-0.2128396101045005 -0.08704129694097684 -0.5888315305623452 56 40 22
-0.21304296699828001 -0.08719365851399286 -0.5905412388176303 47 31 16
-0.2133117138500098 -0.08816540900393612 -0.5917699091609421 74 57 40
-0.21365256189682294 -0.09004719355274773 -0.592459409517297 74 58 34
-0.21386035976260973 -0.09025481272762159 -0.5941369716303934 92 77 50
-0.21381569363104375 -0.08726378883958004 -0.5977186904227445 70 54 26
-0.21428663462843728 -0.09079921063539288 -0.5974197686155895 78 62 34
-0.21453283446944232 -0.09148940612358615 -0.5988129973573248 79 60 32
-0.21478086863186036 -0.09220329134378015 -0.6001917897723069 86 69 41
-0.21495923333578665 -0.09202654168389261 -0.6021066782771253 115 99 67
-0.21525085405511468 -0.09329785676748073 -0.6031497688823706 129 112 75
-0.21545160494471088 -0.09340430260098527 -0.6048963906438127 135 117 79
-0.21569484602270542 -0.09405565788543585 -0.6063137463184892 141 123 83
-0.21583001801104404 -0.09331071686560763 -0.6085824416449992 139 119 79
-0.21600114023262362 -0.09302436480161616 -0.6105758282821895 132 112 73
-0.21616436506106818 -0.09263065351504636 -0.6126385489996357 134 114 77
-0.21628354625757118 -0.0916580278979749 -0.6150614169469452 135 116 79
-0.21644149304865834 -0.09118311559805785 -0.6171831196694813 136 117 79
-0.21652534597659986 -0.08973241805212166 -0.6199132173697878 140 120 82
-0.21641599367465486 -0.08573483020420347 -0.6242330389252129 140 122 85
-0.2166666418324693 -0.08645028390605242 -0.6256343301513956 125 109 76
-0.21670922291871392 -0.08442067455177152 -0.6287506539989205 120 106 76
-0.21671637244731862 -0.08190802201880673 -0.6321798872458447 116 101 71
-0.21662638943207532 -0.07808989922324991 -0.636441845790931 121 107 78
-0.21561129595923845 -0.028301631477289563 -0.6935071613919409 103 94 74
-0.2161243930077887 -0.03244533072112335 -0.6927910422173065 106 93 75
-0.2165960377727526 -0.03603554073765433 -0.6924254355540611 109 92 73
-0.2169510467407655 -0.038024925838856305 -0.6931042181529311 122 103 78
-0.21731704985498432 -0.04017472653513343 -0.6936718168216247 116 100 68
-0.217689147585793 -0.04241801065580236 -0.6941716834193025 87 73 45
-0.21809734122323327 -0.045175271931816086 -0.6943235020782704 71 59 33
-0.21848228463358788 -0.0476184579918964 -0.6946767743399153 95 82 56
-0.21881077745456837 -0.04927770924198516 -0.6955477651654668 125 108 80
-0.21922730004377658 -0.052184941845122235 -0.69557729520486 118 102 72
-0.21961644035231515 -0.05471779545703814 -0.6958500837189322 82 67 42
-0.2199036072059556 -0.055814157010102367 -0.6970853536124718 61 45 26
-0.22026441660505436 -0.05796148779792465 -0.6976073846629394 76 60 41
-0.22052086577660493 -0.058627397334403336 -0.699129553536848 84 69 52
-0.22077732562135055 -0.05929341729447754 -0.7006516750965524 92 77 60
-0.22116858612506876 -0.06189590226423722 -0.7008512469270531 113 100 78
-0.2214284238676242 -0.06261637471089943 -0.7023322961669767 108 96 74
-0.2217036725879437 -0.06355987931431703 -0.7036599418056099 101 88 65
-0.22209118119224353 -0.06613249753894465 -0.7038641706414623 126 111 88
-0.222304853802829 -0.06618891675442162 -0.7057993207798967 99 83 59
-0.22259841477131864 -0.0674068433234837 -0.7069321033738807 88 72 48
-0.22287217572043283 -0.06833845174176828 -0.7082616664489875 88 72 48
-0.22304051005448594 -0.06772432417689148 -0.7106673865602784 84 69 46
-0.22325450999245233 -0.0677745084037433 -0.7126139593029901 71 58 32
-0.22357166857619784 -0.06934436605575048 -0.7134979056169889 93 79 50
-0.22385765143894124 -0.07045799632444044 -0.7146989285325396 136 115 82
-0.2242637728149875 -0.0733600056046862 -0.7146375729735847 140 118 86
-0.2245804782292168 -0.07494302589427848 -0.7154996432495371 141 120 88
-0.22497967114327422 -0.07776569658531057 -0.7154792474071753 135 115 81
-0.22524944757551718 -0.07866023149518861 -0.7168209213075851 143 123 85
-0.2255923709234398 -0.0806573824426004 -0.7173755885416635 143 124 84
-0.22582466989714733 -0.08099242756098654 -0.7191132065138541 146 127 86
-0.22604411818815306 -0.08113060897967239 -0.7209933065445533 147 130 86
-0.2263993399307851 -0.08332927978173826 -0.7213940647540096 138 121 84
-0.22671598448483182 -0.0849496639503535 -0.7222055690584526 121 106 77
-0.22694033496395818 -0.08516410347166836 -0.724029764046339 102 93 66
-0.22710947941020945 -0.08452801684786257 -0.7264724887024862 114 105 76
-0.22728796517858285 -0.08402715220830989 -0.7288221858349059 130 117 85
-0.2273503962883134 -0.08172485384054387 -0.7324901574947547 140 126 90
-0.22737003156729083 -0.07873895774246056 -0.7366700856242848 145 131 96
-0.22777875824624794 -0.08178237973937283 -0.7364440339501788 149 140 115
-0.22932359142995457 -0.035571846270362556 -0.8128109766695468 174 172 168
-0.22979924926355236 -0.039707047146997326 -0.8117539288245537 169 166 161
-0.23013119264403267 -0.041449310446948134 -0.812546318059097 162 157 152
-0.23048301033994792 -0.043535154867053005 -0.8130660074461965 153 148 141
-0.23079624679418326 -0.0449772218495276 -0.8140840322082947 146 141 129
-0.23108781116501761 -0.046055989750613674 -0.8153842228360243 135 129 113
-0.23143094667441055 -0.048018894570626025 -0.8159867081867513 127 119 99
-0.23174427942474737 -0.049480264049879236 -0.8169798121324708 120 112 86
-0.23201135558395097 -0.05015091615582437 -0.8185956343753767 120 111 85
-0.23235658792099723 -0.05217250525514505 -0.8191393304682305 115 105 81
-0.23266185157573538 -0.05351072660724232 -0.8202212785184615 119 109 84
-0.23299956205863895 -0.05541934258196657 -0.8208453539419498 128 116 88
-0.23333229921284573 -0.057250524500236044 -0.8215262384211593 131 118 85
-0.2336642844770045 -0.05907751043913784 -0.8222056619506993 141 126 87
-0.2339729904331741 -0.06050301058692792 -0.8232032217492147 153 137 95
-0.23427026117278554 -0.061731890684942614 -0.8243562570065611 163 146 103
-0.23457199860741051 -0.06304446500799477 -0.8254393396569852 164 148 106
-0.23486065111232862 -0.06412847138089856 -0.8267051207603168 153 139 99
-0.2351754699078767 -0.06568461361959105 -0.8275854012564218 147 133 93
-0.2354487232233405 -0.06649976608557864 -0.8290660068957199 144 130 91
-0.23577387943977926 -0.06825385897384698 -0.8297787014192021 149 135 95
-0.23604500293386765 -0.0690362184012003 -0.8312831430825148 150 136 98
-0.23621772551937759 -0.06802610628530706 -0.8342599879400505 144 130 95
-0.23633460974930967 -0.06597974161494988 -0.8380979163540271 136 121 90
-0.2365248300592244 -0.065257834562644 -0.8408537916357082 135 122 91
-0.23672222715985403 -0.06465624373246714 -0.8435162154259458 139 127 99
-0.23719168902773077 -0.06480929411514569 -0.8477290254507184 135 123 97
-0.23741320534395144 -0.06463060415057581 -0.8500525628193162 132 120 94
-0.23766308024201582 -0.06497671674069821 -0.8519407602285813 130 119 94
-0.23791397654320576 -0.06533894695921033 -0.853817003382811 128 118 94
-0.23817841041828353 -0.06595459920865518 -0.855481552389796 122 115 94
-0.23855810469368682 -0.06876256849331816 -0.8552973467898058 121 116 98
-0.23892088924755417 -0.07126614200862585 -0.8553613071618714 124 120 105
-0.23922768783744167 -0.07271105720233453 -0.8563149412727222 128 123 111
-0.23957003810153232 -0.07484830599523273 -0.8566767633760185 127 123 113
-0.23995539893613452 -0.07783184852189962 -0.8563109606416673 130 127 120
-0.24029782561442992 -0.08000071805031697 -0.8566311929022852 134 132 127
-0.24056427517026455 -0.08069768588615364 -0.8582059081277281 140 139 133
-0.24091255739387443 -0.08300196654779271 -0.8584000589410962 148 146 141
-0.24125340186513952 -0.08517444407967795 -0.8587005752301607 155 152 150
-0.24158545259251274 -0.08718641394891555 -0.8591331042208282 162 160 159
-0.24194528286115127 -0.0897641411776828 -0.8590700465522502 166 165 164
-0.17942331573993459 0.026557835032576665 -0.41103558396791295 134 123 93
-0.18061449924950465 0.022014242915205456 -0.41619260224155746 146 132 94
-0.18091755120193873 0.020822547856947954 -0.417457469845094 153 135 98
-0.18134440852408104 0.018407419546154755 -0.41826771498668514 154 133 101
-0.1817783790989551 0.015916099194080477 -0.4190440599173234 140 121 91
-0.18215762297954657 0.013960429400903557 -0.42001456917915136 112 97 70
-0.18282360380589655 0.009156826453628586 -0.41991313657781665 98 84 58
-0.18296027733259668 0.009597166216786426 -0.421772999652363 92 77 52
-0.18363539578316188 0.0046834543165027165 -0.42161188685018075 94 79 55
-0.18359957469441102 0.006841353019608254 -0.4241222838745453 85 69 46
-0.1837977998368674 0.006672015371587334 -0.4257542390799633 87 71 51
-0.18382991995076184 0.00816551417036887 -0.42802436724475645 76 60 41
-0.18418736144885295 0.0064072021380816024 -0.42905107904363327 75 60 39
-0.18433209553903274 0.006779651068215764 -0.43089685509925474 76 61 41
-0.18456212285010498 0.0062981832652305725 -0.4324148471008058 77 62 41
-0.18482113603007733 0.005525398149150276 -0.4338199633593254 77 62 40
-0.1850142411239165 0.0054169961162817415 -0.43548435499892335 65 50 29
-0.18521824267322504 0.0052003478855935925 -0.4371079844513642 75 60 40
-0.1852318083106154 0.006912805343004119 -0.439493199024723 71 56 38
-0.18545041708533605 0.006554387645126225 -0.4410665890422781 67 52 33
-0.18577576441774485 0.0051127858561089146 -0.44221057097979793 68 53 34
-0.18603560746857514 0.004334924226634451 -0.443616759822351 75 60 41
-0.18623162293174544 0.004207204735662967 -0.44528291642375495 83 68 50
-0.18645974738010432 0.003753446760130147 -0.44681964026714677 53 41 22
-0.186737759345584 0.002790066373341893 -0.44815123188581846 77 65 49
-0.18709291065915268 0.001035098587235439 -0.4491609191024736 49 38 27
-0.18736101838996116 0.0001697350092118577 -0.4505290697961769 29 18 10
-0.18747927863357106 0.0008445883536200016 -0.4525258533198123 33 22 13
-0.18772410414192559 0.00022027030770271905 -0.4539939680256536 39 29 18
-0.1879689509887777 -0.0004041865685404378 -0.45546209936847193 41 32 21
-0.18787343979007518 0.0024904735796128785 -0.45838541481327033 36 27 18
-0.18828823243338563 0.0001122528808655543 -0.45913141281430025 32 23 14
-0.18819657041773458 0.0029830631314236578 -0.4620593029223598 34 24 15
-0.18806049629280375 0.006328336535537493 -0.46519720651123714 35 26 17
-0.18805446923376296 0.008333801444994765 -0.4677854398863215 52 43 34
-0.18775774615586277 0.03556742052657058 -0.5009217634008748 22 17 13
-0.18807443065502705 0.034266367715249046 -0.5021700110986926 19 15 12
-0.18820231360491865 0.03498112654448168 -0.5043094812431317 16 12 10
-0.1887701159995223 0.030989712215302667 -0.5043602075295377 15 11 10
-0.18917586442479112 0.028724507593241355 -0.5051705936316409 14 11 9
-0.18896107121392453 0.03312461463714256 -0.5089627638449128 12 11 7
-0.18930171863275477 0.03156124222876286 -0.5100893639376881 13 12 8
-0.18942065334937003 0.032387272791315674 -0.5122918202436152 12 11 7
-0.18971899088514224 0.03127917214603762 -0.513622801310719 13 10 6
-0.1900170738663921 0.030172152927256002 -0.5149528260027993 17 12 8
-0.19007355247742663 0.03168620414667103 -0.517478037373423 22 17 14
-0.1904668568999519 0.02954524255046123 -0.5183357968912102 19 15 11
-0.1906360594432016 0.029840831636113563 -0.5203092259536379 17 13 9
-0.19088339430842652 0.02928707659102084 -0.5218938793833136 21 15 10
-0.20084388168807443 -0.06769656357558128 -0.4872237527936248 109 94 71
-0.20114531566594118 -0.06903455936903202 -0.48828054773447804 124 110 82
-0.2014683062143316 -0.07061463799746072 -0.48921985972621956 106 96 67
-0.20174900028760084 -0.07172836584499682 -0.4903782882836126 96 85 57
-0.20198192023264386 -0.0723118800804013 -0.4917887830584998 106 91 65
-0.20250714789510177 -0.07615835887116783 -0.491632165497497 109 93 67
-0.20284279731340532 -0.07789741511693164 -0.49248030996159853 119 103 72
-0.20312084477451778 -0.07899541927537523 -0.49363470299172985 105 91 60
-0.203386691516879 -0.07995837170795063 -0.49485300005257793 92 78 51
-0.20376810740849566 -0.08222354436739183 -0.49543569094987433 108 93 68
-0.20422287508452222 -0.08532288602546374 -0.4956048750828642 83 69 43
-0.2044053645300899 -0.08535521209653286 -0.49727023361723005 80 66 40
-0.20461750135184653 -0.08572089755259459 -0.4987734660630937 95 80 55
-0.20485965397383907 -0.08642621560028113 -0.5001097480487997 95 81 56
-0.20503087544699622 -0.08632518648901685 -0.5018455032757985 76 63 41
-0.20526331619712374 -0.08691889153512243 -0.5032380742782264 89 76 58
-0.2054476362661843 -0.08696289643733325 -0.5049051652217934 71 59 44
-0.205689418060867 -0.08766218380777466 -0.5062459292582157 55 43 30
-0.2059168402054271 -0.08819712658477788 -0.5076690201077725 52 36 24
-0.20621827357682657 -0.08958248027708475 -0.5086633576536563 56 40 26
-0.20632722606948972 -0.0887538599680602 -0.5107758017084288 49 33 18
-0.20669401100590223 -0.09089553103733553 -0.5113844197643033 54 36 23
-0.2068970875446899 -0.09114981716621233 -0.5129497579166851 58 41 25
-0.20702818246559118 -0.09056796591912995 -0.5149440224731731 69 51 31
-0.2072172203143193 -0.0906541863295186 -0.5165995985398912 76 58 36
-0.20766647129943896 -0.0937682742119584 -0.5166977037700813 126 109 85
-0.20782864901700351 -0.09354303315855715 -0.518512615616901 110 93 70
-0.20800168611458908 -0.09344111945580928 -0.5202665304841252 64 45 27
-0.20818212238021186 -0.09342278195801824 -0.5219794834991585 70 51 34
-0.20841046549116043 -0.09396444984476682 -0.5234023254962946 87 71 51
-0.20865233392667124 -0.09466504237872993 -0.5247421792941156 73 58 36
-0.20892430667625825 -0.09572125818521283 -0.5258948238657084 68 55 31
-0.20918108427886525 -0.09659974401857539 -0.5271396270629889 107 96 71
-0.20952202147490062 -0.09847697884139033 -0.5278550432402924 143 132 104
-0.2098812504328872 -0.1005772118850242 -0.5284475871206882 96 82 57
-0.21019146900392305 -0.10210061504813561 -0.5293421003244619 53 39 18
-0.210074259296621 -0.09852731196326539 -0.5329572699781274 52 36 17
-0.21019085435620397 -0.09773148174928259 -0.5350980028054169 60 42 21
-0.21037762134057547 -0.09777044962253169 -0.5367946377730384 72 51 28
-0.2105188854700961 -0.09726002150377093 -0.538789892813534 87 65 42
-0.21080586860829303 -0.09849937220388769 -0.5398415219696528 90 68 44
-0.211026709131445 -0.09894317593122659 -0.5413231996587414 87 66 38
-0.21123183307680118 -0.09919602336565429 -0.5429095974933821 96 75 44
-0.21142290733290028 -0.0992767950900755 -0.5445914183451538 95 76 47
-0.21168896116552446 -0.10026649937950405 -0.5457763754837606 104 84 58
-0.21181012590854997 -0.09949259087135069 -0.5479309691504589 89 71 43
-0.21192654300906205 -0.09865416036859521 -0.5501262141639647 103 83 53
-0.21204451038026922 -0.09782783558544532 -0.5523200047136099 111 91 60
-0.2121111013605765 -0.09636424035430624 -0.5548733243346373 123 103 71
-0.2122026878027839 -0.0951981821103434 -0.5572682184925126 130 110 77
