ply
format ascii 1.0
element vertex 863
property float x
property float y
property float z
property float nx
property float ny
property float nz
property uchar diffuse_red
property uchar diffuse_green
property uchar diffuse_blue
property uchar class
property uchar detection
end_header
-0.0124 0.0149 -0.3805 0.363 0.890 -0.276 81 74 64 0 0
-0.0003 0.0548 -0.6097 -0.951 0.304 0.046 212 214 216 0 0
0.0067 0.0972 -0.7128 -0.356 0.529 0.770 27 26 25 0 0
0.0102 0.1160 -0.7679 0.175 0.861 -0.478 75 64 45 0 0
0.0102 0.1138 -0.7716 0.165 0.861 -0.480 77 66 48 0 0
0.0104 0.1085 -0.7840 0.263 0.691 0.674 45 34 17 0 0
0.0120 0.1245 -0.7985 0.282 0.891 0.357 72 59 33 0 0
0.0121 0.1251 -0.8001 0.282 0.891 0.357 72 59 36 0 0
0.0126 0.1273 -0.8067 0.270 0.908 0.322 59 42 24 0 0
0.0129 0.1272 -0.8152 0.102 0.911 0.398 72 56 37 0 0
0.0130 0.1274 -0.8171 0.224 0.905 0.361 85 68 41 0 0
0.0131 0.1282 -0.8185 0.203 0.927 0.315 143 124 88 0 0
0.0132 0.1286 -0.8203 0.216 0.941 0.261 141 121 80 0 0
0.0144 0.1393 -0.8325 -0.007 0.876 0.483 87 74 43 0 0
0.0145 0.1403 -0.8339 0.058 0.835 0.547 107 94 61 0 0
0.0164 0.1454 -0.8703 0.364 0.522 0.771 145 145 145 0 0
-0.0212 -0.0203 -0.1846 -0.422 0.495 0.760 85 73 58 0 0
-0.0175 0.0069 -0.2320 -0.261 0.714 0.650 88 74 47 0 0
-0.0174 0.0069 -0.2334 -0.268 0.877 0.399 68 56 34 0 0
-0.0173 0.0080 -0.2361 -0.183 0.939 0.292 103 87 62 0 0
-0.0172 0.0087 -0.2375 -0.208 0.948 0.242 169 158 124 0 0
-0.0172 -0.0041 -0.2562 -0.413 0.891 0.190 19 16 12 0 0
-0.0171 -0.0064 -0.2612 -0.398 0.908 0.127 27 21 15 0 0
-0.0152 -0.0088 -0.3107 -0.605 0.773 0.189 9 7 8 0 0
-0.0151 -0.0079 -0.3121 -0.584 0.680 0.443 8 6 7 0 0
-0.0150 -0.0073 -0.3135 -0.475 0.688 0.549 9 7 8 0 0
-0.0149 -0.0062 -0.3148 -0.405 0.625 0.668 9 7 8 0 0
-0.0149 -0.0079 -0.3168 0.298 0.881 0.367 10 8 9 0 0
-0.0145 -0.0044 -0.3222 0.783 0.330 0.527 8 6 7 0 0
-0.0137 0.0011 -0.3317 0.907 0.354 0.227 44 42 43 0 0
-0.0129 0.0060 -0.3430 0.553 0.353 0.754 61 58 55 0 0
-0.0127 0.0075 -0.3473 0.684 0.724 0.088 52 46 45 0 0
-0.0125 0.0083 -0.3487 0.721 0.495 0.485 44 39 38 0 0
-0.0121 0.0121 -0.3523 0.680 0.346 0.646 51 44 41 0 0
-0.0118 0.0158 -0.3544 0.587 0.271 0.763 59 54 50 0 0
-0.0118 0.0154 -0.3561 0.603 0.516 0.609 67 62 59 0 0
-0.0117 0.0163 -0.3574 0.697 0.554 0.456 71 66 63 0 0
0.0014 0.0594 -0.6050 -0.855 0.518 0.028 131 128 128 0 0
0.0087 0.1016 -0.7136 -0.414 0.715 0.564 33 31 28 0 0
0.0088 0.1023 -0.7151 -0.166 0.462 0.871 25 21 18 0 0
0.0100 0.1185 -0.7194 0.015 0.125 0.992 62 57 52 0 0
0.0143 0.1253 -0.8123 0.192 0.809 0.556 63 46 25 0 0
0.0146 0.1268 -0.8154 -0.105 0.849 0.518 94 78 53 0 0
0.0147 0.1273 -0.8171 0.136 0.926 0.353 105 88 59 0 0
0.0161 0.1385 -0.8331 0.305 0.860 0.410 106 93 64 0 0
0.0162 0.1392 -0.8346 0.305 0.860 0.410 90 77 45 0 0
0.0163 0.1400 -0.8361 0.278 0.861 0.425 107 94 60 0 0
0.0164 0.1407 -0.8376 0.278 0.861 0.425 107 94 60 0 0
0.0180 0.1448 -0.8707 0.364 0.522 0.771 150 150 150 0 0
-0.0202 -0.0235 -0.1778 -0.343 0.557 0.757 165 149 107 0 0
-0.0201 -0.0218 -0.1790 -0.343 0.557 0.757 157 141 104 0 0
-0.0145 -0.0019 -0.2812 -0.374 0.762 -0.528 16 15 11 0 0
-0.0145 -0.0036 -0.2847 -0.014 0.988 0.151 21 20 18 0 0
-0.0134 -0.0063 -0.3147 -0.156 0.708 0.689 10 8 9 0 0
-0.0135 -0.0102 -0.3173 0.704 0.697 0.136 11 9 10 0 0
-0.0113 0.0035 -0.3484 0.739 0.327 0.589 59 54 50 0 0
-0.0106 0.0116 -0.3540 0.620 0.408 0.670 62 58 53 0 0
-0.0104 0.0132 -0.3551 0.620 0.408 0.670 62 59 54 0 0
0.0111 0.1103 -0.7172 -0.406 0.357 0.841 54 49 47 0 0
0.0148 0.1197 -0.7915 0.201 0.813 0.546 73 57 35 0 0
0.0160 0.1250 -0.8124 0.192 0.809 0.556 106 90 63 0 0
0.0161 0.1262 -0.8135 0.135 0.891 0.434 125 110 80 0 0
0.0162 0.1269 -0.8151 -0.039 0.795 0.605 132 117 86 0 0
0.0163 0.1270 -0.8171 0.027 0.938 0.346 121 104 75 0 0
0.0169 0.1279 -0.8291 0.195 0.889 0.415 95 81 53 0 0
0.0170 0.1294 -0.8300 0.175 0.839 0.516 134 120 91 0 0
0.0176 0.1377 -0.8315 0.323 0.925 0.203 96 81 55 0 0
0.0177 0.1381 -0.8332 0.078 0.931 0.358 88 74 48 0 0
0.0178 0.1386 -0.8350 0.243 0.859 0.450 89 76 48 0 0
0.0179 0.1393 -0.8364 0.243 0.859 0.450 106 92 62 0 0
0.0181 0.1401 -0.8379 0.305 0.860 0.410 103 89 59 0 0
0.0197 0.1442 -0.8710 0.265 0.490 0.831 154 154 153 0 0
-0.0203 -0.0325 -0.1549 -0.037 0.647 0.762 150 137 119 0 0
-0.0189 -0.0221 -0.1734 -0.072 0.981 0.178 101 85 62 0 0
-0.0135 -0.0002 -0.2672 -0.365 0.743 0.561 106 97 81 0 0
-0.0128 0.0060 -0.2734 -0.050 0.878 0.477 59 53 39 0 0
-0.0129 -0.0039 -0.2847 -0.128 0.957 -0.262 22 21 19 0 0
-0.0128 -0.0043 -0.2878 0.142 0.990 -0.017 10 9 7 0 0
-0.0122 -0.0082 -0.3073 -0.528 0.820 0.220 27 23 22 0 0
-0.0121 -0.0076 -0.3087 -0.501 0.778 0.378 27 23 23 0 0
-0.0077 0.0067 -0.3911 0.373 0.776 -0.509 118 109 91 0 0
0.0139 0.1283 -0.7199 0.317 0.740 0.593 58 46 43 0 0
0.0141 0.1292 -0.7212 0.314 0.922 0.226 55 44 37 0 0
0.0146 0.1303 -0.7323 0.499 0.866 0.005 98 80 51 0 0
0.0149 0.1277 -0.7442 0.332 0.896 -0.295 143 127 90 0 0
0.0153 0.1071 -0.7825 0.099 0.910 0.403 49 36 19 0 0
0.0161 0.1145 -0.7892 0.054 0.921 0.386 71 59 34 0 0
0.0178 0.1254 -0.8140 0.345 0.865 0.365 125 112 77 0 0
0.0179 0.1268 -0.8149 0.012 0.790 0.614 127 113 81 0 0
0.0188 0.1340 -0.8258 0.365 0.833 0.416 113 101 73 0 0
0.0191 0.1356 -0.8288 0.413 0.882 0.229 87 74 45 0 0
0.0192 0.1360 -0.8306 0.413 0.882 0.229 102 89 65 0 0
0.0195 0.1383 -0.8350 0.449 0.716 0.534 75 61 36 0 0
-0.0197 -0.0423 -0.1474 0.370 0.916 0.156 180 177 179 0 0
-0.0191 -0.0348 -0.1508 -0.358 0.843 0.402 178 177 172 0 0
-0.0183 -0.0274 -0.1585 -0.164 0.609 0.776 118 106 81 0 0
-0.0174 -0.0226 -0.1734 0.347 0.914 0.209 115 101 76 0 0
-0.0131 0.0079 -0.2287 -0.032 0.997 0.069 103 84 56 0 0
-0.0128 0.0089 -0.2343 0.254 0.955 0.154 109 92 68 0 0
-0.0127 0.0092 -0.2357 -0.121 0.721 0.682 102 87 61 0 0
-0.0124 0.0077 -0.2448 -0.388 0.907 -0.160 58 46 30 0 0
-0.0118 0.0015 -0.2683 -0.461 0.677 0.574 103 94 79 0 0
-0.0112 0.0066 -0.2746 -0.030 0.891 0.453 75 66 56 0 0
-0.0110 -0.0065 -0.2975 -0.450 0.892 0.025 19 16 15 0 0
-0.0106 -0.0108 -0.3142 -0.075 0.924 0.374 9 7 8 0 0
-0.0101 -0.0100 -0.3234 0.852 0.485 0.199 10 9 9 0 0
-0.0062 0.0050 -0.3916 0.896 0.443 0.024 100 90 72 0 0
0.0156 0.1281 -0.7199 0.137 0.787 0.602 76 63 59 0 0
0.0157 0.1287 -0.7214 0.171 0.970 0.172 52 38 30 0 0
0.0163 0.1291 -0.7350 0.365 0.930 0.035 112 93 62 0 0
0.0177 0.1144 -0.7891 0.054 0.921 0.386 72 57 33 0 0
0.0179 0.1159 -0.7900 0.284 0.826 0.487 76 60 41 0 0
0.0195 0.1252 -0.8140 0.369 0.834 0.411 103 90 58 0 0
0.0205 0.1333 -0.8263 0.224 0.831 0.509 104 91 65 0 0
0.0206 0.1345 -0.8274 0.237 0.947 0.215 102 88 61 0 0
0.0207 0.1345 -0.8295 0.329 0.864 0.380 92 78 49 0 0
-0.0180 -0.0380 -0.1469 0.197 0.974 -0.113 179 177 179 0 0
-0.0174 -0.0324 -0.1533 0.010 0.904 0.428 193 179 140 0 0
-0.0173 -0.0322 -0.1547 0.104 0.951 0.293 217 200 160 0 0
-0.0172 -0.0312 -0.1560 0.013 0.656 0.755 167 150 112 0 0
-0.0169 -0.0276 -0.1584 -0.050 0.582 0.812 142 131 99 0 0
-0.0165 -0.0239 -0.1622 -0.036 0.789 0.614 164 150 105 0 0
-0.0158 -0.0209 -0.1745 -0.314 0.885 0.345 127 112 86 0 0
-0.0158 -0.0229 -0.1762 -0.018 0.964 0.264 145 129 99 0 0
-0.0156 -0.0206 -0.1773 -0.144 0.871 0.469 162 146 109 0 0
-0.0155 -0.0198 -0.1786 0.211 0.772 0.599 176 160 120 0 0
-0.0113 0.0093 -0.2356 0.039 0.685 0.728 102 89 60 0 0
-0.0108 0.0074 -0.2477 -0.220 0.935 -0.279 67 55 39 0 0
-0.0096 0.0078 -0.2758 0.158 0.822 0.547 91 83 71 0 0
-0.0097 -0.0035 -0.2891 -0.516 0.856 0.012 9 8 6 0 0
-0.0087 -0.0127 -0.3225 0.267 0.958 0.102 9 7 8 0 0
-0.0087 -0.0125 -0.3240 0.267 0.958 0.102 18 17 15 0 0
0.0175 0.1289 -0.7251 0.351 0.923 0.155 103 90 60 0 0
0.0183 0.1171 -0.7600 0.455 0.828 -0.327 77 64 37 0 0
0.0188 0.1095 -0.7823 0.369 0.747 0.553 76 64 43 0 0
0.0193 0.1132 -0.7878 0.124 0.818 0.562 91 77 52 0 0
0.0194 0.1143 -0.7890 0.054 0.921 0.386 59 44 23 0 0
0.0195 0.1149 -0.7906 0.054 0.921 0.386 64 48 30 0 0
0.0209 0.1247 -0.8079 0.282 0.810 0.515 93 75 53 0 0
0.0210 0.1255 -0.8093 0.282 0.810 0.515 80 64 40 0 0
0.0215 0.1259 -0.8217 0.299 0.844 0.445 92 80 57 0 0
0.0217 0.1295 -0.8208 0.014 0.732 0.681 72 60 35 0 0
0.0222 0.1329 -0.8265 0.261 0.810 0.525 94 81 56 0 0
0.0224 0.1340 -0.8298 0.329 0.864 0.380 92 78 48 0 0
0.0238 0.1429 -0.8499 0.016 0.978 0.208 130 115 75 0 0
-0.0159 -0.0333 -0.1534 0.466 0.812 0.351 202 183 142 0 0
-0.0158 -0.0323 -0.1561 0.353 0.740 0.573 169 149 107 0 0
-0.0156 -0.0300 -0.1572 0.153 0.541 0.827 157 142 107 0 0
-0.0154 -0.0282 -0.1584 0.153 0.541 0.827 153 142 112 0 0
-0.0150 -0.0242 -0.1622 0.118 0.732 0.670 165 148 113 0 0
-0.0149 -0.0235 -0.1635 0.145 0.898 0.415 151 135 99 0 0
-0.0116 0.0025 -0.2037 -0.271 0.748 0.605 159 145 106 0 0
-0.0115 0.0031 -0.2051 -0.374 0.769 0.519 136 121 86 0 0
-0.0115 0.0030 -0.2065 -0.555 0.666 0.499 110 95 68 0 0
-0.0107 0.0089 -0.2155 0.151 0.607 0.780 208 196 149 0 0
-0.0106 0.0101 -0.2167 0.148 0.916 0.374 203 191 143 0 0
-0.0105 0.0107 -0.2180 0.298 0.943 0.146 197 185 139 0 0
-0.0096 0.0113 -0.2366 -0.286 0.704 0.650 88 74 47 0 0
-0.0091 0.0072 -0.2535 -0.596 0.781 0.184 52 39 29 0 0
-0.0072 -0.0003 -0.3051 -0.848 0.340 0.406 20 16 15 0 0
-0.0071 0.0012 -0.3063 -0.831 0.366 0.419 19 15 14 0 0
-0.0072 -0.0048 -0.3109 0.440 0.881 0.177 11 9 10 0 0
-0.0072 -0.0128 -0.3224 0.329 0.942 -0.070 13 12 10 0 0
-0.0068 -0.0154 -0.3343 0.481 0.658 -0.580 30 25 25 0 0
-0.0068 -0.0159 -0.3360 0.498 0.667 -0.555 33 30 29 0 0
-0.0055 -0.0081 -0.3547 0.497 0.572 0.653 89 86 85 0 0
-0.0053 -0.0065 -0.3558 0.723 0.435 0.537 82 79 78 0 0
-0.0052 -0.0052 -0.3571 0.786 0.412 0.461 77 75 74 0 0
0.0095 0.0740 -0.5833 -0.169 0.975 -0.142 27 22 19 0 0
0.0096 0.0735 -0.5854 0.003 0.977 -0.215 27 22 19 0 0
0.0096 0.0716 -0.5883 -0.161 0.986 0.036 26 21 18 0 0
0.0184 0.1249 -0.7159 0.155 0.399 0.904 44 43 40 0 0
0.0186 0.1265 -0.7168 0.246 0.435 0.866 46 42 40 0 0
0.0187 0.1281 -0.7176 0.165 0.728 0.665 42 36 28 0 0
0.0194 0.1271 -0.7341 0.346 0.937 -0.048 118 105 75 0 0
0.0205 0.1090 -0.7826 0.309 0.722 0.619 75 64 37 0 0
0.0206 0.1101 -0.7838 0.135 0.653 0.745 86 75 45 0 0
0.0207 0.1114 -0.7849 0.018 0.646 0.763 107 95 64 0 0
0.0208 0.1120 -0.7865 0.124 0.818 0.562 79 65 38 0 0
0.0210 0.1129 -0.7878 0.124 0.818 0.562 73 59 35 0 0
0.0214 0.1159 -0.7938 0.120 0.976 0.179 76 60 38 0 0
0.0215 0.1158 -0.7960 0.056 0.703 0.709 67 49 31 0 0
0.0216 0.1171 -0.7970 0.436 0.692 0.576 70 52 29 0 0
0.0222 0.1222 -0.8034 -0.130 0.917 0.378 84 64 39 0 0
0.0233 0.1274 -0.8224 0.198 0.896 0.398 71 56 32 0 0
0.0235 0.1281 -0.8240 0.198 0.896 0.398 93 80 54 0 0
0.0239 0.1330 -0.8283 0.126 0.961 0.247 85 69 42 0 0
0.0240 0.1335 -0.8300 0.126 0.961 0.247 103 88 57 0 0
0.0241 0.1334 -0.8322 0.021 0.799 0.601 103 88 59 0 0
0.0244 0.1357 -0.8345 0.183 0.771 0.610 102 89 62 0 0
0.0245 0.1364 -0.8361 0.132 0.816 0.563 124 110 82 0 0
0.0246 0.1375 -0.8373 0.217 0.738 0.639 107 93 65 0 0
0.0247 0.1382 -0.8388 0.229 0.901 0.367 97 83 55 0 0
0.0248 0.1389 -0.8404 0.229 0.901 0.367 81 67 40 0 0
0.0249 0.1393 -0.8421 0.187 0.949 0.253 110 96 69 0 0
0.0252 0.1404 -0.8476 0.259 0.941 0.217 120 106 70 0 0
0.0254 0.1416 -0.8487 0.027 0.963 0.269 136 122 80 0 0
0.0255 0.1425 -0.8501 -0.098 0.909 0.405 141 125 79 0 0
0.0256 0.1438 -0.8511 0.136 0.647 0.750 150 133 86 0 0
-0.0102 0.0016 -0.2024 -0.451 0.810 0.374 128 114 83 0 0
-0.0101 0.0029 -0.2036 -0.271 0.748 0.605 174 158 118 0 0
-0.0092 0.0100 -0.2152 0.123 0.908 0.399 192 179 136 0 0
-0.0091 0.0102 -0.2166 0.219 0.953 0.210 190 178 132 0 0
-0.0075 0.0003 -0.2653 -0.290 0.950 0.115 38 27 20 0 0
-0.0068 0.0069 -0.2714 -0.024 0.669 0.743 143 131 110 0 0
-0.0060 -0.0012 -0.3006 -0.811 0.559 0.172 11 8 7 0 0
-0.0053 -0.0169 -0.3346 0.480 0.658 -0.581 46 41 39 0 0
-0.0053 -0.0185 -0.3367 0.613 0.605 -0.508 54 49 48 0 0
-0.0050 -0.0198 -0.3451 -0.531 0.482 0.697 131 130 131 0 0
-0.0047 -0.0157 -0.3472 -0.734 0.266 0.624 171 170 174 0 0
-0.0045 -0.0137 -0.3482 -0.604 0.348 0.717 174 174 178 0 0
-0.0044 -0.0126 -0.3495 -0.840 0.422 0.340 173 173 176 0 0
-0.0043 -0.0118 -0.3509 -0.875 0.434 0.213 172 172 174 0 0
-0.0042 -0.0110 -0.3522 -0.859 0.457 0.231 169 169 171 0 0
-0.0041 -0.0101 -0.3536 -0.216 0.777 0.592 163 163 165 0 0
-0.0039 -0.0086 -0.3548 0.409 0.706 0.578 152 152 154 0 0
-0.0038 -0.0079 -0.3562 0.739 0.465 0.488 137 137 139 0 0
-0.0037 -0.0067 -0.3574 0.739 0.465 0.488 127 127 129 0 0
-0.0036 -0.0052 -0.3586 0.664 0.568 0.487 126 126 128 0 0
0.0113 0.0732 -0.5873 -0.539 0.783 0.311 26 21 17 0 0
0.0214 0.1222 -0.7477 0.280 0.915 -0.290 155 141 101 0 0
0.0224 0.1112 -0.7848 0.140 0.510 0.849 115 102 74 0 0
0.0225 0.1110 -0.7870 0.243 0.782 0.573 71 58 33 0 0
0.0226 0.1128 -0.7878 0.018 0.841 0.540 71 58 33 0 0
0.0228 0.1141 -0.7888 -0.011 0.978 0.206 79 65 43 0 0
0.0228 0.1135 -0.7913 0.280 0.735 0.618 72 56 36 0 0
0.0236 0.1190 -0.8016 0.209 0.896 0.391 111 98 68 0 0
0.0237 0.1200 -0.8029 0.129 0.881 0.455 92 76 46 0 0
0.0238 0.1207 -0.8044 0.129 0.881 0.455 83 64 39 0 0
0.0249 0.1256 -0.8216 -0.115 0.897 0.426 71 55 32 0 0
0.0251 0.1267 -0.8249 0.355 0.907 0.225 111 98 74 0 0
0.0252 0.1271 -0.8267 0.355 0.907 0.225 97 85 59 0 0
0.0257 0.1322 -0.8310 -0.039 0.765 0.643 103 87 58 0 0
0.0258 0.1332 -0.8322 -0.039 0.765 0.643 103 87 57 0 0
0.0262 0.1363 -0.8359 -0.107 0.766 0.634 99 85 56 0 0
0.0263 0.1373 -0.8372 -0.165 0.768 0.619 106 92 63 0 0
0.0264 0.1380 -0.8387 -0.056 0.978 0.199 77 63 34 0 0
0.0266 0.1390 -0.8422 -0.043 0.928 0.371 104 89 60 0 0
0.0267 0.1380 -0.8452 0.453 0.764 0.459 115 100 71 0 0
0.0269 0.1398 -0.8479 0.177 0.884 0.434 131 117 77 0 0
0.0270 0.1404 -0.8495 0.443 0.717 0.538 141 125 80 0 0
0.0271 0.1423 -0.8501 0.345 0.771 0.536 137 119 73 0 0
0.0273 0.1432 -0.8514 0.302 0.647 0.700 151 135 89 0 0
-0.0087 0.0024 -0.2022 -0.451 0.810 0.374 123 107 76 0 0
-0.0086 0.0035 -0.2049 -0.453 0.572 0.684 218 200 160 0 0
-0.0084 0.0047 -0.2061 -0.496 0.620 0.608 212 194 153 0 0
-0.0082 0.0069 -0.2086 -0.479 0.762 0.435 108 91 62 0 0
-0.0078 0.0093 -0.2153 -0.007 0.953 0.303 201 189 148 0 0
-0.0071 0.0129 -0.2247 -0.289 0.844 0.452 87 71 47 0 0
-0.0071 0.0118 -0.2263 -0.380 0.917 0.124 126 111 77 0 0
-0.0059 0.0011 -0.2666 0.178 0.971 0.157 45 34 25 0 0
-0.0038 -0.0204 -0.3371 0.602 0.637 -0.481 100 97 93 0 0
-0.0038 -0.0219 -0.3391 0.712 0.585 -0.388 109 106 104 0 0
-0.0038 -0.0226 -0.3409 0.315 0.933 -0.173 122 120 120 0 0
-0.0037 -0.0225 -0.3425 0.194 0.926 0.325 146 144 145 0 0
-0.0023 -0.0088 -0.3564 0.581 0.610 0.539 177 178 183 0 0
-0.0022 -0.0077 -0.3577 0.415 0.678 0.607 176 177 181 0 0
-0.0020 -0.0066 -0.3589 0.560 0.653 0.510 176 177 181 0 0
-0.0019 -0.0056 -0.3603 0.560 0.653 0.510 176 176 179 0 0
-0.0018 -0.0045 -0.3616 0.306 0.856 0.416 176 176 179 0 0
0.0133 0.0783 -0.5898 -0.265 0.923 0.280 27 22 18 0 0
0.0211 0.1264 -0.7009 -0.329 0.944 -0.027 45 36 29 0 0
0.0212 0.1275 -0.7021 -0.156 0.973 -0.171 40 31 23 0 0
0.0243 0.1129 -0.7875 0.061 0.810 0.583 71 59 35 0 0
0.0244 0.1135 -0.7891 0.279 0.826 0.490 68 55 31 0 0
0.0246 0.1140 -0.7928 0.375 0.867 0.329 71 56 31 0 0
0.0255 0.1200 -0.8049 0.139 0.887 0.439 84 65 40 0 0
0.0271 0.1304 -0.8259 0.049 0.845 0.533 76 65 39 0 0
0.0276 0.1340 -0.8335 0.084 0.884 0.461 122 107 77 0 0
0.0277 0.1351 -0.8347 0.113 0.778 0.619 95 81 52 0 0
0.0280 0.1338 -0.8422 -0.119 0.967 0.225 95 81 52 0 0
0.0288 0.1417 -0.8504 0.345 0.771 0.536 139 120 80 0 0
0.0289 0.1426 -0.8517 0.345 0.771 0.536 153 135 93 0 0
0.0290 0.1433 -0.8533 0.361 0.831 0.424 128 116 77 0 0
0.0291 0.1440 -0.8548 0.427 0.869 0.251 101 93 65 0 0
-0.0121 -0.0378 -0.1467 -0.066 0.940 0.335 178 178 178 0 0
-0.0114 -0.0331 -0.1560 0.192 0.931 0.311 145 129 100 0 0
-0.0091 -0.0142 -0.1819 -0.007 0.917 0.399 138 125 89 0 0
-0.0090 -0.0136 -0.1832 -0.007 0.917 0.399 127 113 87 0 0
-0.0072 0.0033 -0.2034 -0.399 0.647 0.650 145 130 96 0 0
-0.0071 0.0044 -0.2047 -0.496 0.620 0.608 195 181 145 0 0
-0.0069 0.0057 -0.2059 -0.496 0.620 0.608 228 214 172 0 0
-0.0063 0.0101 -0.2151 0.100 0.990 0.096 161 146 112 0 0
-0.0062 0.0103 -0.2165 0.054 0.997 0.052 163 149 109 0 0
-0.0061 0.0104 -0.2179 0.115 0.980 0.164 184 170 128 0 0
-0.0060 0.0104 -0.2193 0.019 0.959 0.284 144 128 92 0 0
-0.0055 0.0141 -0.2259 -0.289 0.844 0.452 159 145 105 0 0
-0.0054 0.0136 -0.2302 -0.073 0.934 0.349 90 74 51 0 0
-0.0051 0.0155 -0.2328 -0.103 0.666 0.739 139 124 89 0 0
-0.0042 0.0112 -0.2584 -0.449 0.883 0.139 79 69 51 0 0
0.0226 0.1282 -0.6976 -0.180 0.978 -0.101 64 54 45 0 0
0.0245 0.1216 -0.7458 0.322 0.905 -0.277 134 123 83 0 0
0.0269 0.1175 -0.8025 0.365 0.822 0.438 140 122 89 0 0
0.0272 0.1195 -0.8051 0.475 0.709 0.521 78 60 35 0 0
0.0280 0.1211 -0.8207 0.178 0.766 0.618 73 58 36 0 0
0.0283 0.1257 -0.8211 0.471 0.826 0.309 106 94 70 0 0
0.0283 0.1250 -0.8238 0.372 0.912 0.174 100 88 64 0 0
0.0292 0.1331 -0.8319 0.084 0.884 0.461 110 95 66 0 0
0.0293 0.1338 -0.8334 0.084 0.884 0.461 86 71 42 0 0
0.0294 0.1346 -0.8349 0.084 0.884 0.461 86 71 42 0 0
0.0297 0.1338 -0.8420 -0.002 0.935 0.356 104 90 60 0 0
0.0298 0.1344 -0.8437 0.024 0.950 0.310 98 83 51 0 0
0.0299 0.1344 -0.8458 -0.115 0.981 0.156 118 103 70 0 0
0.0300 0.1351 -0.8474 0.090 0.993 0.076 123 109 71 0 0
0.0312 0.1445 -0.8628 0.741 0.517 0.429 109 106 99 0 0
-0.0106 -0.0377 -0.1466 -0.066 0.940 0.335 178 178 178 0 0
-0.0101 -0.0356 -0.1534 0.210 0.883 0.421 202 186 143 0 0
-0.0100 -0.0346 -0.1547 0.147 0.791 0.594 191 175 130 0 0
-0.0099 -0.0337 -0.1560 0.147 0.791 0.594 147 129 98 0 0
-0.0064 0.0021 -0.1894 -0.358 0.850 0.387 145 128 89 0 0
-0.0056 0.0046 -0.2032 -0.262 0.781 0.567 128 113 80 0 0
-0.0046 0.0104 -0.2179 -0.064 0.996 -0.057 133 118 85 0 0
-0.0046 0.0104 -0.2193 -0.017 0.972 0.234 132 117 81 0 0
-0.0041 0.0144 -0.2257 -0.282 0.929 0.238 155 140 101 0 0
-0.0039 0.0139 -0.2301 0.131 0.907 0.400 118 102 77 0 0
-0.0038 0.0134 -0.2317 0.139 0.668 0.731 98 81 56 0 0
-0.0037 0.0146 -0.2329 0.139 0.668 0.731 117 101 70 0 0
-0.0025 0.0130 -0.2594 -0.714 0.688 -0.131 72 61 43 0 0
0.0239 0.1276 -0.6901 -0.228 0.969 0.097 55 45 34 0 0
0.0247 0.1275 -0.7076 -0.081 0.997 -0.005 77 69 57 0 0
0.0248 0.1274 -0.7096 -0.044 0.999 -0.013 62 54 43 0 0
0.0262 0.1208 -0.7462 0.364 0.889 -0.276 149 134 93 0 0
0.0262 0.1200 -0.7489 0.364 0.889 -0.276 159 142 103 0 0
0.0263 0.1191 -0.7516 0.585 0.802 -0.119 145 129 89 0 0
0.0272 0.1062 -0.7840 0.188 0.478 0.858 139 126 91 0 0
0.0286 0.1169 -0.8028 0.365 0.822 0.438 136 116 83 0 0
0.0289 0.1193 -0.8072 0.306 0.811 0.499 80 64 39 0 0
0.0292 0.1215 -0.8096 0.382 0.904 0.191 78 67 39 0 0
0.0293 0.1219 -0.8114 0.382 0.904 0.191 115 100 72 0 0
0.0296 0.1201 -0.8192 0.103 0.841 0.531 88 74 48 0 0
0.0297 0.1208 -0.8207 0.237 0.875 0.421 91 76 53 0 0
0.0308 0.1330 -0.8318 0.249 0.920 0.303 78 66 35 0 0
0.0309 0.1335 -0.8335 0.207 0.912 0.354 99 86 57 0 0
0.0312 0.1335 -0.8400 0.233 0.966 0.112 107 92 62 0 0
0.0314 0.1345 -0.8412 -0.106 0.974 0.199 111 95 65 0 0
0.0315 0.1349 -0.8431 -0.106 0.974 0.199 124 109 72 0 0
0.0330 0.1449 -0.8645 0.608 0.392 0.691 149 148 145 0 0
-0.0091 -0.0376 -0.1466 -0.066 0.940 0.335 178 178 178 0 0
-0.0086 -0.0350 -0.1547 0.256 0.812 0.525 187 171 131 0 0
-0.0073 -0.0160 -0.1610 -0.247 0.856 0.455 165 145 105 0 0
-0.0040 0.0073 -0.2041 -0.392 0.814 0.429 120 105 76 0 0
-0.0039 0.0074 -0.2055 -0.310 0.681 0.663 136 122 95 0 0
-0.0026 0.0148 -0.2256 -0.227 0.931 0.286 144 127 91 0 0
-0.0022 0.0153 -0.2327 -0.171 0.688 0.705 102 87 59 0 0
-0.0018 0.0194 -0.2377 0.099 0.987 0.125 102 87 58 0 0
-0.0013 0.0157 -0.2515 -0.796 0.600 -0.077 72 59 37 0 0
-0.0010 0.0151 -0.2575 -0.782 0.607 -0.141 63 51 31 0 0
-0.0010 0.0145 -0.2591 -0.698 0.714 -0.045 67 56 39 0 0
-0.0009 0.0130 -0.2623 -0.633 0.510 0.582 75 67 48 0 0
0.0240 0.1222 -0.6650 -0.697 0.712 -0.086 79 65 39 0 0
0.0241 0.1220 -0.6670 -0.697 0.712 -0.086 82 68 41 0 0
0.0256 0.1290 -0.6909 -0.036 0.995 0.097 102 93 76 0 0
0.0257 0.1292 -0.6927 -0.036 0.995 0.097 96 84 67 0 0
0.0263 0.1277 -0.7073 0.229 0.973 0.007 52 44 29 0 0
0.0264 0.1277 -0.7093 0.229 0.973 0.007 82 74 59 0 0
0.0279 0.1178 -0.7524 0.524 0.806 -0.274 145 131 89 0 0
0.0288 0.1054 -0.7845 0.159 0.734 0.660 121 106 68 0 0
0.0303 0.1163 -0.8031 0.365 0.822 0.438 140 123 86 0 0
0.0304 0.1172 -0.8045 0.401 0.808 0.431 129 113 81 0 0
0.0305 0.1181 -0.8058 0.367 0.863 0.348 112 98 69 0 0
0.0311 0.1190 -0.8178 0.099 0.851 0.515 93 78 52 0 0
0.0312 0.1197 -0.8193 0.237 0.875 0.421 90 76 49 0 0
0.0313 0.1204 -0.8210 0.281 0.929 0.241 96 85 58 0 0
0.0315 0.1223 -0.8215 0.380 0.853 0.359 90 81 54 0 0
-0.0076 -0.0376 -0.1465 -0.066 0.940 0.335 178 178 178 0 0
-0.0058 -0.0156 -0.1609 0.238 0.817 0.525 172 154 112 0 0
-0.0050 -0.0077 -0.1683 0.020 0.572 0.820 171 155 117 0 0
-0.0048 -0.0047 -0.1707 0.097 0.983 0.157 193 181 137 0 0
-0.0035 0.0047 -0.1861 -0.179 0.961 0.210 141 122 81 0 0
-0.0035 0.0050 -0.1875 -0.225 0.967 0.121 121 102 66 0 0
-0.0034 0.0036 -0.1905 0.285 0.935 0.209 93 77 51 0 0
-0.0033 0.0037 -0.1919 0.268 0.957 0.111 86 72 45 0 0
-0.0025 0.0079 -0.2039 -0.392 0.814 0.429 89 75 54 0 0
-0.0024 0.0080 -0.2053 -0.227 0.769 0.597 91 73 59 0 0
-0.0023 0.0091 -0.2066 -0.227 0.769 0.597 101 88 69 0 0
-0.0021 0.0109 -0.2091 -0.225 0.855 0.467 139 128 99 0 0
-0.0020 0.0115 -0.2104 -0.265 0.900 0.345 113 101 72 0 0
-0.0012 0.0149 -0.2241 -0.118 0.889 0.443 137 118 76 0 0
-0.0005 0.0179 -0.2350 0.312 0.937 0.156 116 101 67 0 0
-0.0003 0.0187 -0.2377 -0.087 0.877 0.473 111 96 62 0 0
-0.0002 0.0190 -0.2391 -0.258 0.956 0.142 107 92 59 0 0
0.0006 0.0149 -0.2619 -0.747 0.492 0.447 57 48 31 0 0
0.0181 0.0946 -0.5394 0.134 0.990 -0.031 41 33 28 0 0
0.0182 0.0945 -0.5412 -0.018 1.000 -0.011 61 54 48 0 0
0.0197 0.0956 -0.5706 -0.924 0.377 -0.066 20 15 12 0 0
0.0262 0.1271 -0.6730 -0.333 0.808 0.486 92 77 53 0 0
0.0271 0.1286 -0.6891 -0.171 0.985 0.039 105 92 69 0 0
0.0273 0.1272 -0.6958 0.176 0.983 -0.059 113 100 76 0 0
0.0279 0.1268 -0.7078 0.528 0.848 0.052 99 89 70 0 0
0.0299 0.0991 -0.7787 0.641 0.767 0.001 123 109 74 0 0
0.0300 0.0984 -0.7814 0.432 0.893 -0.126 87 73 42 0 0
0.0306 0.1080 -0.7844 0.115 0.818 0.563 189 175 137 0 0
0.0316 0.1131 -0.7991 0.313 0.779 0.543 111 96 63 0 0
0.0328 0.1176 -0.8188 0.397 0.804 0.444 84 71 47 0 0
0.0329 0.1184 -0.8203 0.397 0.804 0.444 82 68 44 0 0
0.0330 0.1191 -0.8218 0.397 0.804 0.444 89 77 51 0 0
0.0335 0.1236 -0.8266 0.091 0.623 0.777 81 69 44 0 0
0.0337 0.1274 -0.8276 0.633 0.716 0.293 99 86 56 0 0
-0.0043 -0.0143 -0.1607 -0.093 0.825 0.557 160 139 95 0 0
-0.0033 -0.0046 -0.1706 0.376 0.798 0.471 161 146 108 0 0
-0.0032 -0.0028 -0.1718 0.131 0.940 0.315 163 149 111 0 0
-0.0031 -0.0024 -0.1731 0.100 0.954 0.283 161 144 105 0 0
-0.0022 0.0049 -0.1833 -0.315 0.812 0.492 178 160 109 0 0
-0.0022 0.0042 -0.1848 -0.077 0.980 0.183 141 122 82 0 0
-0.0011 0.0073 -0.2026 -0.249 0.897 0.365 86 73 51 0 0
-0.0010 0.0081 -0.2038 -0.203 0.885 0.420 73 59 39 0 0
-0.0009 0.0088 -0.2052 -0.215 0.857 0.468 70 52 36 0 0
-0.0006 0.0112 -0.2090 -0.225 0.855 0.467 109 97 72 0 0
-0.0006 0.0106 -0.2105 0.098 0.977 0.190 96 83 56 0 0
-0.0004 0.0118 -0.2132 0.220 0.867 0.448 148 128 96 0 0
0.0001 0.0159 -0.2196 -0.430 0.702 0.568 171 155 115 0 0
0.0197 0.0941 -0.5413 0.089 0.996 0.030 52 45 39 0 0
0.0198 0.0941 -0.5430 0.089 0.996 0.030 46 39 33 0 0
0.0199 0.0942 -0.5447 0.040 0.999 -0.010 32 25 19 0 0
0.0203 0.0944 -0.5534 -0.376 0.921 -0.105 62 57 48 0 0
0.0204 0.0939 -0.5554 -0.513 0.858 0.006 67 60 51 0 0
0.0221 0.1054 -0.5776 -0.952 0.199 0.234 69 60 49 0 0
0.0278 0.1274 -0.6726 -0.423 0.699 0.576 107 93 65 0 0
0.0289 0.1271 -0.6958 0.175 0.984 0.010 128 113 83 0 0
0.0295 0.1258 -0.7083 0.537 0.844 -0.008 102 90 65 0 0
0.0317 0.0975 -0.7819 0.327 0.935 -0.141 78 64 31 0 0
0.0318 0.0988 -0.7830 0.191 0.981 -0.028 86 69 41 0 0
0.0326 0.1084 -0.7902 0.367 0.659 0.656 90 76 49 0 0
0.0347 0.1186 -0.8221 0.380 0.811 0.445 76 61 35 0 0
0.0356 0.1272 -0.8319 0.389 0.880 0.273 85 73 42 0 0
0.0366 0.1340 -0.8454 0.102 0.975 0.198 140 122 82 0 0
-0.0025 -0.0108 -0.1644 0.202 0.616 0.762 113 96 69 0 0
-0.0017 -0.0025 -0.1717 0.247 0.922 0.298 158 141 105 0 0
-0.0016 -0.0027 -0.1731 0.147 0.967 0.210 161 142 104 0 0
-0.0008 0.0050 -0.1818 -0.385 0.810 0.443 136 120 83 0 0
0.0003 0.0078 -0.2024 -0.238 0.889 0.390 91 77 54 0 0
0.0004 0.0084 -0.2037 -0.203 0.885 0.420 99 84 59 0 0
0.0005 0.0091 -0.2050 -0.215 0.857 0.468 91 74 50 0 0
0.0008 0.0109 -0.2090 0.133 0.718 0.683 125 110 83 0 0
0.0009 0.0111 -0.2104 0.243 0.830 0.503 94 77 50 0 0
0.0010 0.0118 -0.2117 0.070 0.969 0.236 118 100 73 0 0
0.0012 0.0129 -0.2143 0.221 0.786 0.577 179 160 120 0 0
0.0212 0.0938 -0.5396 0.025 0.997 -0.070 42 34 29 0 0
0.0213 0.0942 -0.5411 0.040 0.999 -0.010 38 31 26 0 0
0.0214 0.0933 -0.5451 0.179 0.951 0.253 22 16 10 0 0
0.0216 0.0944 -0.5462 0.120 0.797 0.591 17 11 8 0 0
0.0288 0.1313 -0.6566 -0.042 0.994 -0.105 105 90 72 0 0
0.0289 0.1310 -0.6587 -0.131 0.991 0.028 97 82 63 0 0
0.0290 0.1308 -0.6607 -0.042 0.994 -0.105 114 100 76 0 0
0.0295 0.1295 -0.6729 -0.107 0.964 0.244 94 79 52 0 0
0.0296 0.1299 -0.6745 -0.107 0.964 0.244 106 92 65 0 0
0.0297 0.1303 -0.6762 0.067 0.998 -0.002 120 106 79 0 0
0.0303 0.1283 -0.6890 -0.096 0.992 -0.081 141 124 93 0 0
0.0304 0.1281 -0.6910 -0.061 0.998 0.027 139 120 91 0 0
0.0308 0.1277 -0.7010 0.290 0.951 -0.105 101 87 56 0 0
0.0309 0.1245 -0.7052 0.217 0.972 -0.089 135 117 85 0 0
0.0332 0.0987 -0.7766 0.240 0.915 -0.325 142 127 86 0 0
0.0333 0.0981 -0.7792 0.248 0.969 -0.004 129 116 80 0 0
0.0334 0.0980 -0.7813 -0.025 1.000 -0.017 80 66 34 0 0
0.0335 0.0997 -0.7821 0.027 0.969 0.244 91 76 43 0 0
0.0339 0.1056 -0.7838 0.182 0.667 0.723 156 145 106 0 0
0.0342 0.1068 -0.7891 0.190 0.685 0.703 82 67 38 0 0
0.0343 0.1072 -0.7909 0.474 0.656 0.588 68 53 24 0 0
0.0349 0.1139 -0.7961 0.272 0.937 0.220 112 98 71 0 0
0.0350 0.1128 -0.7991 0.155 0.945 0.289 100 85 54 0 0
0.0351 0.1133 -0.8008 0.155 0.945 0.289 127 111 78 0 0
0.0352 0.1138 -0.8025 0.066 0.937 0.342 121 107 74 0 0
0.0353 0.1142 -0.8042 -0.176 0.917 0.359 116 102 73 0 0
0.0371 0.1258 -0.8286 0.392 0.848 0.358 78 65 37 0 0
0.0372 0.1264 -0.8302 0.392 0.848 0.358 76 64 36 0 0
0.0373 0.1263 -0.8325 0.341 0.876 0.341 87 76 46 0 0
0.0377 0.1296 -0.8382 0.230 0.608 0.760 84 70 39 0 0
0.0380 0.1308 -0.8415 0.470 0.768 0.436 127 111 75 0 0
0.0390 0.1256 -0.8678 0.231 0.968 0.097 51 45 33 0 0
0.0392 0.1261 -0.8717 -0.208 0.804 0.557 84 77 66 0 0
-0.0032 -0.0370 -0.1449 0.384 0.868 -0.316 178 178 178 0 0
-0.0015 -0.0151 -0.1593 0.249 0.901 0.355 160 138 96 0 0
-0.0014 -0.0146 -0.1606 0.211 0.885 0.415 155 131 90 0 0
-0.0011 -0.0123 -0.1631 0.387 0.738 0.553 92 72 44 0 0
-0.0010 -0.0112 -0.1644 0.315 0.688 0.654 115 98 73 0 0
-0.0006 -0.0072 -0.1681 0.265 0.887 0.377 185 167 129 0 0
-0.0002 -0.0027 -0.1731 -0.022 0.956 0.292 167 152 109 0 0
-0.0001 -0.0015 -0.1743 -0.414 0.784 0.464 156 141 103 0 0
0.0000 -0.0012 -0.1757 0.048 0.645 0.762 132 117 87 0 0
0.0001 -0.0000 -0.1769 -0.021 0.656 0.755 150 134 99 0 0
0.0009 0.0024 -0.1905 0.343 0.894 0.286 90 75 40 0 0
0.0010 0.0024 -0.1919 0.306 0.790 0.531 88 72 42 0 0
0.0011 0.0024 -0.1947 0.224 0.974 -0.018 62 47 30 0 0
0.0012 0.0018 -0.1962 0.198 0.972 0.130 72 57 37 0 0
0.0016 0.0055 -0.1999 -0.161 0.737 0.657 77 62 41 0 0
0.0017 0.0067 -0.2011 -0.161 0.737 0.657 77 62 41 0 0
0.0018 0.0081 -0.2023 -0.203 0.885 0.420 87 72 50 0 0
0.0019 0.0087 -0.2036 -0.203 0.885 0.420 105 91 64 0 0
0.0020 0.0086 -0.2051 0.070 0.894 0.443 108 93 64 0 0
0.0021 0.0103 -0.2062 -0.172 0.925 0.338 98 82 55 0 0
0.0022 0.0103 -0.2076 0.048 0.805 0.591 118 102 75 0 0
0.0023 0.0108 -0.2104 0.253 0.805 0.537 107 87 60 0 0
0.0025 0.0123 -0.2116 0.014 0.959 0.282 122 104 78 0 0
0.0025 0.0113 -0.2131 0.388 0.831 0.399 129 112 82 0 0
0.0026 0.0125 -0.2143 0.221 0.786 0.577 170 151 115 0 0
0.0034 0.0192 -0.2231 -0.692 0.720 0.046 153 137 99 0 0
0.0231 0.0942 -0.5462 0.120 0.797 0.591 30 23 15 0 0
0.0292 0.1296 -0.6353 -0.566 0.823 0.052 67 56 41 0 0
0.0318 0.1270 -0.6897 0.349 0.937 0.009 153 134 100 0 0
0.0319 0.1268 -0.6918 0.261 0.962 -0.077 148 128 96 0 0
0.0320 0.1266 -0.6939 0.261 0.962 -0.077 162 144 106 0 0
0.0321 0.1263 -0.6960 0.193 0.969 -0.156 153 136 97 0 0
0.0331 0.1209 -0.7214 0.252 0.964 0.091 146 131 93 0 0
0.0333 0.1211 -0.7232 0.252 0.964 0.091 153 137 94 0 0
0.0357 0.1066 -0.7850 -0.088 0.961 0.261 114 100 67 0 0
0.0366 0.1126 -0.7969 -0.031 0.946 0.322 106 94 66 0 0
0.0367 0.1121 -0.7994 0.056 0.947 0.317 80 66 38 0 0
0.0371 0.1152 -0.8054 -0.233 0.906 0.354 115 102 75 0 0
0.0372 0.1159 -0.8069 -0.125 0.932 0.341 92 80 51 0 0
0.0373 0.1165 -0.8085 -0.181 0.900 0.396 72 58 29 0 0
0.0382 0.1181 -0.8242 0.399 0.579 0.711 122 107 76 0 0
0.0391 0.1258 -0.8348 0.405 0.706 0.581 80 65 36 0 0
0.0408 0.1251 -0.8702 -0.074 0.842 0.534 84 78 64 0 0
0.0409 0.1258 -0.8718 -0.140 0.821 0.554 98 92 83 0 0
0.0416 0.1366 -0.8753 -0.229 0.058 0.972 187 188 187 0 0
-0.0014 -0.0396 -0.1536 0.637 0.740 0.216 195 180 137 0 0
0.0003 -0.0130 -0.1632 0.404 0.832 0.379 107 86 57 0 0
0.0004 -0.0121 -0.1645 0.294 0.728 0.619 109 90 66 0 0
0.0005 -0.0109 -0.1657 0.165 0.823 0.544 102 85 69 0 0
0.0008 -0.0072 -0.1680 0.023 0.867 0.497 197 180 140 0 0
0.0012 -0.0044 -0.1732 -0.028 0.915 0.403 178 162 116 0 0
0.0014 -0.0018 -0.1743 -0.139 0.862 0.487 166 151 113 0 0
0.0015 -0.0014 -0.1756 0.338 0.667 0.663 121 104 79 0 0
0.0026 0.0047 -0.1929 0.004 0.855 0.519 56 40 22 0 0
0.0027 0.0057 -0.1942 0.072 0.808 0.584 62 46 31 0 0
0.0029 0.0069 -0.1968 0.095 0.986 0.139 72 57 36 0 0
0.0036 0.0091 -0.2092 0.208 0.770 0.604 122 103 73 0 0
0.0041 0.0140 -0.2140 0.006 0.746 0.666 156 136 103 0 0
0.0203 0.0867 -0.4679 -0.911 0.381 0.158 203 204 208 0 0
0.0302 0.1352 -0.6188 -0.038 0.985 -0.167 82 73 60 0 0
0.0317 0.1320 -0.6503 0.274 0.961 -0.034 126 111 86 0 0
0.0333 0.1268 -0.6878 0.489 0.867 0.093 158 138 101 0 0
0.0334 0.1269 -0.6896 0.438 0.899 -0.003 153 136 104 0 0
0.0335 0.1262 -0.6921 0.340 0.939 -0.044 142 125 96 0 0
0.0336 0.1261 -0.6941 0.340 0.939 -0.044 164 146 107 0 0
0.0337 0.1259 -0.6961 0.277 0.959 -0.058 156 138 95 0 0
0.0344 0.1216 -0.7129 0.194 0.952 -0.238 123 107 72 0 0
0.0345 0.1209 -0.7153 0.194 0.952 -0.238 152 134 92 0 0
0.0346 0.1208 -0.7174 0.351 0.928 -0.121 158 143 101 0 0
0.0349 0.1201 -0.7238 0.464 0.883 0.065 155 139 95 0 0
0.0405 0.1227 -0.8330 0.088 0.996 0.029 99 84 54 0 0
0.0408 0.1231 -0.8370 0.225 0.974 0.031 103 88 59 0 0
0.0419 0.1261 -0.8560 0.551 0.834 0.012 120 101 59 0 0
0.0422 0.1245 -0.8639 0.229 0.974 -0.007 51 43 29 0 0
0.0423 0.1247 -0.8660 0.297 0.922 0.251 34 28 16 0 0
0.0424 0.1251 -0.8678 0.088 0.987 0.135 65 59 44 0 0
0.0425 0.1266 -0.8687 -0.058 0.734 0.677 99 94 82 0 0
0.0433 0.1369 -0.8749 -0.229 0.058 0.972 188 189 189 0 0
0.0001 -0.0386 -0.1534 0.757 0.430 0.492 191 176 140 0 0
0.0019 -0.0125 -0.1645 0.311 0.763 0.566 104 85 60 0 0
0.0020 -0.0116 -0.1657 0.311 0.763 0.566 98 81 65 0 0
0.0039 0.0049 -0.1901 0.346 0.894 0.285 115 100 63 0 0
0.0040 0.0053 -0.1914 0.346 0.894 0.285 80 64 37 0 0
0.0050 0.0083 -0.2078 0.238 0.965 0.113 113 94 65 0 0
0.0051 0.0089 -0.2092 0.395 0.788 0.473 125 105 73 0 0
0.0087 0.0353 -0.2571 -0.356 0.839 -0.411 51 39 24 0 0
0.0217 0.0884 -0.4638 -0.910 0.400 0.105 203 204 208 0 0
0.0246 0.1100 -0.5003 -0.437 0.867 0.239 68 59 43 0 0
0.0288 0.1245 -0.5698 -0.585 0.785 -0.206 78 66 45 0 0
0.0347 0.1270 -0.6837 0.124 0.973 -0.193 168 151 112 0 0
0.0424 0.1236 -0.8364 0.521 0.844 0.124 113 99 65 0 0
0.0426 0.1247 -0.8376 0.735 0.618 0.279 101 87 53 0 0
0.0436 0.1250 -0.8568 0.551 0.834 0.012 109 90 56 0 0
0.0437 0.1247 -0.8592 0.123 0.983 -0.133 107 89 61 0 0
0.0439 0.1247 -0.8636 0.208 0.978 0.030 35 28 12 0 0
0.0440 0.1244 -0.8661 0.070 0.912 0.403 48 43 25 0 0
0.0441 0.1249 -0.8678 0.088 0.987 0.135 101 95 83 0 0
0.0442 0.1265 -0.8685 -0.123 0.802 0.585 120 115 109 0 0
0.0443 0.1280 -0.8694 0.082 0.775 0.627 129 125 121 0 0
0.0445 0.1299 -0.8699 0.627 0.778 -0.037 148 145 143 0 0
0.0446 0.1292 -0.8728 0.469 0.806 0.362 165 164 163 0 0
0.0019 -0.0347 -0.1558 0.187 0.155 0.970 147 128 100 0 0
0.0029 -0.0157 -0.1592 0.338 0.904 0.261 137 116 78 0 0
0.0030 -0.0147 -0.1605 0.336 0.823 0.459 127 110 73 0 0
0.0032 -0.0145 -0.1632 0.301 0.898 0.322 126 106 77 0 0
0.0034 -0.0125 -0.1658 0.378 0.820 0.430 96 78 64 0 0
0.0050 0.0032 -0.1846 0.426 0.760 0.490 78 65 38 0 0
0.0054 0.0042 -0.1901 -0.056 0.927 0.371 100 84 54 0 0
0.0058 0.0047 -0.1985 0.279 0.889 0.363 81 66 46 0 0
0.0059 0.0052 -0.1998 0.279 0.889 0.363 63 47 32 0 0
0.0065 0.0079 -0.2078 0.221 0.951 0.215 122 103 70 0 0
0.0065 0.0079 -0.2093 0.247 0.793 0.557 137 117 83 0 0
0.0124 0.0541 -0.2832 0.472 0.553 0.686 59 50 39 0 0
0.0334 0.1336 -0.6214 0.174 0.982 -0.069 98 87 73 0 0
0.0335 0.1334 -0.6233 0.174 0.982 -0.069 112 103 83 0 0
0.0348 0.1312 -0.6505 -0.002 1.000 0.004 113 100 73 0 0
0.0349 0.1313 -0.6523 -0.097 0.995 -0.018 107 96 69 0 0
0.0350 0.1313 -0.6542 -0.097 0.995 -0.018 96 82 59 0 0
0.0359 0.1265 -0.6763 0.311 0.948 -0.068 151 138 100 0 0
0.0360 0.1262 -0.6784 0.426 0.894 0.138 131 120 94 0 0
0.0361 0.1264 -0.6801 0.426 0.894 0.138 127 116 92 0 0
0.0381 0.1164 -0.7262 0.538 0.840 -0.074 128 112 73 0 0
0.0382 0.1161 -0.7283 0.538 0.840 -0.074 143 125 84 0 0
0.0383 0.1154 -0.7309 0.485 0.846 -0.222 151 131 92 0 0
0.0453 0.1248 -0.8568 0.095 0.996 0.001 131 117 90 0 0
0.0456 0.1243 -0.8637 0.208 0.978 0.030 39 32 17 0 0
0.0457 0.1247 -0.8656 0.175 0.919 0.353 66 60 43 0 0
0.0458 0.1255 -0.8670 0.181 0.968 0.175 128 122 114 0 0
0.0459 0.1266 -0.8683 -0.123 0.802 0.585 140 136 134 0 0
0.0462 0.1294 -0.8702 0.699 0.715 -0.025 163 161 162 0 0
0.0463 0.1293 -0.8725 0.423 0.767 0.483 173 173 174 0 0
0.0028 -0.0475 -0.1543 0.157 0.132 0.979 125 114 93 0 0
0.0031 -0.0418 -0.1551 0.157 0.132 0.979 144 129 101 0 0
0.0033 -0.0362 -0.1559 0.157 0.132 0.979 133 115 86 0 0
0.0044 -0.0158 -0.1592 0.362 0.855 0.371 134 116 79 0 0
0.0044 -0.0153 -0.1605 0.336 0.823 0.459 102 87 56 0 0
0.0045 -0.0149 -0.1619 0.102 0.977 0.186 89 72 49 0 0
0.0047 -0.0135 -0.1645 0.021 0.766 0.642 113 97 77 0 0
0.0048 -0.0132 -0.1658 0.487 0.823 0.293 99 82 66 0 0
0.0059 -0.0044 -0.1787 0.216 0.957 0.195 113 94 58 0 0
0.0060 -0.0039 -0.1800 0.199 0.929 0.312 111 92 62 0 0
0.0065 0.0026 -0.1847 0.052 0.946 0.320 78 62 35 0 0
0.0066 0.0031 -0.1860 0.052 0.946 0.320 72 58 32 0 0
0.0066 0.0033 -0.1874 0.054 0.980 0.190 91 76 50 0 0
0.0067 0.0042 -0.1886 -0.006 0.982 0.190 114 99 66 0 0
0.0068 0.0042 -0.1900 -0.030 0.959 0.282 95 78 48 0 0
0.0069 0.0044 -0.1914 -0.242 0.926 0.290 86 70 44 0 0
0.0070 0.0039 -0.1943 0.033 0.822 0.568 58 44 23 0 0
0.0072 0.0031 -0.1972 0.185 0.947 0.264 84 68 48 0 0
0.0072 0.0038 -0.1985 0.312 0.743 0.592 77 61 38 0 0
0.0073 0.0041 -0.1999 0.406 0.723 0.559 65 48 29 0 0
0.0074 0.0051 -0.2012 0.366 0.701 0.612 82 65 42 0 0
0.0075 0.0060 -0.2024 0.338 0.765 0.548 81 65 39 0 0
0.0076 0.0063 -0.2038 0.450 0.849 0.278 109 92 64 0 0
0.0098 0.0351 -0.2229 -0.597 0.686 0.415 133 117 85 0 0
0.0124 0.0393 -0.2677 -0.588 0.809 -0.024 51 38 30 0 0
0.0137 0.0522 -0.2822 -0.318 0.823 0.470 82 72 57 0 0
0.0240 0.0969 -0.4420 0.306 0.947 -0.099 196 200 201 0 0
0.0315 0.1316 -0.5586 -0.571 0.810 -0.132 80 68 44 0 0
0.0316 0.1311 -0.5606 -0.583 0.797 -0.157 76 64 40 0 0
0.0344 0.1342 -0.6100 0.179 0.984 0.001 122 106 81 0 0
0.0364 0.1312 -0.6504 -0.003 0.994 0.106 121 103 71 0 0
0.0375 0.1257 -0.6767 0.339 0.916 -0.216 158 144 105 0 0
0.0398 0.1147 -0.7292 0.276 0.949 -0.154 111 96 66 0 0
0.0399 0.1143 -0.7315 0.276 0.949 -0.154 130 115 85 0 0
0.0442 0.1041 -0.8200 0.948 0.312 0.064 150 137 115 0 0
0.0443 0.1043 -0.8220 0.946 0.315 0.077 141 127 105 0 0
0.0466 0.1237 -0.8510 0.547 0.736 0.399 159 153 137 0 0
0.0468 0.1222 -0.8567 0.087 0.932 0.353 165 159 148 0 0
0.0470 0.1228 -0.8583 0.087 0.932 0.353 164 157 146 0 0
0.0472 0.1236 -0.8620 0.025 0.981 0.193 122 119 107 0 0
0.0473 0.1240 -0.8638 0.219 0.967 0.130 94 90 81 0 0
0.0474 0.1244 -0.8657 0.057 0.921 0.386 101 98 90 0 0
0.0475 0.1250 -0.8673 0.247 0.963 0.110 153 150 147 0 0
0.0476 0.1256 -0.8690 0.443 0.884 0.151 159 157 157 0 0
0.0055 -0.0202 -0.1569 0.098 0.703 0.704 140 118 90 0 0
0.0059 -0.0162 -0.1606 0.222 0.685 0.694 109 94 62 0 0
0.0060 -0.0158 -0.1619 0.347 0.869 0.353 97 82 58 0 0
0.0061 -0.0151 -0.1632 0.213 0.951 0.226 93 80 61 0 0
0.0062 -0.0138 -0.1645 0.108 0.710 0.696 107 94 78 0 0
0.0062 -0.0140 -0.1659 0.487 0.823 0.293 106 89 72 0 0
0.0073 -0.0008 -0.1753 0.305 0.784 0.540 167 143 98 0 0
0.0073 -0.0052 -0.1787 0.260 0.862 0.435 131 110 69 0 0
0.0074 -0.0046 -0.1800 0.260 0.862 0.435 127 108 74 0 0
0.0077 0.0011 -0.1820 -0.125 0.930 0.347 137 119 86 0 0
0.0084 0.0048 -0.1913 -0.242 0.926 0.290 91 74 47 0 0
0.0084 0.0025 -0.1930 0.014 0.926 0.377 78 63 40 0 0
0.0085 0.0036 -0.1943 0.169 0.798 0.578 66 51 30 0 0
0.0089 0.0045 -0.2012 0.338 0.765 0.548 109 92 66 0 0
0.0090 0.0054 -0.2025 0.338 0.765 0.548 89 73 46 0 0
0.0094 0.0071 -0.2093 0.254 0.809 0.529 157 138 97 0 0
0.0095 0.0079 -0.2106 0.254 0.809 0.529 113 93 63 0 0
0.0096 0.0092 -0.2118 0.293 0.732 0.615 145 125 100 0 0
0.0109 0.0329 -0.2176 -0.553 0.724 0.412 142 124 92 0 0
0.0110 0.0337 -0.2188 -0.536 0.755 0.378 139 124 90 0 0
0.0111 0.0345 -0.2201 -0.563 0.712 0.419 133 118 87 0 0
0.0112 0.0353 -0.2214 -0.563 0.712 0.419 112 96 69 0 0
0.0113 0.0361 -0.2226 -0.563 0.712 0.419 110 95 68 0 0
0.0139 0.0405 -0.2674 -0.690 0.724 0.000 71 60 40 0 0
0.0140 0.0416 -0.2700 -0.734 0.656 0.172 80 70 48 0 0
0.0254 0.0968 -0.4403 0.168 0.977 -0.130 194 196 195 0 0
0.0254 0.0966 -0.4420 0.168 0.977 -0.130 195 198 196 0 0
0.0358 0.1337 -0.6084 0.040 0.997 0.073 110 92 60 0 0
0.0359 0.1338 -0.6101 0.040 0.997 0.073 128 109 79 0 0
0.0360 0.1338 -0.6120 0.122 0.991 -0.047 131 115 79 0 0
0.0379 0.1308 -0.6505 0.085 0.996 0.006 109 90 57 0 0
0.0381 0.1312 -0.6539 -0.002 1.000 0.004 132 114 80 0 0
0.0394 0.1200 -0.6861 0.633 0.682 -0.367 159 144 104 0 0
0.0470 0.1036 -0.8418 0.962 0.246 0.119 161 156 142 0 0
0.0487 0.1226 -0.8583 0.087 0.932 0.353 174 171 168 0 0
0.0488 0.1232 -0.8600 -0.077 0.951 0.298 173 171 166 0 0
0.0489 0.1237 -0.8617 -0.077 0.951 0.298 173 170 166 0 0
0.0490 0.1239 -0.8637 0.025 0.981 0.193 172 169 166 0 0
0.0491 0.1244 -0.8655 -0.024 0.954 0.297 170 170 168 0 0
0.0492 0.1243 -0.8677 0.505 0.854 0.126 171 171 171 0 0
0.0493 0.1261 -0.8683 0.680 0.663 0.312 175 174 175 0 0
0.0495 0.1263 -0.8704 0.614 0.730 0.299 177 177 178 0 0
0.0497 0.1275 -0.8737 0.321 0.821 0.473 185 186 188 0 0
0.0499 0.1310 -0.8750 0.078 0.655 0.752 193 193 195 0 0
0.0055 -0.0431 -0.1467 0.692 0.537 -0.483 178 178 178 0 0
0.0063 -0.0368 -0.1558 0.274 0.083 0.958 139 126 108 0 0
0.0075 -0.0155 -0.1632 0.207 0.934 0.291 96 84 64 0 0
0.0077 -0.0125 -0.1642 -0.081 0.581 0.810 110 98 84 0 0
0.0078 -0.0109 -0.1654 0.039 0.602 0.798 111 96 78 0 0
0.0080 -0.0085 -0.1665 0.035 0.689 0.724 154 136 107 0 0
0.0081 -0.0072 -0.1678 0.083 0.713 0.697 159 138 102 0 0
0.0082 -0.0054 -0.1689 0.323 0.734 0.597 197 179 134 0 0
0.0083 -0.0047 -0.1702 0.274 0.793 0.545 182 162 116 0 0
0.0084 -0.0039 -0.1715 0.179 0.762 0.622 146 124 85 0 0
0.0087 -0.0013 -0.1754 0.393 0.810 0.436 164 141 97 0 0
0.0086 -0.0075 -0.1776 0.216 0.904 0.370 193 170 122 0 0
0.0087 -0.0058 -0.1787 0.009 0.827 0.562 154 133 88 0 0
0.0088 -0.0050 -0.1800 -0.038 0.755 0.654 141 123 85 0 0
0.0091 0.0006 -0.1807 0.035 0.983 0.181 104 85 57 0 0
0.0092 0.0013 -0.1820 -0.125 0.930 0.347 123 106 73 0 0
0.0093 0.0015 -0.1833 0.074 0.931 0.358 128 113 78 0 0
0.0094 0.0020 -0.1846 0.074 0.931 0.358 93 76 46 0 0
0.0097 0.0046 -0.1899 -0.252 0.883 0.396 98 80 51 0 0
0.0098 0.0052 -0.1912 0.077 0.936 0.344 93 76 49 0 0
0.0098 0.0022 -0.1930 0.136 0.903 0.408 72 56 33 0 0
0.0103 0.0043 -0.2012 0.134 0.960 0.244 124 107 80 0 0
0.0109 0.0067 -0.2093 0.257 0.840 0.479 151 134 93 0 0
0.0110 0.0073 -0.2106 0.180 0.851 0.494 115 97 66 0 0
0.0131 0.0410 -0.2259 -0.479 0.613 0.628 128 115 81 0 0
0.0132 0.0420 -0.2271 -0.532 0.627 0.570 144 131 94 0 0
0.0204 0.0772 -0.3357 0.131 0.804 0.581 166 165 164 0 0
0.0206 0.0787 -0.3367 0.297 0.646 0.703 172 170 170 0 0
0.0367 0.1367 -0.5939 -0.174 0.967 0.187 85 77 63 0 0
0.0370 0.1361 -0.5996 0.170 0.984 -0.050 136 122 89 0 0
0.0375 0.1332 -0.6122 0.067 0.997 -0.036 142 124 87 0 0
0.0395 0.1302 -0.6507 0.005 0.978 0.210 133 114 79 0 0
0.0396 0.1304 -0.6524 0.112 0.992 0.059 171 152 110 0 0
0.0397 0.1305 -0.6542 0.112 0.992 0.059 156 137 99 0 0
0.0398 0.1306 -0.6560 0.112 0.992 0.059 120 105 79 0 0
0.0427 0.1150 -0.7207 -0.105 0.990 -0.090 121 115 97 0 0
0.0509 0.1236 -0.8682 0.441 0.889 0.127 180 181 180 0 0
0.0511 0.1248 -0.8693 0.680 0.663 0.312 181 181 183 0 0
0.0512 0.1271 -0.8695 0.473 0.621 0.625 184 184 186 0 0
0.0512 0.1302 -0.8689 0.436 0.856 0.278 186 186 188 0 0
0.0514 0.1310 -0.8704 0.154 0.694 0.704 190 190 191 0 0
0.0071 -0.0528 -0.1547 0.158 0.116 0.981 177 175 175 0 0
0.0074 -0.0466 -0.1554 0.158 0.116 0.981 176 172 167 0 0
0.0093 -0.0105 -0.1653 0.220 0.448 0.867 112 99 80 0 0
0.0094 -0.0083 -0.1665 0.300 0.739 0.603 146 130 102 0 0
0.0095 -0.0073 -0.1677 0.300 0.739 0.603 147 130 99 0 0
0.0096 -0.0060 -0.1690 0.274 0.793 0.545 184 168 130 0 0
0.0097 -0.0052 -0.1702 0.274 0.793 0.545 176 159 118 0 0
0.0099 -0.0041 -0.1715 0.156 0.799 0.581 142 124 90 0 0
0.0101 -0.0020 -0.1754 0.393 0.810 0.436 168 146 102 0 0
0.0100 -0.0087 -0.1777 -0.006 0.828 0.560 190 169 120 0 0
0.0103 -0.0008 -0.1780 0.303 0.870 0.388 146 126 82 0 0
0.0103 -0.0045 -0.1799 -0.097 0.804 0.587 129 110 74 0 0
0.0105 0.0006 -0.1806 -0.137 0.934 0.330 91 73 44 0 0
0.0106 0.0015 -0.1819 -0.125 0.930 0.347 102 86 54 0 0
0.0107 0.0020 -0.1832 -0.125 0.930 0.347 112 95 65 0 0
0.0113 0.0018 -0.1930 0.278 0.669 0.690 68 52 27 0 0
0.0119 0.0045 -0.2025 0.086 0.949 0.304 88 72 44 0 0
0.0122 0.0051 -0.2081 0.368 0.820 0.439 138 122 87 0 0
0.0123 0.0064 -0.2093 -0.060 0.897 0.438 136 121 88 0 0
0.0124 0.0070 -0.2106 -0.060 0.897 0.438 113 96 68 0 0
0.0125 0.0083 -0.2118 0.134 0.846 0.515 127 112 86 0 0
0.0143 0.0395 -0.2233 -0.296 0.595 0.748 181 168 125 0 0
0.0148 0.0439 -0.2281 -0.288 0.629 0.722 141 128 89 0 0
0.0178 0.0521 -0.2791 -0.120 0.901 0.418 39 30 23 0 0
0.0179 0.0527 -0.2804 -0.120 0.901 0.418 29 20 12 0 0
0.0180 0.0539 -0.2815 -0.199 0.929 0.311 34 26 15 0 0
0.0181 0.0517 -0.2835 -0.183 0.866 0.465 45 35 22 0 0
0.0219 0.0788 -0.3351 -0.861 0.501 0.084 111 104 94 0 0
0.0220 0.0795 -0.3364 -0.871 0.481 0.102 117 110 101 0 0
0.0221 0.0799 -0.3378 -0.814 0.542 0.210 123 117 110 0 0
0.0222 0.0811 -0.3389 -0.724 0.566 0.393 131 128 122 0 0
0.0223 0.0819 -0.3402 -0.404 0.629 0.664 148 147 142 0 0
0.0224 0.0831 -0.3413 -0.404 0.629 0.664 161 160 158 0 0
0.0225 0.0832 -0.3427 -0.079 0.687 0.722 166 166 164 0 0
0.0369 0.1345 -0.5722 -0.473 0.860 0.193 72 62 41 0 0
0.0382 0.1370 -0.5936 0.070 0.997 0.037 108 95 72 0 0
0.0391 0.1330 -0.6122 0.118 0.991 0.061 138 120 84 0 0
0.0410 0.1277 -0.6522 0.267 0.750 0.605 139 119 81 0 0
0.0412 0.1287 -0.6534 0.267 0.750 0.605 166 146 102 0 0
0.0413 0.1286 -0.6554 0.633 0.671 0.386 163 145 102 0 0
0.0522 0.1202 -0.8622 0.746 0.556 0.366 182 182 182 0 0
0.0523 0.1211 -0.8636 0.767 0.470 0.437 183 183 183 0 0
0.0525 0.1248 -0.8647 0.685 0.556 0.470 184 184 184 0 0
0.0527 0.1228 -0.8687 0.441 0.889 0.127 185 185 185 0 0
0.0528 0.1235 -0.8703 0.680 0.663 0.312 186 186 187 0 0
0.0529 0.1263 -0.8700 0.473 0.621 0.625 188 188 189 0 0
0.0530 0.1280 -0.8706 0.614 0.775 0.150 190 190 190 0 0
0.0097 -0.0235 -0.1557 0.658 0.614 0.436 124 113 97 0 0
0.0110 -0.0078 -0.1677 0.043 0.692 0.721 135 116 90 0 0
0.0111 -0.0063 -0.1689 0.093 0.806 0.585 174 154 122 0 0
0.0112 -0.0054 -0.1702 0.093 0.806 0.585 169 151 117 0 0
0.0113 -0.0045 -0.1715 0.093 0.806 0.585 132 115 88 0 0
0.0114 -0.0037 -0.1728 0.186 0.786 0.589 152 133 98 0 0
0.0115 -0.0031 -0.1741 0.305 0.731 0.610 177 158 115 0 0
0.0116 -0.0026 -0.1754 0.338 0.869 0.361 174 155 111 0 0
0.0117 -0.0021 -0.1767 0.338 0.869 0.361 199 180 132 0 0
0.0118 -0.0015 -0.1781 0.138 0.792 0.595 126 106 67 0 0
0.0119 -0.0006 -0.1793 0.138 0.792 0.595 114 95 62 0 0
0.0120 0.0005 -0.1806 -0.005 0.981 0.192 94 76 47 0 0
0.0121 0.0012 -0.1819 -0.044 0.923 0.382 97 80 50 0 0
0.0123 0.0028 -0.1844 -0.008 0.959 0.284 89 72 47 0 0
0.0124 0.0033 -0.1858 -0.001 0.866 0.500 86 71 42 0 0
0.0131 0.0030 -0.1984 0.303 0.830 0.469 68 50 30 0 0
0.0131 0.0035 -0.1998 0.306 0.886 0.348 78 60 39 0 0
0.0133 0.0044 -0.2025 0.086 0.949 0.304 85 68 43 0 0
0.0151 0.0327 -0.2161 -0.087 0.406 0.910 214 195 155 0 0
0.0178 0.0449 -0.2576 -0.431 0.902 -0.035 87 72 49 0 0
0.0191 0.0517 -0.2762 -0.291 0.893 0.344 30 25 17 0 0
0.0192 0.0522 -0.2775 -0.216 0.942 0.256 19 14 11 0 0
0.0193 0.0512 -0.2792 0.244 0.955 0.171 18 12 9 0 0
0.0200 0.0575 -0.2879 0.188 0.825 0.533 98 86 63 0 0
0.0202 0.0565 -0.2925 0.249 0.754 0.608 107 96 72 0 0
0.0226 0.0777 -0.3220 -0.674 0.663 0.325 82 68 46 0 0
0.0237 0.0834 -0.3381 -0.842 0.462 0.278 116 108 92 0 0
0.0238 0.0836 -0.3395 -0.824 0.474 0.310 123 116 103 0 0
0.0239 0.0849 -0.3406 -0.871 0.449 0.199 123 116 105 0 0
0.0240 0.0857 -0.3419 -0.836 0.502 0.222 131 125 113 0 0
0.0241 0.0863 -0.3432 -0.729 0.682 0.055 123 117 108 0 0
0.0242 0.0866 -0.3446 -0.671 0.731 0.122 127 120 114 0 0
0.0243 0.0879 -0.3457 -0.085 0.952 0.294 137 131 127 0 0
0.0244 0.0884 -0.3470 -0.130 0.942 0.311 148 143 139 0 0
0.0245 0.0895 -0.3481 0.276 0.793 0.543 159 156 154 0 0
0.0246 0.0903 -0.3494 0.276 0.793 0.543 166 164 162 0 0
0.0247 0.0911 -0.3506 0.276 0.793 0.543 173 172 171 0 0
0.0248 0.0919 -0.3519 0.346 0.779 0.523 177 176 175 0 0
0.0275 0.0999 -0.3963 -0.916 0.287 0.280 187 187 189 0 0
0.0276 0.1012 -0.3973 -0.916 0.287 0.280 187 186 189 0 0
0.0277 0.1021 -0.3985 -0.932 0.313 0.182 185 185 186 0 0
0.0278 0.1033 -0.3996 -0.930 0.359 0.081 184 184 185 0 0
0.0290 0.1088 -0.4177 -0.360 0.933 0.016 140 138 131 0 0
0.0291 0.1088 -0.4193 -0.360 0.933 0.016 137 134 127 0 0
0.0395 0.1367 -0.5901 0.136 0.990 -0.034 121 110 84 0 0
0.0401 0.1320 -0.6036 0.407 0.865 0.293 142 124 86 0 0
0.0402 0.1324 -0.6052 0.464 0.752 0.468 158 139 99 0 0
0.0403 0.1329 -0.6067 0.411 0.858 0.308 153 134 94 0 0
0.0406 0.1329 -0.6121 0.385 0.921 -0.053 141 123 85 0 0
0.0414 0.1289 -0.6291 0.336 0.864 0.376 148 128 91 0 0
0.0423 0.1275 -0.6466 0.489 0.866 0.105 161 142 102 0 0
0.0428 0.1250 -0.6576 0.494 0.867 -0.071 167 149 104 0 0
0.0431 0.1252 -0.6631 0.607 0.795 -0.021 141 125 93 0 0
0.0544 0.1264 -0.8675 0.397 0.513 0.761 189 189 189 0 0
0.0545 0.1276 -0.8687 0.410 0.559 0.721 191 191 191 0 0
0.0547 0.1253 -0.8728 0.511 0.551 0.659 191 191 191 0 0
0.0125 -0.0067 -0.1689 0.043 0.770 0.637 182 160 125 0 0
0.0127 -0.0049 -0.1715 0.126 0.797 0.591 138 122 98 0 0
0.0128 -0.0052 -0.1729 -0.029 0.832 0.554 163 146 110 0 0
0.0129 -0.0043 -0.1742 -0.029 0.832 0.554 182 164 116 0 0
0.0130 -0.0032 -0.1754 0.166 0.937 0.307 172 154 108 0 0
0.0131 -0.0027 -0.1768 0.327 0.877 0.352 193 175 129 0 0
0.0132 -0.0013 -0.1780 0.231 0.925 0.302 132 113 78 0 0
0.0133 -0.0009 -0.1793 0.231 0.925 0.302 105 89 57 0 0
0.0135 0.0009 -0.1819 0.169 0.904 0.393 100 84 52 0 0
0.0141 0.0037 -0.1898 0.473 0.863 0.179 85 67 43 0 0
0.0144 0.0026 -0.1970 0.280 0.896 0.345 87 69 44 0 0
0.0148 0.0041 -0.2025 -0.058 0.982 0.180 92 75 50 0 0
0.0151 0.0038 -0.2082 0.363 0.846 0.390 115 101 72 0 0
0.0152 0.0036 -0.2110 -0.078 0.556 0.828 127 111 86 0 0
0.0167 0.0367 -0.2167 -0.299 0.855 0.424 192 173 130 0 0
0.0168 0.0371 -0.2180 -0.205 0.948 0.243 188 169 128 0 0
0.0169 0.0383 -0.2192 -0.143 0.958 0.251 200 181 139 0 0
0.0170 0.0389 -0.2205 -0.218 0.902 0.372 203 185 142 0 0
0.0171 0.0389 -0.2219 -0.107 0.931 0.349 193 176 135 0 0
0.0172 0.0404 -0.2230 -0.150 0.647 0.748 166 150 117 0 0
0.0173 0.0408 -0.2243 -0.142 0.506 0.851 157 140 111 0 0
0.0179 0.0462 -0.2317 -0.310 0.934 0.177 130 110 82 0 0
0.0181 0.0473 -0.2343 -0.259 0.921 0.292 136 120 88 0 0
0.0183 0.0485 -0.2383 0.102 0.749 0.655 95 82 53 0 0
0.0184 0.0492 -0.2396 -0.021 0.881 0.473 77 64 40 0 0
0.0185 0.0498 -0.2408 0.126 0.904 0.409 72 57 38 0 0
0.0186 0.0504 -0.2421 0.126 0.904 0.409 63 47 30 0 0
0.0206 0.0514 -0.2762 -0.262 0.912 0.316 17 14 10 0 0
0.0207 0.0524 -0.2789 -0.286 0.941 0.183 16 12 8 0 0
0.0212 0.0531 -0.2860 -0.106 0.809 0.577 43 33 21 0 0
