ply
format ascii 1.0
element vertex 673
property float x
property float y
property float z
property uchar diffuse_red
property uchar diffuse_green
property uchar diffuse_blue
end_header
0.030159795333092224 0.11561615867032776 -0.7563116352335932 131 118 81
0.029282625275044605 0.11380063761949774 -0.7599312492919288 113 95 58
0.027682082628845903 0.1106051390117114 -0.7647632095219082 109 92 55
0.026183649594206437 0.10760309198242254 -0.7694443448501614 88 74 41
0.025698743053099354 0.10653287555814447 -0.7724521522025204 73 60 34
0.024766214293595823 0.104608241040452 -0.776217558720063 79 68 44
0.024331150053797962 0.10363186255670517 -0.7791606771941385 82 72 49
0.024516276999596187 0.10383840347037399 -0.7810676901827827 55 43 21
0.024978312043224524 0.10457329948879177 -0.7825091385549681 61 47 24
0.026236932096118715 0.10682879708204165 -0.7826010719107882 74 61 34
0.02639212312186999 0.10697823486745661 -0.7845581715368598 111 97 64
0.02663176141578935 0.10728877531112155 -0.7863737006391665 114 101 71
0.02704069668974811 0.10792254672029211 -0.7879015141284327 83 72 46
0.0274384135361892 0.10853490526719545 -0.7894483027927429 84 72 46
0.02781904383084373 0.10911462925811238 -0.7910243108352568 87 74 46
0.028420657792058074 0.1101166024667811 -0.7922196937807031 97 83 55
0.02873604972389189 0.11057171583306188 -0.7939073893608791 91 77 51
0.029747985683113876 0.1123581828944169 -0.7943890358462083 93 78 53
0.030748392733637414 0.1141230199491752 -0.794884504670832 85 70 40
0.030888149339167198 0.11424262003223418 -0.796873421830986 93 79 48
0.031116496541609764 0.11453148248504183 -0.7987099609430229 108 93 64
0.030967438992479807 0.11409836314773247 -0.8012093653857152 144 129 99
0.03143542425746554 0.11484534282125128 -0.8026297657122231 130 117 86
0.031695403887625775 0.11519437858034509 -0.8044158889234502 130 119 86
0.032016098325879525 0.11565952447917266 -0.8060959536796197 137 123 91
0.03234840737160191 0.11614685950111403 -0.8077560697515909 98 82 54
0.03282663022869141 0.11691349736839476 -0.809157377472225 128 112 80
0.033249822661356926 0.11757482917966902 -0.8106558218966267 109 95 57
0.03323582557610015 0.11739894104685408 -0.8129352753164603 115 100 68
0.0334679424625528 0.11769419354592223 -0.8147776150466434 88 70 46
0.03347114071324117 0.11755079773562283 -0.8170329558684462 73 55 34
0.03355217365189307 0.11755628316357997 -0.8191518596576383 71 54 31
0.0339442033064537 0.11815755925462862 -0.8207117033214073 72 52 28
0.035233086212516015 0.12047787103256943 -0.8206458266911267 86 69 42
0.03576207508549302 0.12134201852620313 -0.821952021649165 91 72 43
0.03647105427586986 0.12255137846641193 -0.8229286592153119 112 92 59
0.0379675380990281 0.12527119170559878 -0.8224625092902692 127 109 75
0.038305397541985 0.12576941743114792 -0.8241087530167459 95 83 45
0.03867178024191244 0.1263223322248365 -0.825703030251322 137 128 85
0.03864463408430854 0.12612014745777367 -0.8280228512911161 165 154 113
0.0381629915373891 0.12504545918313886 -0.8311869724965634 158 144 109
0.03802500605055213 0.12462981194660752 -0.8337230170226202 108 91 61
0.03901703743750766 0.1263831957018908 -0.8341640966885897 91 72 40
0.039546888373502995 0.12724955032048516 -0.835460339689809 107 90 59
0.039253250409254176 0.12653452190681577 -0.8382941955053405 108 88 54
0.03971667427191794 0.1272732002567604 -0.8397161847815705 122 101 60
0.040069836647692106 0.12780010361203714 -0.8413445808155201 149 131 89
0.040445589099228504 0.1283703921314316 -0.8429307299986931 152 134 89
0.04113887636646654 0.1295509258485877 -0.8439168925135968 157 140 95
0.04166890736294444 0.13041786376024525 -0.8452092075998925 144 126 86
0.04208643155566591 0.13106860457169991 -0.8467137901754912 142 124 87
0.042451757948384974 0.13161899850344905 -0.8483174856399768 149 133 96
0.04305757030597361 0.13263188783019136 -0.8494618748930625 110 90 56
0.04249296827703705 0.1313935551138359 -0.8528464302005664 98 79 57
0.04247361830784625 0.13120358330437085 -0.8551934071236802 87 78 62
0.04260524317251639 0.13130384577072748 -0.8572537900193121 39 35 28
0.04196135850819388 0.12991137164630567 -0.8608149827250677 24 23 20
0.042302535454890156 0.1304143890450948 -0.8624789109304322 57 53 46
0.04255756849752594 0.1307515203865012 -0.8643106428331022 79 73 65
0.04296897220077148 0.1313896777235345 -0.8658392051576609 100 96 89
0.04329340191526285 0.1318603388765413 -0.8675373642311702 136 133 128
0.04310188243437148 0.13133704543285377 -0.870246594831362 165 164 162
0.04436931600259947 0.13362434757666292 -0.8700970624151474 182 182 182
0.04690405122429542 0.13835446443383206 -0.8674427461948531 191 191 192
0.04793672486800753 0.14019097825764273 -0.8677310750802941 196 196 198
-0.061678262058668526 -0.018167350916372255 -0.2342273160294765 177 177 179
-0.06257633484266163 -0.019919335112268996 -0.23620314309808138 177 177 177
-0.060771696395111645 -0.01672483501796393 -0.2370646341821713 170 168 165
-0.05885776287088549 -0.013329682859528971 -0.2378718603790397 149 142 130
-0.05683618927795883 -0.009736841759745665 -0.23862452798593087 151 137 116
-0.05631456198387569 -0.008889704243529237 -0.24000321204850517 161 144 121
-0.055484000092016664 -0.007476784697569572 -0.24124900897016832 176 159 130
-0.055183973880160546 -0.007035287357048073 -0.2427200577242804 189 172 143
-0.05442496426995432 -0.005753145649669417 -0.24399273754646342 187 171 141
-0.05415330241603967 -0.005363557227944321 -0.24547543147912357 175 159 128
-0.053441865657153226 -0.004168340329335593 -0.24676561077761722 195 179 144
-0.05276604031633831 -0.0030382259450134202 -0.24806938693925115 206 190 155
-0.05235563260619242 -0.00239433040558662 -0.24948931265186886 189 175 140
-0.05195288864532342 -0.0017644565599018308 -0.25091233220733267 173 160 127
-0.051317958222415604 -0.0007090121869475358 -0.25223036712101177 142 129 106
-0.050982283468018176 -0.00020198943664201385 -0.25368254337085944 88 78 66
-0.05038001860951882 0.0007937400379989246 -0.25501301785700525 50 42 33
-0.050192947267150935 0.0010283516667496384 -0.25653295687510325 30 23 18
-0.05025548687251646 0.0008052056504883331 -0.2581694653091541 21 14 14
-0.04996488156776419 0.0012294924400898244 -0.25964393104221123 22 15 13
-0.048988791148114094 0.0029109474317541434 -0.2607972691363211 23 18 15
-0.050931578045318504 -0.000761223321273638 -0.26332473090457353 32 25 20
-0.04944251541139845 0.0018611553284247073 -0.26423566518667463 71 61 53
-0.047649908670546484 0.005040893020751364 -0.2649945548470015 111 102 88
-0.04598429256510841 0.007988214653551054 -0.2658057829030578 145 133 113
-0.04552239235915997 0.008727200019994913 -0.2671919019234056 161 146 121
-0.04487424812632082 0.00980803569159007 -0.2684865941369121 105 90 70
-0.044247020073199445 0.01085060265042298 -0.26978973318152427 57 45 30
-0.04383053611605449 0.011506427131897728 -0.2711951756728543 61 51 39
-0.043761612751252225 0.0115242004248991 -0.27277278884326744 50 41 30
-0.04219767730383938 0.014286821781021405 -0.2736052664607579 44 36 25
-0.041549316405922895 0.015368685833130627 -0.27489050550894234 43 39 28
-0.04192398832063268 0.014571875538357898 -0.2766913012294788 16 11 7
-0.04085656575490314 0.016423466979377563 -0.2777628052891275 38 31 23
-0.04085575777086244 0.0163160767152115 -0.27937590126899553 99 91 79
-0.040449476769772896 0.016953444158417638 -0.28078234426133786 101 94 77
-0.03985964436966454 0.017928079483715248 -0.28209334876517483 81 73 56
-0.03962865731870903 0.018243421197088994 -0.2835899076273703 65 55 42
-0.0392518944260999 0.018826612254349964 -0.2850107816280762 42 30 20
-0.0389602879687107 0.019253299704591734 -0.28647641157390313 38 26 18
-0.038704352588998625 0.019614392457500143 -0.28796133892322334 47 35 26
-0.03888166806164622 0.019178964338867663 -0.2896780709722255 43 34 25
-0.03861555599750386 0.019558596082909996 -0.29116008154525846 41 34 24
-0.038558929990877566 0.019552987824885487 -0.2927557324790511 45 38 29
-0.037457844638967695 0.021468031582339425 -0.2937860455577271 44 37 30
-0.03798457002752324 0.02038947883901142 -0.295700738872765 16 10 10
-0.03680153386104961 0.022455555820773895 -0.29668174125726715 35 27 25
-0.03584762224624425 0.024100476170356294 -0.29778410143787615 86 75 69
-0.03548709619328763 0.02465390396536811 -0.2992123621045937 101 92 84
-0.035290219003226486 0.024906209310453828 -0.300732005823074 89 78 66
-0.0361898843799889 0.023140493150765037 -0.302868799602943 81 69 54
-0.03583387819527805 0.023685310236536625 -0.3043039400106942 81 70 58
-0.03541023292676257 0.024354633337961798 -0.3057006199479377 81 72 62
-0.0350123468472083 0.024976566149549753 -0.3071115660540028 66 58 51
-0.03461452318779156 0.025598403646922105 -0.30852225740397937 49 41 38
-0.033829697825196105 0.026932869901414302 -0.30970905668003057 44 36 33
-0.03318908606102879 0.028001942077784628 -0.3109768830760786 37 29 24
-0.03266885126490087 0.028849429537775265 -0.3123131859959108 24 19 15
-0.031947186766005095 0.030068024082230013 -0.31353010384195595 17 13 13
-0.031695067690318275 0.030421772276254852 -0.3150219396008848 18 13 14
-0.03124634844344977 0.031137700942156593 -0.31639768026947046 21 16 15
-0.030813009526264916 0.03182533116417521 -0.3177819773642001 28 26 22
-0.030570458119506642 0.03216140056696071 -0.3192802492263271 37 36 32
-0.03022233510650496 0.032692000413141506 -0.32071552045676255 37 36 32
-0.02998832347350589 0.03301225705210557 -0.3222200301701409 35 34 30
-0.02975426097137903 0.03333255649026169 -0.3237252643684879 34 33 29
-0.029501649710259106 0.03368700392560316 -0.3252198841982259 36 32 29
-0.02921644388130302 0.03410151124843211 -0.3266950553582091 38 33 30
-0.0290136670450735 0.034363976164091134 -0.3282217205951311 30 25 22
-0.02872531018781424 0.0347842192770612 -0.32969605497410653 31 26 23
-0.02929074235809863 0.033629524750279916 -0.33170526586693594 31 25 24
-0.028893761005039327 0.03424991911789714 -0.33311484542615705 28 23 22
-0.028920695858103827 0.03408818592673689 -0.3347922598049285 25 19 18
-0.02890185238640055 0.03401075940973973 -0.3364430416311506 24 20 19
-0.02904367552737938 0.03363667708294203 -0.33819867018465777 26 22 21
-0.02876851321740795 0.034032011710338414 -0.3396897065425847 30 26 25
-0.028517354183445004 0.03438300349666476 -0.34119674834115626 26 23 21
-0.029195301734603968 0.03301867641372373 -0.3433072966600991 16 15 10
-0.028107108485180075 0.03457551922220818 -0.3493017542312702 50 46 40
-0.026251007258356558 0.03789080290346186 -0.3497478656860541 90 85 74
-0.025863962309458796 0.038492693852431856 -0.35116625296595705 123 115 106
-0.02548376097942192 0.039081954936787136 -0.3525890138085946 121 113 106
-0.025103597449929488 0.03967115830051916 -0.354011620375397 106 99 92
0.039678399673037046 0.1440540207344296 -0.5374588131885731 87 75 60
0.039741536769459594 0.14405146658780052 -0.539183120166379 101 92 74
0.03977759134214766 0.1439977576034933 -0.5409421359782691 96 88 70
0.03986660590325319 0.14404362883472674 -0.5426399961394999 88 81 62
0.035602332732558924 0.13452175964522228 -0.5698502436645907 90 82 62
0.03424111837220942 0.13182756775485868 -0.5734185298398878 103 93 68
0.03403625386238002 0.13131488207483724 -0.5755443496687898 104 91 63
0.03432507343343193 0.13173379144447656 -0.577050809548759 114 99 71
0.03444659287685292 0.13183681290347282 -0.5787699463423723 114 98 70
0.034962520989976216 0.1326844379497205 -0.5799891744520228 111 96 64
0.0349341968158947 0.13250433066962164 -0.5819017810044241 98 83 54
0.03558744196099492 0.13361135287867612 -0.5829446415702152 102 88 60
0.03532181762509813 0.13298272999573868 -0.5851656846752449 101 87 60
0.035259174907412906 0.13273726227279398 -0.5871302445338176 104 89 65
0.03563233710436985 0.13331507721384392 -0.5885346139177308 106 93 69
0.03562172550309815 0.13316759695435393 -0.5904368114695129 91 83 66
0.03598566318467894 0.13372789088507742 -0.5918544446311996 70 62 54
0.036277578499771174 0.13415203310442658 -0.5933660445637357 84 77 69
0.036791032696631476 0.1349950260499007 -0.5945878392159166 94 87 75
0.037410507442686994 0.1360386060043707 -0.5956688672001468 86 76 60
0.038013143341914774 0.1370504920150239 -0.5967698141636298 95 83 58
0.037493327074607986 0.13593922458418906 -0.5993538856770365 131 117 83
0.037470658692740744 0.13576803259292264 -0.601285440307702 145 129 89
0.03741960394292209 0.13554291009196268 -0.6032580120003461 156 139 95
0.03734500225445496 0.13527299063033082 -0.6052655083703167 142 122 83
0.037267646247060186 0.1349976098149464 -0.6072803709017607 117 98 65
0.0371944026510994 0.13472976413153886 -0.6092934100716746 138 121 88
0.03694917681924648 0.13413603859265696 -0.6115421420892833 141 124 88
0.037074580992621745 0.13424382357581238 -0.6132944488972619 155 137 100
0.03690632481877287 0.13379528642402938 -0.6154474385199724 151 133 94
0.03671468758740976 0.13330215329320227 -0.6176368051409993 151 133 97
0.0368179983957441 0.133367500399025 -0.6194279016258182 123 107 70
0.03669010661795661 0.13299460188390338 -0.6215381067908392 149 133 94
0.0365816950335395 0.13265833739114796 -0.6236257344611316 133 115 78
0.036483064295332004 0.1323403387833726 -0.6257039195301258 144 126 91
0.036305669702008415 0.13187275543612872 -0.6278950757425228 110 94 63
0.03629398502273042 0.13171905029992187 -0.6298608624167391 117 103 70
0.03628402362408392 0.1315683950989432 -0.6318274798718364 119 101 69
0.0364851894855862 0.13181795446548006 -0.6335023734295705 148 130 94
0.036733035008546 0.13215596953988862 -0.6351132217346924 135 116 81
0.036670865185008776 0.13190574824625212 -0.6371608605512994 156 138 99
0.03667068998952148 0.13177291371077876 -0.6391247766065732 129 115 74
0.036584803841358524 0.1314772008467212 -0.6412131096854061 137 122 85
0.03677350764588702 0.13170242963311604 -0.6429157062624689 132 116 80
0.03701708417296889 0.13203172879872604 -0.6445416944074089 120 103 66
0.0369063533671584 0.13168822595534665 -0.6466746450594358 157 141 99
0.036981240595217055 0.13169693508627558 -0.648545889015322 127 111 72
0.037114894328972095 0.13181709027206306 -0.6503352245263714 115 100 66
0.03705335412115507 0.13156631324395074 -0.6524079169404875 131 118 80
0.03697023843534421 0.1312742902250597 -0.6545155686604828 109 95 60
0.03682892633007076 0.1308714126457729 -0.6567115905026814 112 98 65
0.036684972513361544 0.1304632107850877 -0.6589159549648802 153 140 101
0.03670093983601641 0.13035868760198463 -0.6608914821046077 160 144 101
0.036612323640573916 0.13005512650339687 -0.663023203020264 158 141 98
0.03654469550654485 0.12979119944701492 -0.6651281630786939 159 140 97
0.03658585540141568 0.1297338988796648 -0.667076774066372 117 99 65
0.03663948581036745 0.12970012219963056 -0.6690098630465953 142 125 92
0.036708762901477426 0.12969592259998 -0.6709225608643451 141 125 90
0.03657094196177632 0.12929750403392307 -0.6731457530483054 164 147 105
0.03645731252249976 0.12894481434527283 -0.6753374265212242 141 125 88
0.036356417424020654 0.12861606884013385 -0.6775143963098877 135 121 95
0.03600272513001458 0.1278058145279334 -0.6800748177165238 132 120 90
0.0359688816257263 0.1276040784500343 -0.682160534270298 169 155 114
0.03583685581252721 0.12721513670207496 -0.6843980744776881 176 159 112
0.03505802063675001 0.12559402652705445 -0.687619315820939 166 148 103
0.03490927748761746 0.1251724254428211 -0.6898943277128187 137 123 86
0.03452707511083292 0.12430573239860132 -0.6925296332612476 92 81 52
0.03503098979518106 0.12512702639072043 -0.6938181945384823 112 99 67
0.03553095026412381 0.12594086986686262 -0.6951115507494017 157 142 102
0.03523866145448072 0.12524471058286585 -0.6976212424955842 152 133 93
0.03481095005194201 0.12428997172976167 -0.7003457874771202 119 103 64
0.03481793731325017 0.12416357499535363 -0.7024056122656857 127 112 74
0.03510487702266399 0.12457082488304144 -0.7040346516273193 153 136 93
0.034788583032962395 0.1238274599464825 -0.7066027245603005 161 143 98
0.03480962528118073 0.12372718093992124 -0.708650909709396 150 132 88
0.03469328327506746 0.12336455965784565 -0.7109173131280105 134 113 74
0.03466180570343798 0.12316357640448983 -0.7130550693095333 145 128 87
0.03459539434833195 0.12289566546633929 -0.7152515715099271 169 148 106
0.034480074679004394 0.1225341169943793 -0.71752938361471 139 120 85
0.03405747953147237 0.12158560365531848 -0.7202983273151495 145 127 90
0.033643950763860384 0.12065389901926146 -0.7230603396117689 159 141 97
0.03422065828046149 0.1216129048531713 -0.7242523930359536 163 144 99
0.034058798723856046 0.1211612481925167 -0.7266224735160546 162 144 98
0.03411962951517408 0.12113469963953494 -0.7286407717003017 161 143 98
0.033983622580838604 0.12073183150701361 -0.7309783599443285 156 137 94
0.033943836573636976 0.12051252883425406 -0.7331656816577181 173 152 108
0.033891132438447186 0.12026826892442069 -0.735377811277776 163 145 97
0.0338010270317461 0.1199522323450748 -0.7376546393638881 161 145 99
0.033852519102382586 0.1199066456328792 -0.7397056347965534 156 135 93
0.03306475749961667 0.11825584419205984 -0.7431284642316163 167 148 107
0.033246051597052934 0.11845784806007192 -0.7449773313212644 149 134 91
0.03301082585552634 0.11786289568174277 -0.7475113573646888 162 144 99
0.03244510682063405 0.11663518433438849 -0.7505950084398139 167 151 110
0.03260111841607852 0.11678804954499172 -0.7524967851301873 132 121 84
0.031723799629096106 0.11496293380010592 -0.7561107750255152 128 114 82
0.030520382812147806 0.11251272967360831 -0.7602781144116475 113 98 61
0.02919288066696045 0.10982390838154585 -0.7646672956690562 109 94 57
0.02791467578385677 0.10722837686264025 -0.7689907099881923 94 79 47
0.0271127110400691 0.10554392475973781 -0.7725328591171613 74 59 32
0.030359552368772177 0.11161489507887898 -0.7692879998234795 87 75 48
0.026320207544068136 0.10372738457434127 -0.7782852609383033 88 77 51
0.026909433147231265 0.10470684801865096 -0.7795085050076583 57 45 24
0.02649957712250406 0.10377154408650335 -0.7824219611662038 65 54 31
0.027951098672217747 0.10640396299425339 -0.7821813399730978 81 69 41
0.027736242769239083 0.10584210290600904 -0.7847690399803692 102 88 54
0.02835884738311005 0.1068858060384254 -0.7859318443667397 116 103 67
0.02909548829647035 0.10814838719762249 -0.7868969195472758 86 74 49
0.029497324592539564 0.10876894056867126 -0.788433823055591 71 59 33
0.029891205577029387 0.1093742423068057 -0.7899842600734934 94 80 53
0.03034632577592422 0.11009706774712619 -0.7914287669809534 93 79 52
0.030171152462221948 0.10961020627526227 -0.7939649558341223 85 70 46
0.031066797232631574 0.11117857056785951 -0.7946455043242459 85 70 44
0.03149748900346648 0.11185457293288756 -0.7961314172823984 85 70 40
0.03215854700658981 0.11297298461750346 -0.7972141760819127 122 107 75
0.03265089649147343 0.11376755080883133 -0.7985899229276087 112 96 66
0.03308764943706305 0.11445538934715516 -0.8000623248942552 100 85 55
0.03237339893631831 0.11293179996856001 -0.8035634379530948 95 81 49
0.03302002543747748 0.1140226296344852 -0.8046694799565745 136 123 92
0.03331128325658374 0.11443061386775069 -0.8064029773963368 97 81 55
0.03360221559266635 0.11483790927256468 -0.8081379892350451 109 94 66
0.03400951692779618 0.11546888281570805 -0.809666443382115 103 89 59
0.03434298379639643 0.11595788588257211 -0.8113266948675183 84 70 40
0.03448125484202143 0.11607141986845074 -0.8133374889582842 76 62 35
0.03458693981091239 0.11612209934384277 -0.8154093745825828 78 59 38
0.034709223172766784 0.1162045241176849 -0.8174541573943339 75 55 32
0.03531677934107187 0.11722062740900366 -0.8186240299327683 74 58 31
0.035316268952633276 0.1170665118598293 -0.8208943753325496 72 53 30
0.03611193651638253 0.11844484251967693 -0.8217207141180409 84 64 37
0.0365988733280776 0.11922901618515935 -0.823105899354712 116 97 64
0.037457099211468836 0.12072827986783596 -0.8238110168240461 111 94 64
0.039079118130771015 0.12369902931474366 -0.8231105225280023 102 86 57
0.0390262978859298 0.12344411160592342 -0.825477498352576 158 146 108
0.038892981893403664 0.12303379079874971 -0.8279974122923588 152 140 101
0.03867001299322062 0.12245033484125059 -0.8306884548730249 112 100 68
0.0388773860153344 0.1226959448110701 -0.8325876775749173 87 74 46
0.03909020068852577 0.12295192180159481 -0.8344786138979772 98 82 53
0.03914498144148802 0.12290305613988989 -0.8366660470452243 85 66 36
0.04000560258412579 0.12440806994494924 -0.8373499279864578 98 82 52
0.040362326201494436 0.12494144429718121 -0.8389738120028648 93 77 45
0.040572059957275114 0.12519121708690126 -0.8408743996420469 116 101 66
0.0413177693042934 0.12647509176402133 -0.8417661337280596 154 138 104
0.041924504029825505 0.12749100447458478 -0.8429168891009226 129 113 73
0.042605301170318285 0.12865003790201762 -0.8439248894045408 147 130 94
0.042804707138545534 0.12887987259393044 -0.8458450923383256 131 113 80
0.043171895914492414 0.129433569190981 -0.8474473373534093 137 116 83
0.04350086626682029 0.1299134391765108 -0.8491228338411188 122 105 71
0.044129064021974196 0.1309712980935587 -0.8502252491671367 110 88 56
0.04438246423775982 0.1313051870735375 -0.852045617195701 117 95 70
0.043405724751602634 0.1292618001541501 -0.8562387400493839 74 66 50
0.043582292079234586 0.12944655924310955 -0.8582169164604716 31 30 25
0.04309472416670444 0.12834728585423563 -0.8614846230554603 30 27 24
0.043549926461842636 0.12907025409220402 -0.8629292065872656 72 66 60
0.04329140571817082 0.1284130150545547 -0.8657640825219772 90 84 77
0.042869259524719566 0.12743882033852602 -0.8689256138978124 113 109 103
0.04441645481942713 0.13027393618362884 -0.8682365836407543 143 141 137
0.04467097925606063 0.13060861758752515 -0.8700752370781938 169 168 168
0.04584517452453005 0.1327230662897401 -0.870103225781946 184 184 184
0.04748684115643585 0.1357429647801437 -0.8691991571250316 193 193 195
-0.05978727801653513 -0.01803384037953884 -0.23397348146885433 177 177 179
-0.061786649996350376 -0.021815799041897455 -0.23640395536455386 177 177 177
-0.059862529915494296 -0.01839308396113319 -0.2372161284600109 176 175 174
-0.05807459680547047 -0.015219868323881613 -0.23807605490758496 157 150 143
-0.05584198035239256 -0.011229207048791823 -0.2387398160059433 132 119 104
-0.055233670553003995 -0.010221873157828229 -0.2400826615848638 147 129 112
-0.054480236328108715 -0.008947789956139277 -0.2413618913086124 170 152 122
-0.053444889011378185 -0.00715550991977032 -0.24251725351852432 177 157 127
-0.05217735479632566 -0.004936243727784298 -0.24356778983683577 171 153 128
-0.05272617363709721 -0.006055012234758711 -0.24540646701249524 171 154 131
-0.05190694026637985 -0.004659425392755309 -0.24664871763980825 182 165 137
-0.0513320050836618 -0.0037127612321516956 -0.24799638279882313 212 197 164
-0.05072552823213177 -0.002708013253877248 -0.24932865361079634 199 184 150
-0.050396265407866576 -0.002212902502345959 -0.250783859717222 153 137 107
-0.048944496733222986 0.00034649808800434057 -0.2517318730259453 131 117 94
-0.049318074378395395 -0.0004508553442461871 -0.2535037724902326 81 69 58
-0.048805078966730045 0.0003822747140007493 -0.25487400220459117 56 47 39
-0.0490369974117604 -0.0001548984896174027 -0.25658670674952755 29 22 18
-0.04943694187449825 -0.0010014577879063902 -0.2583809402155862 17 13 10
-0.04869350644097375 0.0002555473173043027 -0.259645660185223 17 13 10
-0.047602720807455125 0.002151930779869457 -0.2607447041940038 18 14 11
-0.050080605920962355 -0.002519415280433812 -0.26352797069609235 19 14 11
-0.04865212476811732 -1.572597472673798e-06 -0.2644680861558255 45 38 31
-0.04636328348741751 0.004100551168109201 -0.2649892727939445 102 94 83
-0.04530214155553436 0.005943168698351986 -0.2660908311208796 129 118 104
-0.04402097275595685 0.008191222844304291 -0.26708124974578945 128 114 94
-0.04348505824718121 0.009067264868877059 -0.26843002824764006 102 89 71
-0.042887144350710366 0.010057570907664987 -0.26974720370656075 70 60 45
-0.04246118465301361 0.010731250339480233 -0.2711479238998721 51 41 32
-0.04245441163873426 0.01063275253298443 -0.27275682474460294 39 30 22
-0.04083182145056656 0.013511043134893971 -0.2735586592156011 58 50 40
-0.039750360575904475 0.015392797464265001 -0.2746253181815273 51 46 37
-0.04010330079188476 0.014631553321227897 -0.27641466803693565 13 8 5
-0.039876336596257875 0.014938778527128452 -0.2779125841393585 22 15 11
-0.03915464646084399 0.016157840677966467 -0.27915739478119955 87 78 69
-0.03898875020875525 0.01635249036435084 -0.28068684802385846 115 108 93
-0.03877558501909004 0.01663420812675105 -0.2821929030270439 96 89 72
-0.03841259228117261 0.01719212833583765 -0.2836215351270547 83 74 59
-0.038084369565563186 0.017685934809695575 -0.2850683709797902 74 65 51
-0.03776360962065455 0.01816596774440632 -0.2865192978617458 74 65 54
-0.03755067496799321 0.018447102775597773 -0.2880277637331099 68 58 48
-0.0372943232034537 0.018808270696646104 -0.2895138696692594 50 41 34
-0.03755049252749432 0.018223827116264024 -0.29127636545377167 35 28 20
-0.037338210965866814 0.018503485732518504 -0.29278912720782724 36 29 22
-0.036307392570131124 0.020293588552368597 -0.29385716544626184 39 32 26
-0.036465582434523795 0.019889565654250846 -0.295571956919793 17 11 9
-0.035897464300467696 0.02082594455365938 -0.29688999477800243 29 22 22
-0.035023538645934604 0.0223269446797848 -0.29803730217049085 75 66 64
-0.03459712897847814 0.023001950084323666 -0.29943057702927856 84 78 70
-0.0342127605635964 0.023599360692634852 -0.300846928406382 91 82 69
-0.035172798723215735 0.021714103424396808 -0.303020410694681 89 79 63
-0.03479215134371582 0.02230437686793188 -0.3044427172452406 81 71 59
-0.0342978451341684 0.02310460324419128 -0.3058000961302815 58 49 40
-0.03380722287629419 0.023898086267590365 -0.3071586828102889 40 32 25
-0.0333211631610161 0.024683200402563263 -0.30851901672634874 35 28 23
-0.032714630489129655 0.025690979557170215 -0.30980871593952714 43 36 32
-0.032089594497922015 0.026733064484135344 -0.3110860136927697 56 49 44
-0.03162470333967906 0.02747928843359658 -0.31245534840768013 44 39 33
-0.03089883423362967 0.028707961669108648 -0.3136702900703484 25 21 17
-0.03033992636293012 0.02962814709819976 -0.3149816773045672 19 14 13
-0.029796023665408337 0.030520681599602292 -0.3163006637672354 16 12 10
-0.029468520242539653 0.03101315902268975 -0.3177479157232437 16 13 11
-0.02927455099309763 0.03125867930402018 -0.31927566329183066 17 16 14
-0.02892708404109081 0.03178802939452578 -0.3207115746318105 18 17 15
-0.02869842490303194 0.03209761203515381 -0.32221976008573205 16 15 13
-0.02846921223773813 0.03240816412641534 -0.32372839986250346 20 19 17
-0.02847284727666185 0.032287846072244414 -0.32538093668331336 28 24 23
-0.028364996574448263 0.032373665784972167 -0.3269668959627656 32 28 27
-0.028154443338555837 0.03264944302098821 -0.3284906518271867 27 23 22
-0.028059852236434757 0.03271052571156992 -0.3300877249748043 32 28 25
-0.027990529880800884 0.032724718145695206 -0.3317023318936923 36 33 28
-0.02804578634942545 0.032508148085626964 -0.3333973724525106 36 33 28
-0.027812109016484517 0.03282636946696775 -0.33491185819758074 31 28 23
-0.027773549198000236 0.032783224135175856 -0.33655148503896515 32 28 25
0.040819954417017704 0.14307631804029186 -0.5358379648826422 74 65 47
0.0409921653196375 0.14327798356246277 -0.5374313487057913 84 75 58
0.0411518405803994 0.14345585781160536 -0.5390411215473436 97 89 72
0.04092324682450974 0.14289957268660378 -0.541118814514502 93 86 69
0.04089071065242742 0.14271368529627304 -0.5429648527926298 83 76 59
0.04085821984056544 0.142527671957148 -0.5448139123060786 79 72 55
0.04171656754250056 0.1440264115394715 -0.545584896052738 76 69 54
0.04230669416418074 0.144768352790651 -0.5503058449908824 92 85 72
0.037217716064315 0.1341202606356175 -0.5713387917189618 83 75 52
0.03722113968023707 0.13399856455799533 -0.5731967491769391 95 84 57
0.03733143588093136 0.134079209688597 -0.5749221188685933 91 79 53
0.037550617655014364 0.13436610390940767 -0.5765109985217377 89 77 49
0.03759222977796054 0.13431629703417577 -0.578327576924504 110 99 68
0.03756378196082491 0.13413347582847523 -0.580236452237696 102 91 63
0.0380212742870221 0.13487193349805743 -0.5815242822694056 98 86 60
0.03791374292538446 0.13453882302560888 -0.5835394184250866 106 94 67
0.037938619748020715 0.13445661150710303 -0.5853872163780769 96 84 58
0.03804454143790872 0.13452796809926443 -0.5871326330144483 111 100 76
0.03789747001851748 0.13411912997279946 -0.589209414907031 103 93 68
0.038093335131807446 0.1343608192266124 -0.590842616834518 96 84 69
0.03787645475366456 0.13381899508029355 -0.59301787652729 106 95 76
0.038408820145844104 0.1346991831108684 -0.5942132007769502 128 117 89
0.03836560426677635 0.13448664175358188 -0.5961659654558464 114 101 72
0.038399061037726785 0.13441946601491733 -0.598020677626242 98 83 54
0.03832147375191091 0.13414120127164664 -0.6000255014107849 134 119 84
0.038247378864780815 0.13386931639741712 -0.6020293669240603 148 132 89
0.03830765511248978 0.1338524636447153 -0.603857404668491 157 139 95
0.038120862881863 0.13336597142135498 -0.6060190725743445 159 140 100
0.03890968604335586 0.13473325957528687 -0.6068737095959875 123 104 68
0.03895853403850322 0.13469430650933878 -0.6087226559606159 142 124 86
0.03866062991531118 0.13399598281903743 -0.611043440423257 142 123 84
0.03840974805479313 0.13338667534539644 -0.6133060444438534 154 135 95
0.03870730477387238 0.13381993735656986 -0.6148270236906352 155 137 98
0.03848655076648506 0.1332673711790539 -0.6170566030605598 137 119 84
0.03873187766080719 0.13360105638363567 -0.6186524097515009 129 111 76
0.03851287420106969 0.13305126973471165 -0.620887586686502 162 143 106
0.03847359684935657 0.1328431274815738 -0.6228798880585487 124 103 69
0.03830408000018786 0.13238688316076214 -0.6250558557288936 157 135 99
0.03818094317064737 0.13201860337870738 -0.6271720530739169 140 119 85
0.03802532152674183 0.1315881908619284 -0.6293376961846524 144 128 88
0.038129471317784644 0.13165208570678444 -0.6311449790054553 136 119 78
0.03809191295086165 0.1314459649214043 -0.6331530622377235 149 131 90
0.03822151751685102 0.13155799240197708 -0.634929647824932 117 97 61
0.03839970712997133 0.13176243399532367 -0.6366397349957778 141 121 83
0.03836004037724202 0.1315516917664712 -0.63865958164492 130 114 75
0.03831562401153458 0.1313316561181985 -0.640689693839159 138 121 86
0.038197526771788996 0.13097094745564689 -0.6428282641198679 134 114 80
0.03819396858775771 0.1308282795293052 -0.644807524637213 141 122 86
0.038323284275557847 0.13093871236839771 -0.6465996900309415 162 143 101
0.03835672093960304 0.13086618193925315 -0.6485316684865694 152 132 90
0.03861631700918309 0.1312247615288831 -0.6501405922715302 109 92 60
0.0387163990945676 0.1312790199754256 -0.6519810342847355 159 145 104
0.0387472200767304 0.13120098699279203 -0.653924252690369 128 112 74
0.038628333620053815 0.13083710333742216 -0.6560882208188246 105 91 64
0.03835461525937124 0.13017744995874073 -0.6584824478097483 118 108 78
0.03837294887074372 0.13007482982731516 -0.6604548858065704 144 130 94
0.03829948068893334 0.129796750028614 -0.662565213713984 149 134 95
0.03770885309433515 0.1285309975076115 -0.6654411796641423 160 145 103
0.0378218267338855 0.12860824195412596 -0.6672862801630765 141 126 92
0.0378554476336493 0.12853377452079134 -0.6692512390204973 148 132 100
0.0379484616280045 0.1285725550342859 -0.6711309004913841 167 148 107
0.037899824143999394 0.12834053688143837 -0.6732242272643931 174 156 112
0.03777289720547816 0.1279586611687511 -0.6754384002336327 154 140 101
0.03771883453798697 0.1277157323761166 -0.6775477436556266 135 119 91
0.037526344052217206 0.1272079389348267 -0.6798692129578994 140 124 92
0.037485063491111525 0.12698887606865097 -0.6819675563332934 169 152 111
0.03707516660232475 0.12606472249310532 -0.6846276934745316 166 150 102
0.0360798784843845 0.12402056152218247 -0.6881839082244351 157 142 96
0.036965305996608536 0.12557286107429252 -0.6888880275954674 116 104 72
0.03611659177855521 0.12380797351993283 -0.6922367442812292 81 73 50
0.03604376847316536 0.1235268854429907 -0.6944077153916961 92 80 55
0.036431353203804986 0.1241265985427506 -0.6958750942489764 145 128 97
0.03637908811896476 0.12388444474495972 -0.6980203930562265 157 137 97
0.03662586017041129 0.12421448028714416 -0.6997071810676024 146 130 86
0.035994195014371205 0.12286253226162716 -0.7027575396018979 146 130 91
0.03627804410199596 0.12326313249311757 -0.7043929979138432 142 124 83
0.036302817879887525 0.12316747140495124 -0.7064334883506925 160 140 97
0.03627953035845588 0.12297952158394593 -0.7085524122397745 152 134 93
0.03618161184667995 0.1226483299039638 -0.710792159646792 149 129 92
0.03593512494453398 0.12203213952263015 -0.7132701969807047 135 116 77
0.035774383544237606 0.12157988941310521 -0.715618628748136 159 142 99
0.0358942841360438 0.12166526213330589 -0.7175275805439933 119 103 68
0.035576281473969004 0.12091090622250328 -0.7201345147238576 158 142 104
0.035217852367626104 0.12007858183314798 -0.7228123684115476 154 133 89
0.03469616332754254 0.1189326669907193 -0.7257580175019184 164 142 97
0.035513722564429334 0.12035513911794296 -0.726565699102562 158 139 97
0.035780146825010614 0.1207205248976482 -0.7282550877454165 168 150 104
0.03566024688194859 0.12034453442803048 -0.7305683270756655 163 145 95
0.03558655248384186 0.1200568987032194 -0.7328115443653653 178 157 109
0.035344616167933995 0.11944602428023951 -0.7353318742238358 168 151 105
0.035073762343325404 0.11877922742692282 -0.7379051225407559 162 146 104
0.035219797347850273 0.11891251056477498 -0.7398044566928097 156 137 96
0.03491156880295966 0.11817322149496887 -0.7424492194768587 165 146 104
0.03447575909423506 0.11718841660617929 -0.7453098977590435 147 132 91
0.03411361318015249 0.11634459583768142 -0.7480571495197116 150 132 88
0.034180210414551104 0.1163241206206139 -0.7501038404000688 163 147 106
0.033770390143014625 0.1153878388663408 -0.7529421914401813 108 96 64
0.03312447992138033 0.1139972263960374 -0.7561801213281477 91 82 55
0.03241927561855598 0.1124919377205778 -0.7595266993837954 103 92 59
0.030111130155847404 0.10790371620630099 -0.7655606363087104 108 93 57
0.02945608969502929 0.10649291524375329 -0.7688520582319731 95 81 47
0.03127630967188136 0.10984262230176195 -0.7679959054443676 78 62 36
0.03006359541303394 0.10735837931213546 -0.7722349076244326 93 78 53
0.02978284334498392 0.10666633472949535 -0.7749149778051516 93 78 55
0.029532320880732932 0.10603202090547653 -0.7775503207036535 60 47 27
0.029270339822192584 0.10537522325115631 -0.7802113471169734 57 45 24
0.029591513016108434 0.10584067835016889 -0.7818849190441459 74 60 36
0.03125202311645228 0.1088850375300687 -0.7812700559279029 98 84 47
0.03098025715658652 0.1082089328707175 -0.7839545727461725 142 129 88
0.030666221670844415 0.10745096284244018 -0.7867182143776185 103 90 63
0.030241720218456405 0.10647969862796608 -0.7896791890313769 67 54 30
0.03152802000271529 0.10880442683835345 -0.7896904346712772 107 92 68
0.031469226110424034 0.1085374497655689 -0.792024889265317 93 79 53
0.03168730719000011 0.1088038695729385 -0.7938823163079156 84 70 46
0.032527503591023105 0.1102695685191368 -0.7946565672707839 91 77 51
0.032846937525291 0.11073140948806859 -0.7963369634383909 97 83 56
0.033350737081959805 0.11154877624964354 -0.7976946712937809 106 91 62
0.03368162459547874 0.11203268521863283 -0.7993552935186287 121 105 77
0.03347635692117337 0.11148215095074873 -0.801962111745635 137 122 92
0.03353406651731579 0.11143866329526769 -0.8041096938001684 113 99 66
0.03425540689045797 0.11267575433692106 -0.8050833890468891 115 102 69
0.0345253806604688 0.11304178629937148 -0.8068566200321936 102 87 59
0.03489459037330281 0.11359933257244428 -0.80845397782099 77 61 35
0.03544658072770536 0.11450982468668255 -0.8097244989458954 73 57 35
0.03562848186946625 0.11470564767135014 -0.8116572854249545 69 54 33
0.03589754576619571 0.11506970463810762 -0.8134353112513055 72 57 33
0.03613097523447423 0.11536483185470145 -0.8152788050004917 80 63 38
0.03664093761551376 0.1161942356179251 -0.8166235067498714 86 70 44
0.036911167113945195 0.11656037412619807 -0.8184019066879953 85 70 44
0.03677380414374962 0.11613849839199433 -0.8209231014825887 69 53 26
0.03753123810908672 0.11744633835444229 -0.8218169596441725 107 89 59
0.038016811611533446 0.11822870468412844 -0.8232044437180551 110 94 61
0.038471094514153786 0.11895061984615699 -0.8246483101430004 101 84 57
0.039341256606029926 0.12047712490015822 -0.825326222458549 136 122 93
0.03917182786404122 0.11999246079661402 -0.8279173946938448 114 102 70
0.039018533304101086 0.11953862681646393 -0.8304844336569951 84 74 44
0.03884294264114514 0.11904125271897795 -0.833098413142761 80 67 37
0.03865813379760338 0.11852563219979634 -0.835735359891838 78 62 34
0.03947199379767592 0.11994336074938897 -0.8365147945318478 87 71 43
0.03998840129188147 0.12078532129634487 -0.8378463531448804 76 63 35
0.04121535906022773 0.12300374750004184 -0.8378433252707082 84 71 40
0.040949620386888916 0.12233081252568026 -0.8406401027897512 87 73 41
0.04152044409648542 0.12327847467119732 -0.8418652783334026 104 89 57
0.04239183380135422 0.12480880639280548 -0.8425198398603636 119 106 72
0.04276483429584903 0.1253733656255991 -0.8441148788938028 109 97 62
0.04331632427190281 0.12628398100407337 -0.8453704664269917 115 102 69
0.043942428059777605 0.12733940920658637 -0.8464819558269839 126 108 79
0.04417420672622695 0.1276301877816456 -0.8483452684040804 131 112 82
0.04451145477622234 0.12812545959003696 -0.8500078719782383 137 119 84
0.04477133051008862 0.12847057061324632 -0.8518198163482994 141 120 85
0.04507810005966556 0.12890659581916414 -0.8535426323606501 120 100 74
0.04548337202000212 0.12953376060619767 -0.8550757526342094 49 42 27
0.045570610111070456 0.12954350803234538 -0.8572255067325228 23 22 15
0.04426882295575649 0.12685586869676854 -0.8620799468407134 35 32 28
0.04449778442673523 0.12713991418686876 -0.8639670839748372 65 60 55
0.045264642456305876 0.1284687107453906 -0.8648040083921096 101 96 90
0.04552116693891345 0.1288062731918694 -0.8666375976706259 124 120 115
0.04531608022175125 0.12824671600988544 -0.869380256221103 153 150 147
0.046104722528905795 0.12961814691287146 -0.8701699559910004 175 175 174
0.04734265056002131 0.13186328033023262 -0.8700670597771886 187 187 187
0.04602084881247395 0.1291320176237754 -0.8750295753595294 194 194 196
-0.054681299583713226 -0.01197117420360487 -0.23239712489048459 177 177 179
-0.05726418432080259 -0.01684206385353139 -0.2350604462352617 178 178 178
-0.05684871624490267 -0.016189038472436953 -0.2364909079149209 177 178 177
-0.05544160427796459 -0.013708452810291885 -0.23750453255250817 167 163 157
-0.0547268036338686 -0.012503456905870347 -0.23880471792060182 126 115 101
-0.05407502527958064 -0.011414482764428649 -0.24012960227904323 138 124 106
-0.053617084805409256 -0.010682736843686189 -0.24153586245832587 167 151 124
-0.05249321749040845 -0.00872312828766883 -0.24265385305395637 181 165 136
-0.051554048165904025 -0.007103776382722651 -0.24384756654786452 166 150 124
-0.05144497980710317 -0.0070150475692524195 -0.24540132495941 150 135 112
-0.05076748582162864 -0.005878013515391328 -0.24670589691387748 152 139 112
-0.04990063222839255 -0.004391546372006477 -0.24792444845578912 187 174 142
-0.049554203789025086 -0.00386495884090432 -0.2493725413841696 175 159 127
-0.04800657088152705 -0.0011220998938069326 -0.2502801017869298 146 131 103
-0.04750038733908083 -0.00030047461815316256 -0.25165227382923244 116 104 83
-0.04819014465635164 -0.0016858556137697295 -0.25356896989718014 78 68 56
-0.04779370016637806 -0.0010668980793800825 -0.25499329741841875 51 45 38
-0.047928965711204634 -0.0014294031388506073 -0.2566630991171054 41 37 33
-0.04847991348345274 -0.00255951143317798 -0.2585292505661061 17 15 12
-0.04730775002878181 -0.0005085883724794127 -0.2595940781578344 14 13 10
-0.045707060411867326 0.002333973765862349 -0.26045195731613874 14 13 11
-0.04922791700676041 -0.004281147952055128 -0.263731619356522 13 11 10
-0.047346822763244735 -0.0009207176383593807 -0.2644560505949635 27 23 18
-0.04577812349501157 0.0018633185423101717 -0.2653212368332083 77 71 61
-0.04288947133109854 0.0070863521326939155 -0.2655407355116571 105 95 83
-0.04243287787127176 0.007816980041540966 -0.26692812268671173 102 89 72
-0.04197653717378926 0.0085471858780682 -0.26831499269879044 116 104 87
-0.04156329952517163 0.009197780404220299 -0.2697224614507993 107 98 84
-0.04167142181657425 0.008884793013335016 -0.27138806610088206 57 48 42
-0.04103145375113587 0.009954433149731823 -0.2726832687887859 34 28 23
-0.039531544034255274 0.012613966068945923 -0.2735449860683665 32 26 17
-0.039113113102357426 0.013274440547319105 -0.2749458705186884 30 25 16
-0.03889524510970195 0.013564077643294273 -0.2764482693426242 21 16 15
-0.038972857540625815 0.013307211097750987 -0.278102582334309 19 10 11
-0.03816983078541146 0.014678955623882786 -0.2793065385138466 70 63 57
-0.037717264701119274 0.015402621349854304 -0.28068906359145007 119 113 101
-0.0379918406635974 0.01478111777816525 -0.2824495497011017 129 123 107
-0.037667858340006036 0.01526680445439911 -0.28390043259902553 130 122 108
-0.03725408338981858 0.015918634689233088 -0.28530417819650855 114 106 93
-0.036529587581509496 0.017145530443178666 -0.28654284526799645 72 64 53
-0.03631574746971394 0.017427428227750605 -0.2880514403736704 42 33 26
-0.036139376002784815 0.01763990713983936 -0.2895809946605282 32 23 18
-0.036290528214192215 0.01724595766503048 -0.2912883312975749 28 21 16
-0.03619328333103639 0.01731170332033262 -0.2928640553530467 31 23 19
-0.03526283630544367 0.018920228025329472 -0.29398667411835694 42 34 31
-0.03547461418084936 0.018413627506929292 -0.29573260663781 34 27 27
-0.034775738690463735 0.0195934935755481 -0.29697937135747576 23 17 18
-0.03412138458259335 0.02069104092427486 -0.29824866274134193 71 65 63
-0.03359389923233618 0.021553679366610498 -0.2995868809198037 82 77 72
-0.03295928666898703 0.022614888998440455 -0.3008638272040062 86 78 69
-0.03317111994940183 0.02210768028823408 -0.3026169929658793 81 72 61
-0.033562044647400986 0.021268306618831098 -0.30447545151108774 61 52 43
-0.03297613018924331 0.02223921288628239 -0.30578077049083285 38 29 22
-0.0328140228712384 0.022424584578422474 -0.30732798810179185 60 52 46
-0.03239387172981967 0.023088281588748746 -0.30872740501889695 65 58 52
-0.031784181338239265 0.024103455370258292 -0.3100163271822028 35 28 23
-0.03116398241708996 0.025138232249692638 -0.3112974656831482 48 41 34
-0.030652308990524492 0.025971851423392117 -0.3126405997438906 71 67 57
-0.02995948703387316 0.027141553080008332 -0.3138757762987159 48 45 37
-0.029413493189462334 0.02803902554873676 -0.31519590550193965 32 28 24
-0.02871331578199557 0.02922264898846126 -0.31642277623406345 28 24 21
-0.028598523882476787 0.029320207800310527 -0.3179986081061166 21 19 17
-0.028389457254032115 0.02959261389081419 -0.3195191019221861 18 17 16
-0.027935470697185126 0.030319531936717478 -0.3208919912179079 16 15 14
-0.027568864554351452 0.030884296752867246 -0.32231749007475724 16 14 14
-0.027326554237172077 0.031218316187277037 -0.32381907281117667 18 16 16
-0.027149965729715515 0.031430259884645734 -0.3253618594476936 19 17 17
-0.026802794190807847 0.03195888485344919 -0.32680012421894644 16 14 14
-0.026677075799016826 0.03207623361304164 -0.32837630875434193 17 15 15
-0.0265801146454405 0.03214006552477508 -0.32997196682560326 19 18 16
0.04089428072161197 0.1410814730282496 -0.5211665520093254 97 88 73
0.042735183904656394 0.14381973194298633 -0.5297164480839712 88 80 68
0.0427443831023353 0.14371158395503256 -0.5314948549453664 88 79 66
0.042690299649377816 0.14348320707339363 -0.5333511715128157 86 76 63
0.042748468470513876 0.1434675644787723 -0.5350768490919733 85 75 64
0.04280663698329003 0.14345175891998596 -0.5368048403887623 84 75 63
0.04281596323276412 0.14334310079974777 -0.5385937973515329 82 75 60
0.04283952697114769 0.1432612744776325 -0.5403683260367816 89 82 68
0.042744414594922425 0.14295397992185072 -0.5422889455802323 89 83 68
0.04274768310592041 0.14283321910419827 -0.5440938197114613 94 88 75
0.04305590732271026 0.14329134085473236 -0.5455302894477695 103 97 85
0.043233795937134244 0.1435019115926553 -0.5471262250674469 97 91 79
0.043565250183861655 0.14400408113789653 -0.5485353245191544 90 84 72
0.04349812769435213 0.14374904142658013 -0.5504346248233208 95 89 75
0.043311822000134705 0.1432673077955618 -0.552484376881812 95 89 76
0.043104438634885986 0.14274521018173286 -0.5545646248436703 92 84 71
0.03883281677672383 0.13449811984833185 -0.5616978423781372 85 77 65
0.038594155919997535 0.13378474447478939 -0.5656950754974381 82 75 58
0.03853104538454727 0.1335345490399185 -0.5676290124295044 89 82 64
0.03908005548664717 0.13444825456844614 -0.5687958025188566 89 82 60
0.040196331581802566 0.13644108353688944 -0.5692443919971439 106 96 69
0.040141491557760436 0.13620642382083142 -0.5711706711198985 118 106 77
0.04011453079492074 0.13602457221891617 -0.5730648907232119 116 101 73
0.04007740491084875 0.13582315441634668 -0.5749752404740617 112 98 66
0.03993116231787082 0.13541382637739335 -0.5770285119955033 116 102 67
0.03986882705584469 0.13516393008269012 -0.5789782168197082 109 94 64
0.0398023507693267 0.13490590505093508 -0.5809367427859896 114 99 72
0.039735717500703704 0.13464733337906132 -0.582899000791959 125 110 79
0.03979887169580872 0.13463569238155804 -0.5846964691546164 113 97 67
0.03920219454217934 0.13336703968580205 -0.5873549623966687 101 86 62
0.03933210095611373 0.1334820268819621 -0.5890729910514931 117 102 75
0.03961799407622633 0.1338940972398568 -0.5905885999598627 127 112 83
0.039560544786114066 0.13365182421312127 -0.5925559309862457 151 136 100
0.03970729406442526 0.13379850624582326 -0.5942575609560412 165 149 106
0.03975579165377514 0.1337577685346729 -0.5960908968108392 138 121 83
0.03977875523099538 0.13366816495081354 -0.5979607194880392 121 102 69
0.03956234718056756 0.1331219053188676 -0.6001520361430125 146 127 88
0.039794104360061436 0.13343004268445852 -0.6017497040147677 152 135 91
0.03983171071103405 0.13336776337633066 -0.6036085530455488 151 132 89
0.040722234791009476 0.13493249672283705 -0.6043236179806335 164 144 105
0.0404774531852167 0.13433126592480982 -0.6065650399126831 148 128 92
0.040319299256453174 0.1338949929470338 -0.6086944490425448 148 128 92
0.03995395709621701 0.1330629429067834 -0.6111095099262275 138 118 80
0.03975866393315024 0.13255508194726817 -0.6132992911613283 149 128 89
0.04020218870964045 0.13326660283219255 -0.6146212516356524 149 131 92
0.03990703244351147 0.1325675615874929 -0.6169546818803753 125 107 71
0.039534659182767114 0.1317206406551767 -0.6193999499274582 141 121 86
0.03952909106036157 0.13157396477671685 -0.6213457260614611 160 141 102
0.039652881284636766 0.131674214293294 -0.6231157012867979 136 118 77
0.039790165446451226 0.13180010605651193 -0.6248689852278149 152 131 91
0.03991821448826766 0.13190821280731466 -0.6266370505506126 150 128 89
0.03997544718499123 0.1318808134183874 -0.6285060371084602 162 143 102
0.03984601079649508 0.13149635368268123 -0.6306392176637451 159 141 99
0.03999727168227696 0.13164831796529436 -0.6323821534554508 157 139 94
0.03976715717300623 0.13107080151136768 -0.6346646593633748 135 114 77
0.040053106076396366 0.13148001411481397 -0.6362224227309083 114 94 59
0.04006073007222678 0.1313567321850042 -0.638175740499282 146 130 94
0.03999275463641458 0.1310885821960112 -0.6402397812628726 139 119 84
0.03987658492943705 0.1307279371972941 -0.6423764350358694 161 142 102
0.039887050038789916 0.13060937273814416 -0.6443359466654166 159 143 103
0.04000272739188121 0.13069199817844077 -0.646147404403825 158 141 98
0.04011251145379823 0.1307631872895086 -0.6479695344213755 172 151 110
