ply
format ascii 1.0
element vertex 853
property float x
property float y
property float z
property float nx
property float ny
property float nz
property uchar diffuse_red
property uchar diffuse_green
property uchar diffuse_blue
property uchar class
property uchar detection
end_header
0.0660 0.1017 -0.4346 0.978 -0.191 0.081 92 71 43 0 0
0.0635 0.1032 -0.4537 0.850 -0.469 0.242 138 119 86 0 0
0.0637 0.1031 -0.4572 0.938 -0.347 0.018 98 78 46 0 0
0.0640 0.1029 -0.4588 0.962 -0.274 -0.014 143 124 90 0 0
0.0631 0.1035 -0.4629 0.890 -0.393 0.231 143 123 88 0 0
0.0635 0.1032 -0.4645 0.842 -0.379 0.383 156 136 101 0 0
0.0589 0.1060 -0.5094 0.903 -0.108 0.415 129 109 74 0 0
0.0595 0.1056 -0.5109 0.903 -0.108 0.415 160 138 98 0 0
0.0598 0.1054 -0.5126 0.951 -0.013 0.309 164 145 104 0 0
0.0565 0.1074 -0.5258 1.000 -0.006 -0.024 147 127 93 0 0
0.0560 0.1076 -0.5318 0.940 -0.308 -0.151 143 124 83 0 0
0.0557 0.1078 -0.5339 0.940 -0.308 -0.151 153 133 94 0 0
0.0555 0.1080 -0.5359 0.940 -0.308 -0.151 149 131 94 0 0
0.0520 0.1101 -0.5987 0.959 -0.235 0.157 171 152 110 0 0
0.0381 0.1183 -0.7100 0.940 -0.178 0.291 160 152 128 0 0
0.0381 0.1183 -0.7121 0.955 -0.143 0.259 129 121 99 0 0
0.0373 0.1187 -0.7149 0.853 -0.433 0.291 113 104 83 0 0
0.0379 0.1184 -0.7166 0.858 -0.477 0.191 133 125 105 0 0
0.0439 0.1153 -0.8703 0.813 -0.166 0.559 137 133 127 0 0
0.0477 0.1131 -0.8716 0.729 -0.389 0.563 179 179 178 0 0
0.0681 0.0985 -0.3095 0.760 -0.545 0.353 47 35 19 0 0
0.0718 0.0964 -0.3294 0.955 -0.274 0.116 73 56 31 0 0
0.0674 0.0989 -0.3543 0.949 0.138 0.285 93 77 51 0 0
0.0666 0.0995 -0.3886 0.931 -0.358 0.068 97 79 49 0 0
0.0668 0.0994 -0.3902 0.901 -0.324 0.289 107 88 56 0 0
0.0659 0.0999 -0.4061 0.941 -0.230 0.249 102 85 56 0 0
0.0651 0.1004 -0.4329 0.838 -0.517 0.177 103 83 55 0 0
0.0624 0.1020 -0.4538 0.808 -0.559 0.187 139 116 83 0 0
0.0612 0.1026 -0.4671 0.899 -0.415 0.139 130 111 78 0 0
0.0580 0.1045 -0.5094 0.878 -0.423 0.224 162 141 103 0 0
0.0582 0.1044 -0.5112 0.924 -0.337 0.181 152 130 91 0 0
0.0584 0.1043 -0.5130 0.934 -0.349 0.074 147 128 92 0 0
0.0549 0.1063 -0.5531 0.914 -0.358 0.190 81 66 43 0 0
0.0554 0.1061 -0.5548 0.908 -0.391 0.152 98 83 55 0 0
0.0513 0.1085 -0.5966 0.925 -0.351 0.146 158 139 96 0 0
0.0515 0.1084 -0.5984 0.959 -0.235 0.157 168 149 107 0 0
0.0434 0.1131 -0.6799 0.855 -0.470 0.219 161 144 101 0 0
0.0446 0.1124 -0.6811 0.507 -0.725 0.466 172 154 110 0 0
0.0380 0.1162 -0.7159 0.979 -0.069 0.192 130 113 80 0 0
0.0380 0.1162 -0.7180 0.935 -0.199 0.293 128 109 77 0 0
0.0396 0.1153 -0.7190 0.994 -0.027 0.104 136 117 86 0 0
0.0389 0.1158 -0.7392 0.936 -0.351 -0.031 198 192 178 0 0
0.0390 0.1157 -0.7413 0.416 -0.907 0.063 206 203 196 0 0
0.0662 0.0977 -0.3049 0.957 0.008 0.290 48 36 20 0 0
0.0714 0.0948 -0.3293 0.948 -0.263 0.177 76 59 34 0 0
0.0662 0.0978 -0.3901 0.901 -0.324 0.289 95 76 44 0 0
0.0666 0.0976 -0.3917 0.901 -0.324 0.289 123 104 71 0 0
0.0672 0.0973 -0.3931 0.839 -0.380 0.390 127 108 76 0 0
0.0642 0.0990 -0.4294 0.903 -0.358 0.238 100 79 51 0 0
0.0618 0.1004 -0.4592 0.956 -0.044 0.291 130 110 79 0 0
0.0610 0.1008 -0.4723 0.904 -0.386 0.182 145 124 89 0 0
0.0611 0.1008 -0.4741 0.967 -0.252 0.028 151 129 92 0 0
0.0600 0.1014 -0.4856 0.958 -0.219 0.183 160 141 102 0 0
0.0606 0.1011 -0.4890 0.958 -0.219 0.183 158 139 99 0 0
0.0573 0.1030 -0.5094 0.924 -0.337 0.181 161 141 104 0 0
0.0576 0.1028 -0.5111 0.924 -0.337 0.181 150 130 94 0 0
0.0578 0.1027 -0.5129 0.968 -0.249 0.008 130 110 76 0 0
0.0578 0.1027 -0.5147 0.968 -0.249 0.008 131 112 79 0 0
0.0472 0.1088 -0.6392 0.848 -0.482 0.221 132 104 66 0 0
0.0476 0.1086 -0.6410 0.848 -0.482 0.221 147 120 83 0 0
0.0480 0.1084 -0.6448 0.805 -0.587 -0.084 168 153 112 0 0
0.0427 0.1114 -0.6819 0.945 -0.242 0.222 172 154 110 0 0
0.0431 0.1112 -0.6859 0.975 -0.174 0.137 165 149 106 0 0
0.0408 0.1125 -0.7240 0.945 0.324 0.042 155 137 99 0 0
0.0410 0.1125 -0.7261 0.945 0.324 0.042 173 155 114 0 0
0.0409 0.1125 -0.7283 0.953 0.299 -0.041 182 164 120 0 0
0.0407 0.1126 -0.7306 0.959 0.276 -0.059 179 162 116 0 0
0.0404 0.1128 -0.7331 0.979 0.167 -0.114 185 169 126 0 0
0.0388 0.1137 -0.7386 0.935 0.322 -0.149 177 165 126 0 0
0.0380 0.1142 -0.7415 0.991 -0.098 -0.090 175 165 136 0 0
0.0377 0.1143 -0.7439 0.981 -0.140 -0.134 172 163 141 0 0
0.0373 0.1145 -0.7464 0.914 -0.230 -0.334 182 177 158 0 0
0.0680 0.0949 -0.3106 0.965 -0.227 -0.132 53 37 21 0 0
0.0683 0.0948 -0.3466 0.931 -0.305 0.199 81 66 40 0 0
0.0633 0.0976 -0.4383 0.891 -0.420 0.172 115 94 63 0 0
0.0607 0.0991 -0.4848 0.845 -0.458 0.277 151 132 92 0 0
0.0589 0.1001 -0.4894 0.974 -0.206 0.095 157 138 98 0 0
0.0528 0.1036 -0.5573 0.840 -0.324 0.435 115 102 79 0 0
0.0510 0.1046 -0.5917 0.870 -0.438 0.226 140 116 77 0 0
0.0496 0.1055 -0.6046 0.832 -0.552 0.052 163 144 101 0 0
0.0494 0.1055 -0.6067 0.801 -0.597 0.046 176 157 112 0 0
0.0468 0.1070 -0.6410 0.915 -0.347 0.207 131 106 70 0 0
0.0427 0.1094 -0.6855 0.961 -0.151 0.234 119 103 67 0 0
0.0384 0.1118 -0.7427 0.942 0.211 -0.260 169 154 113 0 0
0.0378 0.1121 -0.7453 0.922 0.223 -0.318 169 155 114 0 0
0.0364 0.1129 -0.7487 0.936 0.067 -0.347 170 157 124 0 0
0.0354 0.1135 -0.7516 0.799 -0.536 -0.272 176 164 145 0 0
0.0347 0.1139 -0.7544 0.799 -0.536 -0.272 189 180 168 0 0
0.0338 0.1144 -0.7573 0.752 -0.480 -0.452 201 196 188 0 0
0.0692 0.0924 -0.3164 0.852 -0.523 0.014 69 56 39 0 0
0.0713 0.0913 -0.3320 0.843 -0.512 0.165 84 68 42 0 0
0.0680 0.0931 -0.3481 0.896 -0.425 0.125 92 76 50 0 0
0.0674 0.0935 -0.3685 0.907 -0.403 0.122 115 93 62 0 0
0.0672 0.0936 -0.3702 0.909 -0.369 0.196 121 104 71 0 0
0.0674 0.0935 -0.3719 0.960 -0.225 0.164 106 91 58 0 0
0.0631 0.0959 -0.4221 0.896 -0.372 0.244 99 81 52 0 0
0.0627 0.0961 -0.4418 0.842 -0.458 0.283 128 107 76 0 0
0.0591 0.0981 -0.4815 0.946 -0.317 0.074 151 132 90 0 0
0.0569 0.0993 -0.5031 0.964 -0.108 0.242 152 133 97 0 0
0.0484 0.1041 -0.6048 0.948 -0.316 -0.025 153 134 92 0 0
0.0481 0.1042 -0.6090 0.983 -0.182 -0.001 176 156 113 0 0
0.0481 0.1043 -0.6111 0.959 -0.279 -0.047 165 143 101 0 0
0.0458 0.1056 -0.6390 0.904 -0.384 0.187 133 107 66 0 0
0.0464 0.1052 -0.6407 0.875 -0.421 0.239 96 72 37 0 0
0.0450 0.1060 -0.6561 0.892 -0.430 0.142 174 155 112 0 0
0.0448 0.1061 -0.6645 0.974 -0.207 0.089 156 136 97 0 0
0.0433 0.1069 -0.6739 0.965 -0.199 0.171 153 132 86 0 0
0.0340 0.1121 -0.7543 0.889 -0.268 -0.371 155 142 109 0 0
0.0453 0.1058 -0.8240 0.960 -0.214 0.182 177 156 108 0 0
0.0459 0.1054 -0.8420 0.936 -0.286 0.207 151 132 89 0 0
0.0437 0.1066 -0.8745 0.455 -0.406 0.792 178 176 175 0 0
0.0542 0.0991 -0.2885 0.863 -0.455 0.220 176 169 158 0 0
0.0695 0.0905 -0.3291 0.852 -0.455 0.258 83 66 41 0 0
0.0646 0.0932 -0.3391 0.967 -0.039 0.252 95 78 53 0 0
0.0677 0.0915 -0.3496 0.808 -0.527 0.265 99 82 55 0 0
0.0674 0.0917 -0.3564 0.890 -0.445 -0.104 83 66 40 0 0
0.0668 0.0920 -0.3600 0.948 -0.318 0.010 97 79 51 0 0
0.0667 0.0920 -0.3701 0.857 -0.483 0.178 130 111 77 0 0
0.0668 0.0920 -0.3718 0.921 -0.387 0.048 125 106 73 0 0
0.0644 0.0933 -0.3916 0.919 -0.393 0.003 101 82 52 0 0
0.0640 0.0935 -0.4003 0.929 -0.370 -0.004 117 97 67 0 0
0.0623 0.0944 -0.4273 0.939 -0.340 -0.043 122 102 71 0 0
0.0619 0.0946 -0.4382 0.884 -0.445 0.142 121 104 73 0 0
0.0587 0.0964 -0.4832 0.918 -0.349 0.186 105 85 51 0 0
0.0566 0.0976 -0.5028 0.964 -0.108 0.242 156 138 100 0 0
0.0564 0.0977 -0.5198 0.948 -0.294 0.119 157 138 101 0 0
0.0528 0.0996 -0.5679 0.841 -0.523 0.138 166 146 107 0 0
0.0524 0.0999 -0.5702 0.851 -0.521 0.059 169 148 108 0 0
0.0496 0.1014 -0.5916 0.954 -0.293 0.064 151 129 92 0 0
0.0477 0.1025 -0.6088 0.941 -0.333 -0.052 170 151 108 0 0
0.0469 0.1029 -0.6113 0.965 -0.245 0.097 169 148 106 0 0
0.0476 0.1025 -0.6250 0.958 -0.286 -0.014 147 127 94 0 0
0.0454 0.1037 -0.6387 0.995 -0.067 0.073 151 127 86 0 0
0.0460 0.1034 -0.6404 0.961 -0.137 0.238 135 112 71 0 0
0.0429 0.1051 -0.6737 0.965 -0.199 0.171 136 111 72 0 0
0.0429 0.1051 -0.6821 0.976 -0.214 0.022 153 131 92 0 0
0.0428 0.1051 -0.7228 0.875 -0.435 0.212 163 144 100 0 0
0.0339 0.1100 -0.7986 0.708 -0.691 0.146 144 128 96 0 0
0.0343 0.1098 -0.8006 0.530 -0.789 0.313 155 139 104 0 0
0.0666 0.0903 -0.3480 0.894 -0.419 0.157 102 85 59 0 0
0.0668 0.0901 -0.3496 0.858 -0.495 0.141 104 87 59 0 0
0.0670 0.0900 -0.3512 0.858 -0.495 0.141 96 79 53 0 0
0.0670 0.0900 -0.3545 0.928 -0.361 -0.096 86 69 42 0 0
0.0669 0.0901 -0.3563 0.928 -0.361 -0.096 81 63 36 0 0
0.0667 0.0902 -0.3580 0.928 -0.361 -0.096 88 69 41 0 0
0.0663 0.0905 -0.3598 0.948 -0.318 0.010 100 81 51 0 0
0.0660 0.0906 -0.3667 0.932 -0.337 -0.131 115 95 63 0 0
0.0660 0.0906 -0.3684 0.921 -0.387 0.048 124 104 71 0 0
0.0660 0.0906 -0.3701 0.912 -0.374 0.168 130 110 75 0 0
0.0661 0.0905 -0.3717 0.921 -0.387 0.048 137 117 83 0 0
0.0649 0.0912 -0.3807 0.982 -0.143 0.119 107 89 59 0 0
0.0619 0.0928 -0.4219 0.919 -0.387 0.080 108 90 59 0 0
0.0618 0.0928 -0.4237 0.885 -0.455 0.098 91 71 41 0 0
0.0620 0.0928 -0.4254 0.885 -0.455 0.098 105 84 55 0 0
0.0613 0.0931 -0.4274 0.879 -0.476 -0.036 113 92 62 0 0
0.0608 0.0934 -0.4365 0.898 -0.367 0.243 112 93 66 0 0
0.0579 0.0949 -0.4813 0.939 -0.341 0.046 122 104 71 0 0
0.0558 0.0961 -0.5047 0.969 -0.207 0.136 150 132 96 0 0
0.0554 0.0963 -0.5199 0.919 -0.392 0.031 130 110 74 0 0
0.0398 0.1050 -0.5420 0.683 0.172 -0.710 203 203 204 0 0
0.0324 0.1091 -0.5481 0.689 0.200 -0.697 198 195 194 0 0
0.0407 0.1045 -0.5551 0.477 -0.360 0.802 46 36 26 0 0
0.0420 0.1037 -0.5563 0.439 -0.312 0.843 52 43 31 0 0
0.0515 0.0984 -0.5702 0.851 -0.521 0.059 168 149 108 0 0
0.0482 0.1002 -0.5979 0.894 -0.448 0.009 152 131 89 0 0
0.0464 0.1012 -0.6111 0.959 -0.269 0.087 152 129 86 0 0
0.0466 0.1011 -0.6231 0.930 -0.360 0.067 146 127 85 0 0
0.0455 0.1016 -0.6401 0.960 -0.082 0.268 142 122 81 0 0
0.0428 0.1031 -0.6794 0.953 -0.281 0.114 126 102 68 0 0
0.0431 0.1028 -0.7197 0.979 -0.178 0.103 142 125 85 0 0
0.0414 0.1038 -0.7232 0.975 -0.160 0.153 164 142 101 0 0
0.0648 0.0895 -0.3517 0.937 -0.274 0.214 105 88 60 0 0
0.0651 0.0893 -0.3533 0.937 -0.274 0.214 93 76 48 0 0
0.0653 0.0892 -0.3549 0.982 -0.095 0.164 85 68 40 0 0
0.0653 0.0892 -0.3565 0.962 -0.264 0.062 88 70 42 0 0
0.0661 0.0887 -0.3579 0.956 -0.293 -0.035 95 76 45 0 0
0.0664 0.0886 -0.3595 0.987 -0.099 0.130 106 87 55 0 0
0.0663 0.0886 -0.3612 0.981 -0.099 0.166 107 88 55 0 0
0.0666 0.0885 -0.3628 0.981 -0.099 0.166 101 80 49 0 0
0.0664 0.0886 -0.3645 0.989 -0.144 0.029 110 89 58 0 0
0.0664 0.0886 -0.3679 0.994 -0.103 -0.046 116 95 63 0 0
0.0663 0.0886 -0.3696 0.971 -0.216 -0.102 124 104 70 0 0
0.0640 0.0898 -0.3807 0.836 -0.509 0.205 119 102 72 0 0
0.0639 0.0899 -0.3842 0.914 -0.392 0.104 121 102 72 0 0
0.0606 0.0917 -0.4274 0.889 -0.457 -0.021 108 87 58 0 0
0.0601 0.0919 -0.4365 0.865 -0.466 0.188 104 85 58 0 0
0.0601 0.0919 -0.4400 0.753 -0.570 0.327 118 101 73 0 0
0.0399 0.1029 -0.5395 0.756 0.147 -0.638 177 169 153 0 0
0.0342 0.1061 -0.5505 0.811 0.329 0.484 105 97 90 0 0
0.0399 0.1029 -0.5551 0.704 0.107 0.702 63 54 45 0 0
0.0506 0.0969 -0.5566 0.904 -0.311 0.293 123 110 86 0 0
0.0434 0.1007 -0.6575 0.915 -0.395 0.084 171 154 110 0 0
0.0519 0.0950 -0.2852 0.918 -0.367 0.149 171 163 152 0 0
0.0650 0.0876 -0.3331 0.764 -0.536 0.360 91 74 48 0 0
0.0660 0.0870 -0.3377 0.871 -0.220 0.438 82 65 39 0 0
0.0666 0.0867 -0.3391 0.871 -0.220 0.438 79 63 37 0 0
0.0659 0.0870 -0.3593 0.991 -0.035 0.129 101 81 51 0 0
0.0656 0.0872 -0.3611 0.943 -0.033 0.331 107 88 56 0 0
0.0660 0.0869 -0.3627 0.967 -0.059 0.248 107 87 54 0 0
0.0656 0.0872 -0.3645 0.939 -0.303 0.162 109 89 56 0 0
0.0656 0.0871 -0.3696 0.989 -0.097 0.114 123 103 70 0 0
0.0635 0.0883 -0.3806 0.635 -0.639 0.434 106 87 57 0 0
0.0606 0.0898 -0.4077 0.881 -0.471 0.042 75 58 35 0 0
0.0569 0.0917 -0.4829 0.950 -0.276 0.147 134 115 80 0 0
0.0569 0.0917 -0.4847 0.962 -0.268 0.055 138 117 81 0 0
0.0310 0.1059 -0.5499 0.693 0.167 -0.701 199 199 202 0 0
0.0346 0.1039 -0.5518 0.797 0.456 0.396 101 97 87 0 0
0.0370 0.1026 -0.5524 0.639 0.128 0.759 81 75 66 0 0
0.0384 0.1018 -0.5535 0.639 0.128 0.759 80 72 64 0 0
0.0407 0.1005 -0.5541 0.858 -0.066 0.510 64 55 47 0 0
0.0469 0.0969 -0.5878 0.982 -0.187 0.007 150 129 86 0 0
0.0438 0.0985 -0.6567 0.941 -0.292 0.173 170 150 107 0 0
0.0323 0.1045 -0.7910 0.983 -0.147 0.114 143 127 89 0 0
0.0336 0.1037 -0.7922 0.981 0.019 0.194 152 136 100 0 0
0.0340 0.1035 -0.7942 0.980 0.112 0.167 159 141 105 0 0
0.0392 0.1006 -0.7967 0.788 0.379 0.486 148 132 97 0 0
0.0424 0.0989 -0.7986 0.880 -0.069 0.469 150 132 94 0 0
0.0434 0.0983 -0.8045 0.986 -0.117 0.116 176 157 115 0 0
0.0438 0.0980 -0.8133 0.950 -0.312 0.018 173 155 110 0 0
0.0441 0.0977 -0.8522 0.945 -0.327 -0.009 159 142 97 0 0
0.0657 0.0853 -0.3591 0.884 -0.465 -0.054 106 87 56 0 0
0.0656 0.0854 -0.3608 0.884 -0.465 -0.054 108 91 59 0 0
0.0655 0.0854 -0.3626 0.856 -0.509 -0.089 105 85 53 0 0
0.0619 0.0873 -0.3809 0.768 -0.593 0.244 97 76 48 0 0
0.0621 0.0872 -0.3825 0.703 -0.679 0.211 95 74 46 0 0
0.0624 0.0871 -0.3842 0.765 -0.623 0.164 115 95 66 0 0
0.0580 0.0893 -0.4349 0.847 -0.532 0.007 100 82 53 0 0
0.0584 0.0890 -0.4490 0.855 -0.504 0.123 106 90 65 0 0
0.0586 0.0889 -0.4507 0.893 -0.441 0.093 107 90 64 0 0
0.0580 0.0893 -0.4546 0.900 -0.434 0.032 118 99 71 0 0
0.0575 0.0895 -0.4712 0.926 -0.368 -0.089 137 119 82 0 0
0.0529 0.0918 -0.5294 0.948 -0.223 -0.228 141 122 85 0 0
0.0440 0.0968 -0.5383 0.739 0.219 -0.637 201 198 194 0 0
0.0362 0.1010 -0.5523 0.847 0.283 0.450 92 85 76 0 0
0.0503 0.0931 -0.5578 0.834 -0.426 0.350 117 102 73 0 0
0.0432 0.0967 -0.6565 0.941 -0.292 0.173 172 149 107 0 0
0.0414 0.0974 -0.7540 0.992 -0.032 -0.118 168 150 116 0 0
0.0349 0.1009 -0.7859 0.905 0.395 0.156 154 135 98 0 0
0.0353 0.1007 -0.7878 0.905 0.395 0.156 154 135 95 0 0
0.0360 0.1003 -0.7896 0.877 0.446 0.179 150 132 92 0 0
0.0434 0.0961 -0.8129 0.956 -0.149 0.254 165 145 102 0 0
0.0436 0.0960 -0.8150 0.972 -0.177 0.154 160 141 98 0 0
0.0432 0.0961 -0.8499 0.857 -0.493 0.148 157 142 97 0 0
0.0435 0.0959 -0.8520 0.857 -0.493 0.148 164 148 100 0 0
0.0437 0.0958 -0.8541 0.857 -0.493 0.148 159 141 102 0 0
0.0647 0.0841 -0.3425 0.920 -0.347 0.183 88 71 46 0 0
0.0639 0.0846 -0.3445 0.862 -0.398 0.313 98 81 56 0 0
0.0606 0.0862 -0.3811 0.914 -0.406 -0.024 112 92 60 0 0
0.0610 0.0860 -0.3827 0.920 -0.386 0.068 96 77 44 0 0
0.0607 0.0862 -0.3845 0.952 -0.303 0.039 115 96 64 0 0
0.0604 0.0863 -0.3863 0.910 -0.413 0.044 113 93 64 0 0
0.0605 0.0863 -0.3880 0.910 -0.413 0.044 103 84 53 0 0
0.0568 0.0881 -0.4494 0.836 -0.495 0.238 104 89 64 0 0
0.0575 0.0877 -0.4509 0.894 -0.412 0.175 99 84 58 0 0
0.0518 0.0905 -0.5239 0.807 -0.583 0.097 121 98 66 0 0
0.0518 0.0905 -0.5258 0.899 -0.419 0.128 114 93 60 0 0
0.0510 0.0910 -0.5281 0.989 -0.011 0.149 120 101 68 0 0
0.0525 0.0901 -0.5292 0.954 -0.222 -0.203 150 131 98 0 0
0.0496 0.0915 -0.5733 0.989 -0.069 -0.127 134 112 73 0 0
0.0409 0.0959 -0.6869 0.961 -0.150 0.231 130 111 77 0 0
0.0414 0.0956 -0.6886 0.961 -0.111 0.254 125 108 75 0 0
0.0346 0.0990 -0.7832 0.813 0.556 0.171 149 131 97 0 0
0.0352 0.0986 -0.7850 0.813 0.556 0.171 156 136 99 0 0
0.0353 0.0986 -0.7872 0.793 0.575 0.204 165 147 106 0 0
0.0455 0.0927 -0.8495 0.851 -0.520 -0.072 163 146 101 0 0
0.0428 0.0941 -0.8542 0.857 -0.493 0.148 152 134 97 0 0
0.0408 0.0956 -0.3190 -0.002 -0.411 0.912 84 80 72 0 0
0.0647 0.0823 -0.3472 0.933 -0.281 0.225 103 86 56 0 0
0.0636 0.0828 -0.3694 0.850 -0.512 0.126 128 108 76 0 0
0.0598 0.0848 -0.3811 0.915 -0.403 -0.022 122 102 66 0 0
0.0599 0.0848 -0.3828 0.934 -0.356 -0.039 108 91 57 0 0
0.0599 0.0848 -0.3845 0.934 -0.356 -0.039 106 89 58 0 0
0.0598 0.0848 -0.3863 0.910 -0.413 0.044 111 93 62 0 0
0.0598 0.0848 -0.3880 0.928 -0.362 -0.090 105 87 55 0 0
0.0554 0.0869 -0.4479 0.654 -0.675 0.341 88 75 56 0 0
0.0558 0.0867 -0.4495 0.713 -0.669 0.210 94 81 59 0 0
0.0561 0.0865 -0.4511 0.713 -0.669 0.210 86 74 50 0 0
0.0544 0.0872 -0.4977 0.940 -0.330 0.088 127 105 68 0 0
0.0524 0.0883 -0.5193 0.837 -0.494 0.235 116 94 62 0 0
0.0408 0.0946 -0.5430 0.729 0.229 -0.645 202 204 204 0 0
0.0485 0.0902 -0.5695 0.968 -0.249 0.034 161 140 100 0 0
0.0444 0.0922 -0.6178 0.944 -0.330 0.006 154 128 82 0 0
0.0424 0.0932 -0.6435 0.974 -0.091 0.208 166 144 105 0 0
0.0414 0.0937 -0.6587 0.977 -0.090 0.191 170 149 104 0 0
0.0408 0.0939 -0.6864 0.953 -0.103 0.284 145 124 86 0 0
0.0411 0.0937 -0.6882 0.961 -0.111 0.254 142 122 88 0 0
0.0406 0.0940 -0.6907 0.949 -0.313 0.027 118 98 61 0 0
0.0403 0.0940 -0.7101 0.889 -0.385 0.250 118 92 51 0 0
0.0405 0.0939 -0.7121 0.967 -0.228 0.109 132 107 70 0 0
0.0411 0.0935 -0.7224 0.943 -0.327 0.059 168 150 107 0 0
0.0413 0.0934 -0.7244 0.922 -0.376 0.095 178 164 120 0 0
0.0378 0.0951 -0.7688 0.973 0.179 -0.147 177 160 116 0 0
0.0431 0.0918 -0.8532 0.874 -0.485 -0.029 131 117 83 0 0
0.0424 0.0922 -0.8561 0.982 -0.188 0.007 115 104 79 0 0
0.0540 0.0867 -0.2819 0.800 0.418 0.430 157 140 110 0 0
0.0543 0.0865 -0.2834 0.965 0.106 0.240 157 138 100 0 0
0.0583 0.0843 -0.2902 0.823 -0.203 0.530 84 70 48 0 0
0.0593 0.0838 -0.2916 0.803 -0.101 0.588 50 37 23 0 0
0.0651 0.0805 -0.2977 0.856 -0.493 0.154 152 145 139 0 0
0.0653 0.0804 -0.2993 0.780 -0.616 0.109 181 180 181 0 0
0.0660 0.0799 -0.3266 0.804 -0.544 0.240 75 57 33 0 0
0.0647 0.0805 -0.3336 0.952 -0.288 0.106 91 74 48 0 0
0.0642 0.0808 -0.3421 0.956 -0.282 0.077 95 77 48 0 0
0.0607 0.0825 -0.3719 0.739 -0.669 0.076 123 103 71 0 0
0.0604 0.0827 -0.3737 0.805 -0.588 -0.077 131 111 77 0 0
0.0592 0.0834 -0.3776 0.945 -0.327 -0.006 124 104 69 0 0
0.0595 0.0832 -0.3826 0.859 -0.505 -0.084 121 106 73 0 0
0.0593 0.0833 -0.3844 0.824 -0.561 -0.079 100 84 56 0 0
0.0550 0.0851 -0.4822 0.891 -0.446 0.086 106 86 55 0 0
0.0529 0.0861 -0.4999 0.939 -0.340 0.040 140 118 79 0 0
0.0530 0.0861 -0.5017 0.939 -0.340 0.040 132 110 71 0 0
0.0531 0.0860 -0.5035 0.939 -0.340 0.040 149 127 93 0 0
0.0532 0.0860 -0.5053 0.951 -0.285 0.116 143 119 88 0 0
0.0535 0.0858 -0.5070 0.981 -0.144 0.132 125 102 67 0 0
0.0518 0.0866 -0.5249 0.888 -0.457 -0.048 131 111 72 0 0
0.0434 0.0907 -0.6219 0.948 -0.318 -0.021 133 106 59 0 0
0.0403 0.0920 -0.7095 0.960 -0.247 0.136 130 108 69 0 0
0.0386 0.0929 -0.7129 0.929 -0.173 0.327 120 100 68 0 0
0.0391 0.0926 -0.7146 0.929 -0.173 0.327 92 72 37 0 0
0.0385 0.0926 -0.7742 0.998 -0.038 0.054 175 157 117 0 0
0.0437 0.0894 -0.8472 0.851 -0.520 -0.072 154 138 91 0 0
0.0425 0.0900 -0.8506 0.869 -0.483 -0.109 142 128 87 0 0
0.0421 0.0902 -0.8532 0.874 -0.485 -0.029 117 104 72 0 0
0.0566 0.0835 -0.2809 0.732 -0.666 -0.147 159 140 110 0 0
0.0566 0.0835 -0.2825 0.742 -0.652 -0.158 167 149 110 0 0
0.0577 0.0829 -0.2886 0.884 -0.288 0.368 92 79 47 0 0
0.0581 0.0827 -0.2901 0.803 -0.101 0.588 52 38 23 0 0
0.0590 0.0822 -0.2914 0.803 -0.101 0.588 42 28 18 0 0
0.0643 0.0790 -0.3335 0.952 -0.288 0.106 93 76 50 0 0
0.0598 0.0812 -0.3702 0.809 -0.587 0.023 111 92 60 0 0
0.0596 0.0813 -0.3720 0.739 -0.669 0.076 105 86 54 0 0
0.0596 0.0813 -0.3771 0.705 -0.704 -0.084 127 108 72 0 0
0.0527 0.0843 -0.4996 0.941 -0.337 0.005 146 127 85 0 0
0.0524 0.0845 -0.5016 0.939 -0.340 0.040 147 128 87 0 0
0.0529 0.0842 -0.5069 0.951 -0.285 0.116 120 100 65 0 0
0.0507 0.0852 -0.5307 0.949 -0.306 -0.080 105 84 54 0 0
0.0485 0.0863 -0.5608 0.919 -0.262 0.296 161 143 98 0 0
0.0375 0.0922 -0.5870 0.525 -0.850 -0.035 29 25 22 0 0
0.0385 0.0916 -0.5884 0.766 -0.640 -0.058 34 29 26 0 0
0.0384 0.0916 -0.5904 0.766 -0.640 -0.058 25 20 17 0 0
0.0433 0.0890 -0.5934 0.859 -0.476 0.190 28 21 15 0 0
0.0437 0.0887 -0.5971 0.589 -0.679 0.439 87 76 55 0 0
0.0388 0.0909 -0.6782 0.926 -0.347 0.148 135 114 68 0 0
0.0388 0.0909 -0.6802 0.888 -0.413 0.203 148 126 75 0 0
0.0379 0.0913 -0.6914 0.986 0.052 0.156 113 91 50 0 0
0.0382 0.0910 -0.7126 0.915 -0.255 0.314 131 115 83 0 0
0.0397 0.0898 -0.7748 0.983 0.107 0.146 177 158 118 0 0
0.0429 0.0876 -0.8495 0.896 -0.418 -0.148 154 139 99 0 0
0.0425 0.0878 -0.8521 0.909 -0.359 -0.213 142 128 94 0 0
0.0563 0.0819 -0.2808 0.513 -0.827 -0.230 158 142 105 0 0
0.0633 0.0777 -0.3434 0.961 -0.268 0.070 105 86 56 0 0
0.0630 0.0778 -0.3486 0.810 -0.547 0.211 124 105 73 0 0
0.0589 0.0799 -0.3669 0.923 -0.355 -0.151 121 105 71 0 0
0.0588 0.0800 -0.3686 0.914 -0.406 -0.031 107 91 58 0 0
0.0588 0.0800 -0.3703 0.903 -0.415 -0.110 113 97 63 0 0
0.0584 0.0802 -0.3722 0.902 -0.406 -0.146 109 93 60 0 0
0.0521 0.0828 -0.4976 0.978 -0.196 0.070 127 105 68 0 0
0.0522 0.0827 -0.4994 0.978 -0.196 0.070 151 132 90 0 0
0.0524 0.0826 -0.5012 0.968 -0.230 0.103 143 123 84 0 0
0.0525 0.0825 -0.5030 0.896 -0.441 -0.053 131 111 75 0 0
0.0431 0.0869 -0.6191 0.878 -0.350 0.327 149 122 80 0 0
0.0421 0.0874 -0.6217 0.905 -0.422 0.044 141 117 77 0 0
0.0424 0.0873 -0.6236 0.939 -0.342 -0.027 144 121 80 0 0
0.0397 0.0885 -0.6644 0.938 -0.323 0.128 123 94 53 0 0
0.0386 0.0889 -0.6776 0.914 -0.312 0.259 140 112 65 0 0
0.0381 0.0892 -0.6802 0.888 -0.413 0.203 149 121 74 0 0
0.0407 0.0875 -0.7230 0.870 -0.466 0.164 163 145 103 0 0
0.0403 0.0876 -0.7362 0.942 -0.243 0.230 185 166 123 0 0
0.0431 0.0854 -0.8416 0.895 -0.425 -0.137 163 145 99 0 0
0.0529 0.0818 -0.3057 0.546 -0.068 -0.835 178 179 181 0 0
0.0393 0.0892 -0.3151 0.539 -0.054 -0.841 175 176 178 0 0
0.0632 0.0759 -0.3482 0.944 -0.329 0.028 118 99 67 0 0
0.0584 0.0784 -0.3668 0.957 -0.288 -0.033 129 113 79 0 0
0.0612 0.0769 -0.3674 0.945 -0.326 -0.039 109 93 59 0 0
0.0519 0.0810 -0.4991 0.978 -0.196 0.070 144 125 85 0 0
0.0520 0.0809 -0.5010 0.968 -0.230 0.103 139 119 82 0 0
0.0470 0.0834 -0.5395 0.806 -0.559 0.195 149 130 90 0 0
0.0473 0.0832 -0.5413 0.806 -0.559 0.195 158 141 99 0 0
0.0428 0.0851 -0.6147 0.952 -0.277 0.133 158 138 97 0 0
0.0390 0.0869 -0.6477 0.960 -0.161 0.228 113 95 56 0 0
0.0383 0.0871 -0.6773 0.960 -0.156 0.234 111 83 35 0 0
0.0398 0.0858 -0.7338 0.925 -0.359 0.123 162 143 101 0 0
0.0393 0.0860 -0.7539 0.751 -0.261 0.606 169 153 111 0 0
0.0368 0.0865 -0.8698 0.997 -0.062 -0.045 106 101 94 0 0
0.0381 0.0858 -0.8710 0.601 -0.775 0.194 135 134 129 0 0
0.0545 0.0794 -0.2808 0.642 -0.734 -0.221 157 144 106 0 0
0.0639 0.0741 -0.2987 0.945 -0.256 0.205 165 166 162 0 0
0.0169 0.0985 -0.4438 -0.263 -0.956 0.129 186 188 191 0 0
0.0177 0.0981 -0.4453 -0.263 -0.956 0.129 186 187 190 0 0
0.0512 0.0794 -0.4972 0.923 -0.375 0.090 122 100 64 0 0
0.0501 0.0798 -0.5278 0.951 -0.113 0.288 126 106 67 0 0
0.0266 0.0921 -0.5901 0.230 0.117 0.966 87 79 70 0 0
0.0430 0.0830 -0.6060 0.976 -0.216 0.014 172 151 108 0 0
0.0418 0.0836 -0.6147 0.927 -0.353 0.129 133 116 74 0 0
0.0400 0.0843 -0.6547 0.957 -0.262 0.128 135 112 66 0 0
0.0395 0.0845 -0.6676 0.920 -0.349 0.175 132 101 54 0 0
0.0400 0.0842 -0.6693 0.903 -0.420 0.085 134 104 54 0 0
0.0385 0.0846 -0.7191 0.930 -0.271 0.249 142 128 86 0 0
0.0392 0.0842 -0.7207 0.817 -0.402 0.412 165 149 111 0 0
0.0393 0.0838 -0.7620 0.906 -0.113 0.408 170 153 106 0 0
0.0420 0.0821 -0.7978 0.928 -0.277 0.249 172 159 113 0 0
0.0344 0.0856 -0.8665 0.897 -0.380 0.224 26 23 16 0 0
0.0365 0.0844 -0.8716 0.601 -0.775 0.194 130 129 125 0 0
0.0520 0.0790 -0.2781 0.464 -0.635 0.617 160 142 101 0 0
0.0632 0.0727 -0.2986 0.917 -0.398 0.042 146 144 139 0 0
0.0633 0.0727 -0.3002 0.917 -0.398 0.042 177 179 179 0 0
0.0402 0.0851 -0.3142 0.657 0.390 -0.645 177 178 179 0 0
0.0625 0.0729 -0.3280 0.965 -0.125 0.231 87 70 43 0 0
0.0628 0.0726 -0.3328 0.959 -0.279 -0.048 86 69 43 0 0
0.0620 0.0730 -0.3414 0.984 -0.174 0.032 102 82 51 0 0
0.0621 0.0730 -0.3430 0.960 -0.280 0.002 111 92 60 0 0
0.0156 0.0972 -0.4551 -0.341 -0.924 0.174 191 191 192 0 0
0.0167 0.0966 -0.4564 -0.344 -0.921 0.185 192 190 193 0 0
0.0426 0.0813 -0.5957 0.595 -0.513 0.619 79 66 45 0 0
0.0395 0.0825 -0.6545 0.913 -0.408 0.020 138 112 68 0 0
0.0393 0.0825 -0.6733 0.930 -0.354 0.096 115 96 55 0 0
0.0384 0.0826 -0.7207 0.817 -0.402 0.412 167 154 114 0 0
0.0401 0.0814 -0.7432 0.926 -0.329 0.182 180 161 118 0 0
0.0447 0.0782 -0.8311 0.882 -0.472 0.004 172 155 109 0 0
0.0434 0.0788 -0.8437 0.982 -0.147 -0.119 163 146 102 0 0
0.0410 0.0799 -0.8668 0.306 -0.231 0.924 126 123 120 0 0
0.0506 0.0780 -0.2782 0.421 -0.775 0.470 172 153 107 0 0
0.0626 0.0713 -0.3001 0.906 -0.421 -0.027 168 166 164 0 0
0.0390 0.0839 -0.3160 0.658 0.389 -0.645 146 146 144 0 0
0.0602 0.0721 -0.3550 0.852 -0.523 0.040 122 103 69 0 0
0.0150 0.0954 -0.4679 -0.353 -0.905 0.237 194 195 197 0 0
0.0248 0.0890 -0.5902 0.805 0.593 0.016 101 94 82 0 0
0.0305 0.0859 -0.5947 0.358 0.249 0.900 40 35 31 0 0
0.0418 0.0798 -0.5957 0.724 -0.418 0.549 83 72 50 0 0
0.0387 0.0809 -0.6524 0.957 -0.262 0.128 155 127 84 0 0
0.0382 0.0811 -0.6672 0.916 -0.342 0.211 139 112 64 0 0
0.0390 0.0800 -0.7369 0.924 -0.335 0.184 175 158 115 0 0
0.0395 0.0797 -0.7408 0.952 -0.248 0.182 177 158 118 0 0
0.0398 0.0795 -0.7428 0.952 -0.248 0.182 181 162 120 0 0
0.0442 0.0763 -0.8377 0.924 -0.369 -0.100 169 152 107 0 0
0.0404 0.0780 -0.8665 0.251 -0.286 0.925 122 119 115 0 0
0.0419 0.0805 -0.3164 0.678 0.288 -0.677 109 103 97 0 0
0.0605 0.0702 -0.3446 0.938 -0.342 0.062 120 101 68 0 0
0.0465 0.0762 -0.5040 0.874 -0.328 0.358 85 69 43 0 0
0.0489 0.0748 -0.5064 0.945 -0.300 0.127 107 93 64 0 0
0.0490 0.0747 -0.5157 0.938 -0.293 0.184 132 118 82 0 0
0.0257 0.0865 -0.5972 0.671 0.489 0.557 40 35 31 0 0
0.0393 0.0789 -0.6188 0.910 -0.394 0.130 149 124 85 0 0
0.0402 0.0784 -0.6222 0.970 -0.224 0.090 119 98 63 0 0
0.0376 0.0794 -0.6671 0.916 -0.342 0.211 155 128 79 0 0
0.0365 0.0798 -0.6846 0.929 -0.343 0.139 126 98 48 0 0
0.0362 0.0799 -0.6870 0.884 -0.452 0.118 122 97 49 0 0
0.0364 0.0798 -0.6910 0.940 -0.304 0.156 104 79 40 0 0
0.0364 0.0797 -0.6931 0.961 -0.271 0.061 108 83 42 0 0
0.0374 0.0789 -0.7288 0.962 -0.190 0.195 164 145 101 0 0
0.0436 0.0742 -0.8652 0.921 0.066 0.384 144 141 137 0 0
0.0449 0.0734 -0.8734 0.488 -0.026 0.872 185 181 178 0 0
0.0482 0.0757 -0.2736 0.882 -0.307 0.358 157 140 105 0 0
0.0492 0.0752 -0.2749 0.782 -0.143 0.606 172 155 113 0 0
0.0484 0.0731 -0.5175 0.949 -0.277 0.150 142 125 91 0 0
0.0447 0.0746 -0.5596 0.767 -0.627 0.136 139 121 82 0 0
0.0402 0.0767 -0.5917 0.962 -0.170 0.213 40 31 24 0 0
0.0413 0.0761 -0.5950 0.862 -0.416 0.289 74 63 45 0 0
0.0372 0.0778 -0.6482 0.940 -0.120 0.320 110 90 53 0 0
0.0369 0.0776 -0.6712 0.967 -0.201 0.156 101 83 47 0 0
0.0448 0.0713 -0.8728 0.468 0.140 0.873 182 179 177 0 0
0.0465 0.0749 -0.2707 0.798 0.190 0.572 168 155 136 0 0
0.0476 0.0743 -0.2720 0.900 -0.024 0.436 156 139 108 0 0
0.0494 0.0733 -0.2746 0.880 0.113 0.462 177 161 114 0 0
0.0598 0.0670 -0.3443 0.837 -0.547 -0.004 118 99 66 0 0
0.0048 0.0949 -0.4867 -0.358 -0.866 0.349 142 135 119 0 0
0.0071 0.0936 -0.4874 -0.358 -0.866 0.349 138 131 116 0 0
0.0213 0.0859 -0.4955 -0.364 -0.926 0.102 71 62 47 0 0
0.0477 0.0714 -0.5325 0.939 -0.333 0.081 159 140 102 0 0
0.0382 0.0755 -0.6225 0.860 -0.427 0.280 144 121 77 0 0
0.0375 0.0757 -0.6372 0.970 -0.240 -0.032 127 102 55 0 0
0.0356 0.0760 -0.6946 0.909 -0.410 0.081 127 102 65 0 0
0.0376 0.0744 -0.7469 0.968 -0.074 0.240 152 133 94 0 0
0.0398 0.0730 -0.7693 0.962 -0.152 0.227 151 134 93 0 0
0.0396 0.0731 -0.7717 0.938 -0.303 0.165 152 135 92 0 0
0.0399 0.0729 -0.7737 0.894 -0.391 0.220 158 141 101 0 0
0.0405 0.0725 -0.7754 0.814 -0.487 0.315 154 137 95 0 0
0.0409 0.0723 -0.7773 0.898 -0.358 0.255 176 155 112 0 0
0.0407 0.0717 -0.8361 0.966 -0.247 0.076 161 144 100 0 0
0.0403 0.0719 -0.8411 0.979 -0.204 -0.027 151 134 90 0 0
0.0410 0.0716 -0.8429 0.902 -0.412 -0.127 163 146 102 0 0
0.0467 0.0730 -0.2704 0.815 0.438 0.380 164 147 116 0 0
0.0602 0.0651 -0.3307 0.975 0.035 0.217 102 82 53 0 0
0.0047 0.0928 -0.4939 -0.380 -0.886 0.267 142 134 122 0 0
0.0468 0.0700 -0.5269 0.888 -0.454 0.073 152 134 98 0 0
0.0403 0.0728 -0.5887 0.938 0.201 -0.281 43 35 32 0 0
0.0398 0.0728 -0.6048 0.858 -0.509 -0.063 148 127 84 0 0
0.0365 0.0744 -0.6210 0.962 -0.205 0.182 151 125 84 0 0
0.0382 0.0734 -0.6280 0.977 -0.214 0.002 148 128 89 0 0
0.0352 0.0741 -0.7050 0.962 -0.208 0.177 165 148 106 0 0
0.0402 0.0706 -0.7772 0.898 -0.358 0.255 163 142 100 0 0
0.0401 0.0700 -0.8314 0.976 -0.176 0.128 156 139 93 0 0
0.0401 0.0700 -0.8337 0.966 -0.247 0.076 158 141 95 0 0
0.0401 0.0699 -0.8360 0.986 -0.038 0.164 166 149 105 0 0
0.0364 0.0717 -0.8554 0.878 -0.454 -0.151 74 66 48 0 0
0.0361 0.0718 -0.8580 0.878 -0.454 -0.151 40 36 26 0 0
0.0326 0.0736 -0.8682 0.938 -0.252 0.237 63 59 54 0 0
0.0467 0.0713 -0.2701 0.779 0.317 0.541 179 161 122 0 0
0.0595 0.0637 -0.3306 0.852 -0.417 0.317 104 84 56 0 0
0.0600 0.0634 -0.3321 0.799 -0.442 0.407 105 85 56 0 0
0.0461 0.0682 -0.5420 0.960 -0.168 0.224 150 129 92 0 0
0.0425 0.0697 -0.5809 0.805 -0.580 -0.122 67 57 42 0 0
0.0422 0.0698 -0.5831 0.805 -0.580 -0.122 58 51 42 0 0
0.0416 0.0701 -0.5854 0.953 0.040 -0.301 41 35 29 0 0
0.0419 0.0699 -0.5872 0.733 -0.584 -0.349 37 29 26 0 0
0.0367 0.0723 -0.6244 0.935 -0.154 0.319 145 120 81 0 0
0.0354 0.0726 -0.6519 0.959 -0.153 0.238 101 85 57 0 0
0.0368 0.0706 -0.7506 0.904 -0.419 0.080 171 152 111 0 0
0.0375 0.0702 -0.7522 0.956 -0.290 0.037 167 148 106 0 0
0.0377 0.0701 -0.7542 0.935 -0.333 0.119 160 141 101 0 0
0.0399 0.0679 -0.8354 0.986 -0.038 0.164 149 134 90 0 0
0.0403 0.0677 -0.8374 0.986 -0.038 0.164 148 131 87 0 0
0.0361 0.0697 -0.8549 0.929 -0.283 -0.236 84 75 55 0 0
0.0467 0.0639 -0.8687 0.988 -0.078 -0.132 178 177 175 0 0
0.0591 0.0622 -0.3305 0.958 -0.052 0.283 108 87 59 0 0
0.0595 0.0620 -0.3320 0.958 -0.052 0.283 113 92 62 0 0
0.0451 0.0670 -0.5269 0.840 -0.530 0.114 114 99 69 0 0
0.0442 0.0673 -0.5484 0.885 -0.423 0.193 145 126 87 0 0
0.0415 0.0684 -0.5693 0.969 -0.229 0.092 148 129 88 0 0
0.0370 0.0701 -0.6237 0.917 -0.370 0.145 151 125 85 0 0
0.0350 0.0708 -0.6495 0.970 -0.183 0.160 99 77 45 0 0
0.0349 0.0708 -0.6516 0.926 -0.295 0.234 81 62 35 0 0
0.0370 0.0684 -0.7541 0.929 -0.336 0.154 171 152 111 0 0
0.0392 0.0671 -0.7678 0.960 -0.279 0.007 148 129 89 0 0
0.0392 0.0670 -0.7700 0.960 -0.279 0.007 149 130 91 0 0
0.0172 0.0801 -0.5073 -0.278 -0.870 0.407 66 56 45 0 0
0.0186 0.0794 -0.5084 -0.298 -0.887 0.352 87 77 65 0 0
0.0454 0.0647 -0.5415 0.959 -0.144 0.242 143 126 90 0 0
0.0408 0.0669 -0.5654 0.966 -0.198 0.168 155 133 93 0 0
0.0420 0.0662 -0.5685 0.905 -0.420 -0.071 154 135 92 0 0
0.0413 0.0665 -0.5767 0.935 -0.352 0.047 168 149 109 0 0
0.0404 0.0669 -0.5812 0.868 -0.475 -0.147 148 132 91 0 0
0.0357 0.0689 -0.6179 0.956 -0.292 -0.005 148 127 88 0 0
0.0352 0.0688 -0.6447 0.991 -0.117 0.067 136 110 64 0 0
0.0368 0.0667 -0.7319 0.868 -0.402 0.290 137 120 78 0 0
0.0416 0.0632 -0.8007 0.917 -0.368 0.155 178 159 117 0 0
0.0547 0.0613 -0.3037 0.970 -0.012 0.242 66 48 28 0 0
0.0550 0.0611 -0.3053 0.947 -0.113 0.300 68 49 28 0 0
0.0555 0.0608 -0.3067 0.871 0.063 0.486 75 54 33 0 0
0.0587 0.0588 -0.3333 0.724 -0.545 0.423 122 101 69 0 0
-0.0324 0.1047 -0.4833 0.603 0.728 0.326 131 121 105 0 0
-0.0168 0.0963 -0.4913 0.984 0.085 0.157 87 78 62 0 0
-0.0155 0.0956 -0.4926 0.991 -0.136 -0.006 90 81 66 0 0
0.0407 0.0648 -0.5766 0.935 -0.352 0.047 163 143 103 0 0
0.0407 0.0648 -0.5785 0.935 -0.352 0.047 146 128 90 0 0
0.0392 0.0654 -0.5933 0.966 -0.255 -0.038 163 145 108 0 0
0.0383 0.0657 -0.6037 0.953 -0.294 0.077 163 142 100 0 0
0.0353 0.0671 -0.6177 0.946 -0.243 0.215 153 132 94 0 0
0.0347 0.0670 -0.6486 0.960 -0.276 0.039 113 92 53 0 0
0.0343 0.0670 -0.6633 0.952 -0.304 0.023 147 123 82 0 0
0.0348 0.0663 -0.6901 0.902 -0.364 0.231 151 134 95 0 0
0.0381 0.0637 -0.7498 0.925 -0.165 0.343 166 147 107 0 0
0.0326 0.0650 -0.8604 0.977 0.038 -0.210 33 29 22 0 0
0.0527 0.0612 -0.2659 0.869 -0.188 0.457 161 142 104 0 0
0.0595 0.0567 -0.3229 0.915 -0.233 0.331 103 82 52 0 0
0.0578 0.0576 -0.3251 0.942 -0.319 0.107 103 83 53 0 0
0.0577 0.0576 -0.3284 0.990 -0.140 0.011 95 73 46 0 0
0.0582 0.0573 -0.3332 0.803 -0.594 0.049 118 102 65 0 0
0.0579 0.0574 -0.3349 0.790 -0.612 0.034 120 101 69 0 0
-0.0167 0.0942 -0.4966 0.919 -0.090 0.384 53 47 33 0 0
0.0428 0.0622 -0.5478 0.907 -0.413 0.080 130 110 78 0 0
0.0407 0.0630 -0.5703 0.824 -0.542 0.163 162 143 101 0 0
0.0393 0.0635 -0.5848 0.800 -0.558 0.220 133 114 77 0 0
0.0394 0.0633 -0.5906 0.865 -0.494 0.091 144 128 91 0 0
0.0347 0.0653 -0.6256 0.779 -0.561 0.280 160 136 93 0 0
0.0354 0.0649 -0.6292 0.776 -0.381 0.503 136 114 77 0 0
0.0351 0.0650 -0.6334 0.914 -0.405 0.009 146 119 76 0 0
0.0337 0.0652 -0.6631 0.952 -0.304 0.023 159 139 98 0 0
0.0334 0.0652 -0.6779 0.963 -0.182 0.196 159 141 100 0 0
0.0346 0.0639 -0.7215 0.933 -0.353 0.071 134 114 82 0 0
0.0376 0.0619 -0.7495 0.880 -0.290 0.376 159 140 98 0 0
0.0419 0.0589 -0.8013 0.944 -0.052 0.327 150 130 94 0 0
0.0404 0.0592 -0.8366 0.927 -0.374 0.021 166 148 104 0 0
0.0330 0.0627 -0.8593 0.977 0.038 -0.210 34 32 23 0 0
0.0584 0.0555 -0.3230 0.960 -0.250 0.122 109 88 56 0 0
0.0572 0.0560 -0.3332 0.803 -0.594 0.049 127 110 70 0 0
0.0579 0.0557 -0.3347 0.698 -0.661 0.275 117 98 63 0 0
0.0421 0.0606 -0.5458 0.850 -0.522 0.066 106 87 59 0 0
0.0400 0.0616 -0.5566 0.990 -0.129 -0.055 129 109 71 0 0
0.0383 0.0620 -0.5849 0.800 -0.558 0.220 133 114 78 0 0
0.0386 0.0618 -0.5867 0.800 -0.558 0.220 159 140 101 0 0
0.0353 0.0630 -0.6227 0.906 -0.413 -0.097 158 135 95 0 0
0.0323 0.0644 -0.6368 0.884 -0.455 0.105 157 131 87 0 0
0.0337 0.0624 -0.7173 0.911 -0.369 0.187 155 139 99 0 0
0.0342 0.0621 -0.7212 0.945 -0.298 0.134 148 126 91 0 0
0.0351 0.0615 -0.7313 0.914 -0.165 0.370 149 134 96 0 0
0.0417 0.0569 -0.8008 0.949 0.019 0.315 153 134 94 0 0
0.0393 0.0578 -0.8277 0.779 -0.582 0.233 156 139 94 0 0
0.0397 0.0575 -0.8296 0.779 -0.582 0.233 154 137 93 0 0
0.0396 0.0575 -0.8366 0.921 -0.383 0.065 153 134 90 0 0
0.0397 0.0574 -0.8387 0.921 -0.383 0.065 139 120 77 0 0
0.0397 0.0573 -0.8410 0.927 -0.374 0.021 148 129 84 0 0
0.0321 0.0610 -0.8664 0.918 -0.181 0.353 70 67 60 0 0
0.0468 0.0608 -0.2623 0.668 -0.743 -0.048 184 165 127 0 0
0.0564 0.0548 -0.3267 0.992 -0.127 -0.001 111 93 57 0 0
0.0563 0.0547 -0.3316 0.902 -0.426 -0.070 122 101 60 0 0
0.0566 0.0546 -0.3332 0.928 -0.366 0.074 135 117 74 0 0
-0.0290 0.0970 -0.4708 0.925 0.141 0.351 124 115 100 0 0
-0.0283 0.0967 -0.4724 0.788 0.312 0.531 126 117 101 0 0
-0.0235 0.0941 -0.4759 0.865 0.002 0.501 122 111 95 0 0
-0.0165 0.0901 -0.4956 0.992 -0.061 0.108 42 36 25 0 0
-0.0167 0.0900 -0.5112 0.994 -0.041 0.101 26 19 15 0 0
-0.0160 0.0896 -0.5128 0.961 -0.252 0.111 26 18 15 0 0
0.0240 0.0685 -0.5267 -0.288 -0.892 0.348 74 62 47 0 0
0.0256 0.0676 -0.5277 -0.295 -0.876 0.383 78 66 50 0 0
0.0399 0.0597 -0.5562 0.948 -0.318 -0.012 136 116 81 0 0
0.0371 0.0607 -0.5851 0.889 -0.439 0.129 137 118 84 0 0
0.0358 0.0610 -0.6078 0.796 -0.547 0.260 149 128 85 0 0
0.0321 0.0614 -0.7029 0.968 -0.193 0.158 144 123 87 0 0
0.0322 0.0613 -0.7071 0.894 -0.398 0.206 122 108 71 0 0
0.0338 0.0602 -0.7230 0.897 -0.384 0.221 147 132 92 0 0
0.0386 0.0560 -0.8298 0.902 -0.413 0.127 148 131 88 0 0
0.0387 0.0559 -0.8321 0.921 -0.383 0.065 155 138 92 0 0
0.0390 0.0556 -0.8386 0.921 -0.383 0.065 149 130 87 0 0
0.0391 0.0555 -0.8408 0.921 -0.383 0.065 155 136 90 0 0
0.0451 0.0600 -0.2594 0.691 -0.235 0.683 164 146 119 0 0
0.0462 0.0594 -0.2607 0.915 -0.350 -0.199 166 147 111 0 0
0.0495 0.0576 -0.2629 0.698 -0.584 0.415 174 154 116 0 0
0.0502 0.0573 -0.2643 0.804 -0.370 0.466 174 155 118 0 0
0.0557 0.0533 -0.3316 0.902 -0.426 -0.070 132 111 69 0 0
-0.0203 0.0898 -0.5126 0.908 -0.408 0.099 30 23 16 0 0
-0.0202 0.0897 -0.5145 0.669 -0.739 -0.079 27 20 14 0 0
0.0275 0.0646 -0.5339 0.037 -0.405 0.913 88 77 64 0 0
0.0297 0.0634 -0.5346 0.103 -0.469 0.877 82 72 57 0 0
0.0309 0.0628 -0.5359 0.229 -0.561 0.796 82 72 56 0 0
0.0399 0.0579 -0.5519 0.926 -0.374 0.054 128 109 81 0 0
0.0393 0.0581 -0.5560 0.948 -0.318 -0.012 138 118 85 0 0
0.0366 0.0590 -0.5849 0.906 -0.412 0.097 137 117 78 0 0
0.0350 0.0594 -0.6077 0.880 -0.440 0.181 160 138 98 0 0
0.0350 0.0594 -0.6097 0.871 -0.462 0.166 137 114 74 0 0
0.0321 0.0603 -0.6460 0.951 -0.304 0.052 163 146 107 0 0
0.0321 0.0600 -0.6625 0.949 -0.283 0.137 146 127 86 0 0
0.0323 0.0599 -0.6644 0.960 -0.277 0.042 153 137 95 0 0
0.0323 0.0593 -0.6979 0.949 -0.158 0.275 157 135 100 0 0
0.0315 0.0597 -0.7028 0.953 -0.282 0.114 134 114 80 0 0
0.0315 0.0597 -0.7049 0.813 -0.529 0.243 144 126 92 0 0
0.0314 0.0597 -0.7071 0.894 -0.398 0.206 123 106 73 0 0
0.0327 0.0587 -0.7232 0.834 -0.456 0.310 143 127 92 0 0
0.0349 0.0574 -0.7367 0.915 -0.377 0.142 167 146 110 0 0
0.0346 0.0572 -0.7543 0.944 -0.301 0.133 151 132 89 0 0
0.0362 0.0564 -0.7552 0.934 -0.347 0.080 158 139 98 0 0
0.0399 0.0539 -0.7875 0.935 -0.205 0.291 161 144 99 0 0
0.0378 0.0543 -0.8298 0.902 -0.413 0.127 146 128 85 0 0
0.0381 0.0541 -0.8319 0.922 -0.371 0.107 147 129 84 0 0
0.0384 0.0538 -0.8407 0.921 -0.383 0.065 151 133 88 0 0
0.0384 0.0538 -0.8431 0.917 -0.399 0.018 154 136 95 0 0
0.0336 0.0561 -0.8541 0.824 -0.527 -0.208 70 63 45 0 0
0.0328 0.0563 -0.8665 0.681 -0.247 0.689 98 95 88 0 0
0.0445 0.0586 -0.2593 0.766 -0.291 0.573 166 147 118 0 0
-0.0188 0.0874 -0.4901 0.947 -0.180 0.267 32 23 14 0 0
-0.0188 0.0872 -0.5036 0.842 -0.534 -0.074 35 26 19 0 0
-0.0193 0.0873 -0.5117 0.940 -0.338 -0.047 29 22 16 0 0
0.0389 0.0563 -0.5578 0.869 -0.493 0.039 114 95 67 0 0
0.0389 0.0563 -0.5597 0.869 -0.493 0.039 101 82 55 0 0
0.0341 0.0579 -0.6077 0.929 -0.360 0.085 158 137 96 0 0
0.0314 0.0588 -0.6419 0.960 -0.260 0.102 158 139 98 0 0
0.0313 0.0587 -0.6439 0.942 -0.330 0.055 161 143 103 0 0
0.0300 0.0592 -0.6572 0.801 -0.512 0.309 161 141 100 0 0
0.0305 0.0589 -0.6589 0.801 -0.512 0.309 141 120 76 0 0
0.0305 0.0588 -0.6651 0.904 -0.341 0.257 140 123 86 0 0
0.0341 0.0557 -0.7366 0.915 -0.377 0.142 150 130 93 0 0
0.0362 0.0540 -0.7743 0.863 -0.451 0.227 131 113 75 0 0
0.0387 0.0525 -0.7856 0.923 -0.284 0.261 162 144 101 0 0
0.0367 0.0527 -0.8300 0.969 -0.175 0.174 153 134 91 0 0
0.0352 0.0529 -0.8683 0.503 0.202 0.840 148 143 140 0 0
0.0555 0.0502 -0.3115 0.756 -0.406 0.513 86 65 38 0 0
0.0537 0.0508 -0.3300 0.808 -0.559 0.186 138 121 81 0 0
-0.0227 0.0869 -0.5188 0.920 -0.393 0.013 31 22 18 0 0
-0.0228 0.0870 -0.5208 0.893 -0.413 -0.176 34 24 22 0 0
-0.0240 0.0875 -0.5254 0.865 -0.450 0.221 29 24 21 0 0
-0.0241 0.0875 -0.5274 0.936 -0.080 0.343 35 31 28 0 0
0.0381 0.0548 -0.5597 0.869 -0.493 0.039 98 82 60 0 0
0.0337 0.0561 -0.6135 0.923 -0.382 0.057 149 129 88 0 0
0.0306 0.0571 -0.6418 0.954 -0.272 0.128 151 131 95 0 0
0.0307 0.0571 -0.6438 0.942 -0.330 0.055 157 140 99 0 0
0.0309 0.0570 -0.6457 0.933 -0.335 0.134 149 129 86 0 0
0.0309 0.0565 -0.6684 0.956 -0.194 0.219 132 109 72 0 0
0.0307 0.0559 -0.7106 0.780 -0.442 0.443 142 124 89 0 0
0.0318 0.0553 -0.7120 0.815 -0.493 0.305 136 115 84 0 0
0.0322 0.0550 -0.7137 0.815 -0.493 0.305 128 108 76 0 0
0.0319 0.0550 -0.7247 0.891 -0.404 0.207 142 124 89 0 0
0.0332 0.0542 -0.7301 0.820 -0.526 0.223 143 125 87 0 0
0.0391 0.0502 -0.7845 0.838 -0.192 0.511 152 134 91 0 0
0.0487 0.0529 -0.2593 0.999 -0.023 -0.043 184 170 128 0 0
0.0492 0.0524 -0.2733 0.757 0.056 -0.651 172 171 176 0 0
0.0471 0.0534 -0.2755 0.765 0.153 -0.626 171 170 175 0 0
0.0419 0.0561 -0.2786 0.696 -0.056 -0.716 172 171 176 0 0
0.0346 0.0598 -0.2823 0.684 -0.150 -0.714 172 171 176 0 0
0.0285 0.0628 -0.2857 0.457 -0.445 -0.770 172 172 175 0 0
0.0396 0.0570 -0.2921 0.437 -0.261 0.861 75 68 58 0 0
0.0554 0.0485 -0.3113 0.903 -0.254 0.346 92 72 44 0 0
0.0562 0.0480 -0.3142 0.874 -0.370 0.316 88 67 36 0 0
0.0562 0.0480 -0.3159 0.879 -0.327 0.348 90 65 34 0 0
0.0566 0.0478 -0.3174 0.911 -0.330 0.246 102 77 44 0 0
-0.0115 0.0813 -0.4005 0.459 -0.888 -0.035 183 184 188 0 0
-0.0268 0.0883 -0.4531 0.805 0.591 -0.055 128 120 103 0 0
-0.0229 0.0850 -0.5204 0.980 0.197 -0.002 36 31 28 0 0
-0.0229 0.0850 -0.5224 0.951 -0.275 -0.137 36 31 27 0 0
-0.0250 0.0859 -0.5254 0.822 -0.537 0.187 33 28 25 0 0
-0.0243 0.0856 -0.5271 0.936 -0.080 0.343 39 35 32 0 0
-0.0255 0.0862 -0.5296 0.970 -0.194 0.147 39 35 32 0 0
0.0185 0.0632 -0.5432 -0.154 -0.876 0.458 83 76 61 0 0
0.0322 0.0548 -0.6160 0.826 -0.539 0.165 165 147 109 0 0
0.0301 0.0554 -0.6416 0.950 -0.189 0.250 152 133 94 0 0
0.0313 0.0548 -0.6429 0.899 -0.436 0.039 155 138 95 0 0
0.0287 0.0558 -0.6611 0.939 -0.343 0.032 164 145 102 0 0
0.0299 0.0547 -0.6873 0.882 -0.141 0.450 144 127 90 0 0
0.0297 0.0543 -0.7107 0.837 -0.387 0.387 142 124 86 0 0
0.0309 0.0537 -0.7141 0.897 -0.291 0.333 137 119 86 0 0
0.0315 0.0533 -0.7158 0.897 -0.291 0.333 112 98 61 0 0
0.0319 0.0531 -0.7177 0.858 -0.436 0.272 111 96 55 0 0
0.0323 0.0528 -0.7195 0.858 -0.436 0.272 150 132 93 0 0
0.0336 0.0520 -0.7293 0.858 -0.443 0.259 142 124 84 0 0
0.0339 0.0518 -0.7312 0.909 -0.335 0.246 152 134 96 0 0
0.0285 0.0520 -0.8680 0.844 -0.382 0.377 87 84 77 0 0
0.0495 0.0507 -0.2635 0.912 -0.273 0.306 61 47 30 0 0
0.0486 0.0510 -0.2748 0.798 0.077 -0.598 171 171 173 0 0
0.0268 0.0619 -0.2876 0.302 -0.763 -0.571 171 170 175 0 0
0.0267 0.0619 -0.2893 0.116 0.012 0.993 168 168 169 0 0
0.0541 0.0474 -0.3114 0.930 -0.175 0.323 94 71 44 0 0
0.0546 0.0472 -0.3129 0.930 -0.175 0.323 106 85 54 0 0
0.0556 0.0465 -0.3158 0.891 -0.146 0.429 95 72 40 0 0
0.0561 0.0463 -0.3189 0.902 -0.381 0.202 113 92 59 0 0
-0.0165 0.0824 -0.3788 0.585 -0.804 0.107 181 182 185 0 0
-0.0182 0.0832 -0.3830 0.940 0.337 0.051 181 182 184 0 0
-0.0174 0.0827 -0.3845 0.974 0.020 0.227 182 182 185 0 0
-0.0170 0.0825 -0.3861 0.974 0.020 0.227 182 183 186 0 0
-0.0136 0.0805 -0.3992 0.568 -0.822 0.031 182 185 184 0 0
-0.0227 0.0838 -0.4716 0.921 -0.284 0.268 81 72 61 0 0
0.0120 0.0646 -0.5464 0.987 0.152 0.057 111 107 99 0 0
0.0128 0.0641 -0.5479 0.451 -0.841 0.299 91 83 73 0 0
0.0327 0.0529 -0.5991 0.957 -0.289 0.016 151 133 90 0 0
0.0296 0.0539 -0.6312 0.910 -0.411 0.047 125 106 71 0 0
0.0297 0.0537 -0.6352 0.942 -0.323 0.093 161 146 103 0 0
0.0305 0.0532 -0.6428 0.886 -0.443 0.136 163 143 101 0 0
0.0307 0.0531 -0.6447 0.876 -0.477 0.069 138 116 78 0 0
0.0289 0.0535 -0.6707 0.813 -0.546 0.201 158 142 99 0 0
0.0293 0.0533 -0.6725 0.813 -0.546 0.201 152 132 90 0 0
0.0293 0.0528 -0.6934 0.856 -0.470 0.217 127 112 80 0 0
0.0286 0.0529 -0.7088 0.883 -0.296 0.364 151 131 94 0 0
0.0302 0.0520 -0.7140 0.961 -0.181 0.209 108 88 54 0 0
0.0327 0.0504 -0.7293 0.858 -0.443 0.259 138 121 84 0 0
0.0332 0.0501 -0.7311 0.909 -0.335 0.246 132 114 77 0 0
0.0336 0.0499 -0.7329 0.909 -0.335 0.246 142 122 86 0 0
0.0333 0.0500 -0.7353 0.870 -0.447 0.206 151 130 95 0 0
0.0379 0.0463 -0.8020 0.878 -0.406 0.254 175 157 111 0 0
0.0385 0.0459 -0.8105 0.924 -0.359 0.132 175 156 113 0 0
0.0345 0.0474 -0.8388 0.810 -0.548 0.207 160 143 100 0 0
0.0250 0.0516 -0.8704 0.963 0.101 0.250 81 78 73 0 0
0.0421 0.0530 -0.2512 0.966 0.122 0.227 173 170 164 0 0
0.0494 0.0491 -0.2586 0.881 0.330 0.340 107 93 64 0 0
-0.0180 0.0813 -0.3790 0.585 -0.804 0.107 173 171 172 0 0
-0.0171 0.0806 -0.3858 0.931 0.323 0.170 167 165 164 0 0
-0.0151 0.0789 -0.4213 1.000 0.009 -0.013 98 87 63 0 0
-0.0152 0.0789 -0.4231 1.000 0.009 -0.013 78 67 43 0 0
-0.0152 0.0789 -0.4250 1.000 0.009 -0.013 79 67 45 0 0
-0.0147 0.0786 -0.4284 0.371 -0.926 0.076 79 68 46 0 0
-0.0188 0.0805 -0.4376 0.987 0.106 -0.117 75 63 44 0 0
-0.0304 0.0845 -0.5372 0.810 -0.274 -0.519 57 50 41 0 0
-0.0318 0.0851 -0.5399 0.927 -0.194 -0.322 55 48 41 0 0
0.0140 0.0616 -0.5448 0.830 0.507 -0.233 196 194 195 0 0
0.0127 0.0622 -0.5475 0.904 0.286 -0.317 160 155 152 0 0
0.0323 0.0513 -0.5889 0.835 -0.539 0.109 119 104 66 0 0
0.0327 0.0511 -0.5907 0.839 -0.544 0.007 142 123 82 0 0
0.0279 0.0520 -0.6708 0.813 -0.546 0.201 138 115 74 0 0
0.0283 0.0517 -0.6726 0.813 -0.546 0.201 112 89 47 0 0
0.0285 0.0512 -0.6934 0.900 -0.367 0.236 120 102 70 0 0
0.0299 0.0501 -0.7136 0.937 -0.315 0.152 108 88 55 0 0
0.0337 0.0473 -0.7560 0.943 -0.284 0.172 145 126 86 0 0
0.0391 0.0433 -0.8183 0.964 -0.094 0.247 171 154 108 0 0
0.0365 0.0444 -0.8319 0.990 -0.137 0.033 160 142 99 0 0
0.0362 0.0445 -0.8343 0.961 -0.225 0.158 162 144 101 0 0
0.0315 0.0465 -0.8522 0.983 -0.060 -0.176 76 66 48 0 0
0.0478 0.0482 -0.2588 0.945 0.068 0.321 62 49 34 0 0
0.0526 0.0456 -0.2684 0.574 -0.659 0.485 128 121 114 0 0
0.0534 0.0451 -0.2698 0.350 -0.747 0.566 169 168 169 0 0
0.0545 0.0446 -0.2710 0.278 -0.752 0.598 173 172 174 0 0
-0.0155 0.0772 -0.4229 0.979 -0.055 0.198 80 65 44 0 0
-0.0247 0.0809 -0.4679 0.794 -0.482 0.371 52 44 34 0 0
0.0137 0.0597 -0.5484 0.865 0.344 -0.365 203 203 204 0 0
0.0106 0.0612 -0.5521 -0.102 -0.945 0.311 177 174 172 0 0
0.0304 0.0503 -0.5916 0.771 -0.630 0.095 121 101 64 0 0
0.0268 0.0505 -0.6731 0.842 -0.433 0.321 129 107 65 0 0
0.0269 0.0504 -0.6751 0.937 -0.349 0.011 130 108 69 0 0
0.0317 0.0467 -0.7331 0.775 -0.448 0.446 132 117 79 0 0
0.0323 0.0464 -0.7348 0.846 -0.441 0.298 140 124 85 0 0
0.0316 0.0465 -0.7461 0.939 -0.281 0.196 130 112 74 0 0
0.0386 0.0417 -0.8090 0.822 -0.427 0.376 175 156 113 0 0
0.0361 0.0428 -0.8178 0.885 -0.428 0.183 170 153 107 0 0
0.0364 0.0426 -0.8198 0.885 -0.428 0.183 170 153 107 0 0
0.0243 0.0477 -0.8695 0.981 -0.120 -0.151 71 68 62 0 0
0.0462 0.0475 -0.2512 0.997 -0.037 -0.068 138 123 93 0 0
0.0462 0.0474 -0.2559 0.926 -0.160 0.342 72 61 39 0 0
0.0467 0.0471 -0.2573 0.960 -0.109 0.257 46 35 19 0 0
0.0488 0.0459 -0.2614 0.831 -0.279 0.482 33 23 14 0 0
0.0513 0.0445 -0.2701 0.914 -0.404 0.030 147 143 140 0 0
0.0526 0.0438 -0.2713 0.540 -0.760 0.360 174 172 174 0 0
-0.0162 0.0756 -0.4228 0.923 -0.338 0.184 95 79 55 0 0
-0.0160 0.0754 -0.4245 0.923 -0.338 0.184 90 74 50 0 0
-0.0159 0.0754 -0.4264 0.963 -0.162 0.216 93 77 53 0 0
-0.0219 0.0783 -0.4307 0.985 0.064 0.159 85 70 45 0 0
-0.0216 0.0781 -0.4325 0.985 0.064 0.159 90 74 47 0 0
-0.0246 0.0791 -0.4599 0.821 -0.485 0.301 72 61 46 0 0
-0.0249 0.0792 -0.4620 0.929 -0.345 0.137 78 69 52 0 0
-0.0249 0.0791 -0.4638 0.946 -0.311 0.095 68 59 44 0 0
-0.0226 0.0771 -0.5088 0.859 -0.506 0.071 59 52 42 0 0
-0.0258 0.0784 -0.5201 0.557 -0.812 0.177 61 52 44 0 0
-0.0296 0.0803 -0.5260 0.843 -0.452 0.291 63 54 46 0 0
-0.0301 0.0805 -0.5282 0.915 -0.373 0.151 52 44 37 0 0
0.0155 0.0568 -0.5469 0.858 0.371 -0.355 204 206 210 0 0
0.0075 0.0608 -0.5533 -0.032 -0.953 0.302 204 205 209 0 0
0.0084 0.0603 -0.5548 -0.032 -0.953 0.302 204 204 205 0 0
0.0293 0.0489 -0.5918 0.771 -0.630 0.095 103 85 56 0 0
0.0297 0.0483 -0.6114 0.859 -0.509 -0.053 136 119 87 0 0
0.0261 0.0488 -0.6751 0.924 -0.374 0.083 146 125 85 0 0
0.0290 0.0463 -0.7194 0.890 -0.450 0.071 99 83 55 0 0
0.0310 0.0451 -0.7330 0.846 -0.441 0.298 123 109 76 0 0
0.0356 0.0411 -0.8108 0.777 -0.603 0.178 174 156 111 0 0
0.0350 0.0413 -0.8135 0.915 -0.314 0.252 167 149 105 0 0
0.0355 0.0411 -0.8154 0.915 -0.314 0.252 173 156 110 0 0
0.0356 0.0410 -0.8176 0.930 -0.206 0.304 172 155 108 0 0
0.0359 0.0405 -0.8309 0.980 -0.191 0.052 154 136 93 0 0
0.0469 0.0454 -0.2508 0.994 -0.038 0.106 142 127 95 0 0
0.0474 0.0451 -0.2522 0.884 0.123 0.451 112 101 71 0 0
0.0472 0.0451 -0.2538 0.967 -0.018 0.253 75 67 43 0 0
0.0459 0.0458 -0.2558 0.926 -0.160 0.342 48 39 22 0 0
0.0463 0.0455 -0.2572 0.926 -0.160 0.342 39 30 18 0 0
0.0469 0.0452 -0.2586 0.961 -0.073 0.268 36 26 16 0 0
0.0493 0.0439 -0.2642 0.948 -0.151 0.279 47 33 21 0 0
0.0505 0.0430 -0.2733 0.744 -0.105 -0.659 172 172 172 0 0
-0.0155 0.0731 -0.4313 0.950 -0.311 0.032 101 85 60 0 0
-0.0155 0.0731 -0.4332 0.950 -0.311 0.032 92 76 51 0 0
0.0038 0.0607 -0.5549 -0.022 -0.965 0.262 205 206 210 0 0
0.0046 0.0602 -0.5565 -0.022 -0.965 0.262 205 206 210 0 0
0.0054 0.0598 -0.5580 -0.022 -0.965 0.262 204 205 208 0 0
0.0060 0.0594 -0.5596 0.041 -0.976 0.212 204 205 208 0 0
0.0089 0.0578 -0.5678 -0.046 -0.900 0.434 123 121 118 0 0
0.0102 0.0571 -0.5690 -0.051 -0.874 0.484 121 117 113 0 0
0.0278 0.0474 -0.6061 0.736 -0.673 0.078 67 53 32 0 0
0.0279 0.0473 -0.6080 0.736 -0.673 0.078 58 44 24 0 0
0.0250 0.0474 -0.6732 0.868 -0.460 0.187 161 141 99 0 0
0.0254 0.0471 -0.6750 0.839 -0.475 0.267 151 131 90 0 0
0.0292 0.0441 -0.7273 0.850 -0.454 0.269 81 69 47 0 0
0.0304 0.0433 -0.7328 0.929 -0.264 0.259 95 82 57 0 0
0.0307 0.0429 -0.7478 0.973 -0.150 0.178 142 127 88 0 0
0.0355 0.0396 -0.7856 0.931 -0.212 0.298 165 146 103 0 0
-0.0164 0.0717 -0.4295 0.950 -0.243 0.197 94 78 54 0 0
-0.0166 0.0716 -0.4370 0.693 -0.721 0.024 101 86 61 0 0
-0.0244 0.0750 -0.4628 0.607 -0.627 0.488 83 71 45 0 0
-0.0223 0.0738 -0.4713 0.932 -0.358 0.057 45 32 17 0 0
0.0064 0.0571 -0.5668 0.508 -0.845 0.169 204 207 208 0 0
0.0068 0.0569 -0.5685 0.591 -0.764 0.259 204 207 209 0 0
0.0071 0.0567 -0.5703 0.453 -0.865 0.215 205 206 207 0 0
