ply
format ascii 1.0
element vertex 672
property float x
property float y
property float z
property uchar diffuse_red
property uchar diffuse_green
property uchar diffuse_blue
end_header
0.044637683349553044 0.12930685790862873 -0.6463203848427499 167 148 106
0.04415944792683372 0.12837940349117893 -0.6489505058148319 167 149 103
0.04424322872994278 0.12840484905496435 -0.6508322360379838 158 137 96
0.044137767666830266 0.1281091120487664 -0.6529714768676838 167 145 106
0.04428648987116798 0.12824441875972759 -0.6547709551727727 171 152 109
0.043950576598409674 0.12755721517511948 -0.6572296218841737 149 130 89
0.044093266090743516 0.12768194766823637 -0.6590430436583576 143 125 85
0.044088930565741855 0.1275570027033937 -0.6610590186083708 158 138 100
0.04360390891451897 0.12661582731155224 -0.6637360387652961 138 118 81
0.04403424571228037 0.12722843248090876 -0.665163588039064 178 159 116
0.043735754782456476 0.1266034016806488 -0.667594250284989 160 143 100
0.04339161331622593 0.12590051021608067 -0.6700935660555708 139 123 82
0.04281421168077444 0.12480104324255108 -0.6729219961667363 165 147 105
0.042899069201373125 0.12482621065850644 -0.6748382545617286 177 157 110
0.04234108760301769 0.12375897061945523 -0.6776527870944001 178 157 111
0.042253651185030563 0.12349090252145442 -0.6798174617459759 170 152 109
0.04172992608682288 0.12248108392873859 -0.6825976692488092 146 129 92
0.04125162690709608 0.12154804011627451 -0.6853215746421188 111 94 63
0.040557935167984754 0.1202483854582906 -0.6883564412674881 120 108 73
0.04002380977749516 0.11921952075483866 -0.6911746419275653 130 116 78
0.03955341927691755 0.11829859208875437 -0.6939101368355504 131 113 77
0.039181559356165976 0.11754482731368959 -0.6965126311660471 129 113 83
0.038937097319859976 0.11700740404053506 -0.698939701358672 102 87 60
0.038896829263944596 0.11681707140272027 -0.7010798337000526 110 94 71
0.03954736280238626 0.11780198160944053 -0.7022319281179539 100 84 66
0.0397262436653648 0.11798435124319029 -0.7040608407440898 101 87 67
0.04020169371691171 0.11867140094201314 -0.7054632763733053 95 82 54
0.03987496653710129 0.11799292969797698 -0.7080266827342981 138 124 91
0.04018590278321117 0.11839977158968384 -0.7096699698941055 139 123 88
0.04034270029388111 0.11854410480047523 -0.7115384438913159 130 114 75
0.04036820577143685 0.11846472339021888 -0.7136007001548961 136 121 77
0.0403148824528092 0.11825089036111866 -0.7157815537111357 126 112 72
0.04014031348017645 0.11783028593777348 -0.7181443575353353 101 88 58
0.04017854220146455 0.1177719688057699 -0.7201983555172917 105 92 65
0.039785092171914685 0.11697786360042833 -0.7228934360451638 97 82 55
0.03983325911060201 0.11693602363517364 -0.7249405781638693 87 70 42
0.039773805514331476 0.11671056432686477 -0.727150661675761 111 95 66
0.039810792773516096 0.11664929357579051 -0.7292208211271034 114 98 67
0.03986993685748119 0.11662562362141768 -0.7312608976439836 149 131 97
0.03988931528152477 0.11653397229068219 -0.7333634756870071 137 118 77
0.039633951788700286 0.11597353614380923 -0.7358824903279363 150 133 88
0.0393520387635794 0.11536748251599088 -0.7384471612480457 140 122 81
0.0391902978791793 0.11496611173769275 -0.7408358995525329 130 115 80
0.039169118406366416 0.11480430609985073 -0.7430162171586754 109 95 66
0.03850857686987007 0.11355114990401821 -0.7461728894186738 109 94 60
0.03799119129971254 0.11254180293439958 -0.7491203354647528 132 117 84
0.03735057823416775 0.11132162576996002 -0.7522643127061974 112 97 69
0.03670728794576422 0.11009634698905837 -0.7554214685088416 136 119 91
0.035845541626644634 0.10849749258249305 -0.7589239332505495 133 114 84
0.03445881800803613 0.10600138851106428 -0.7632476798034834 131 112 79
0.03415437634774994 0.10535306138099543 -0.7659120295167541 137 117 85
0.033462432439232054 0.10404236112616427 -0.769184045164385 120 101 67
0.032677789786258585 0.10257270619163186 -0.7726099916784726 97 82 43
0.03120895292560502 0.09993320385607188 -0.7771144516647132 115 100 63
0.03195703037771071 0.10108183967386009 -0.7781650375868192 86 71 39
0.03278127610214679 0.10236086032197853 -0.7790929767614718 81 65 39
0.03340034550908941 0.10328931063208341 -0.7803401736733753 73 57 32
0.03391997223348105 0.10404783118596692 -0.7817424305371581 92 77 47
0.034143832034313426 0.10430058633992095 -0.7836119017971507 96 81 50
0.034076000204771084 0.10405431505084073 -0.785946078965657 82 69 41
0.03366690428912823 0.10322398215933151 -0.788827810419973 65 53 28
0.03414209860165662 0.10390625129561445 -0.7903048952659413 67 51 25
0.03450604132585554 0.10439817714800348 -0.7919594574238142 76 57 31
0.03520181924987491 0.10545802978009675 -0.7930815530156062 81 67 39
0.035788351373151214 0.1063310304304505 -0.7943769082052181 77 65 35
0.0361531465976242 0.10682450139673783 -0.7960286308891388 78 64 35
0.036425391001916704 0.10715947562288758 -0.7978305466340423 82 66 39
0.03681782313661469 0.10770021341168967 -0.7994384866920686 92 77 51
0.03709010081824174 0.1080351389138986 -0.8012421555292023 92 78 50
0.03744801725319706 0.10851670494843421 -0.8029071737162439 73 57 29
0.0379074413137486 0.10917216921797193 -0.80440639294976 78 63 33
0.03835495349222938 0.10980725112087267 -0.8059246493626883 91 77 41
0.03886355919341625 0.11054706662367109 -0.8073419047141682 116 99 64
0.03944322293144194 0.11140874583431587 -0.808640868651418 116 100 63
0.03995450361803295 0.1121532804711726 -0.8100514218840112 113 98 63
0.0404988314838686 0.11295454053996701 -0.811406107896696 116 100 65
0.04043867611791721 0.11271919313777734 -0.8137658172364726 134 116 78
0.04052866676301754 0.11274113677004732 -0.8158791255094238 142 124 86
0.041009895479029765 0.11343409312141187 -0.8173403820375983 133 116 80
0.040743584492120705 0.11284446276971943 -0.8200557343264586 147 131 89
0.04128133882828948 0.11363430421808829 -0.8214238436823241 153 138 95
0.041288479451604854 0.11351350403235694 -0.8236863045784268 153 136 98
0.041647470614965765 0.11399648057080594 -0.8253569294237592 143 128 89
0.04242652131005227 0.11520062719981977 -0.826315062858158 146 132 89
0.04277920262801978 0.1156728351124447 -0.8279952911690351 161 146 101
0.04296833958952895 0.11586413967068665 -0.8299550681915305 154 138 96
0.04292142964526169 0.11564986892985785 -0.8323207468352253 162 145 102
0.04340099483115875 0.11633982414532909 -0.8337873060780913 144 123 87
0.043795659441408036 0.11688394061505414 -0.8353992219927666 123 105 72
0.044657451482058616 0.11823082270805949 -0.8362053404954713 132 113 81
0.044455656846187006 0.11774986370943341 -0.8388470262087545 123 104 71
0.04462890335699607 0.11791329577833906 -0.8408438642652382 131 113 79
0.044837191804552534 0.11813685025618503 -0.8427819248169568 134 115 79
0.04545793271353797 0.11906956154800902 -0.8440025031282937 142 125 88
0.04518482211069483 0.11846505352326883 -0.8467841574979731 140 122 86
0.04470869576896144 0.11751094629113845 -0.8499282130274277 138 122 85
0.04464626945795916 0.11726810434839716 -0.8523532409587015 134 121 84
0.04513047744199147 0.11796561668090763 -0.8538189983958822 148 133 100
0.04507995467620815 0.11774289262926871 -0.8562292796712605 152 138 108
0.04450876396770366 0.11662369086732374 -0.8595668090037399 111 103 80
0.04502334099787916 0.11737317351998536 -0.8609839293179253 58 53 37
0.04499058950825924 0.11718029642373068 -0.8633754058157554 59 52 38
0.04511713293438599 0.11726150043722175 -0.8654864503164224 92 85 72
0.04502468228540679 0.11696534806061701 -0.8679925557008661 126 123 113
0.04499944609640401 0.11678470481714007 -0.8703827147918319 140 138 132
0.04601895405198461 0.11840389056805992 -0.870895123255166 154 153 150
0.047040765234102416 0.12002739085917002 -0.87139746601637 167 166 164
0.04823386946791973 0.12194647004805056 -0.8715836572192319 178 178 177
0.04962721588520837 0.12421117791831485 -0.8713986267069417 187 186 186
0.04973781354194551 0.12426484376887786 -0.8735394874549872 194 193 194
0.09706805038452758 0.20153949485369616 -0.861350600670955 214 212 213
0.09606077265225538 0.19966137054442554 -0.8656027852302811 210 209 209
0.09630971435086944 0.19996151870255174 -0.8673556656451857 206 206 206
0.0963869824403254 0.19996374265254868 -0.869454266146928 211 211 211
0.09683324805091649 0.20060609134902316 -0.8708138308827569 213 213 213
0.09732750613138055 0.20133177542561306 -0.872075914194125 213 213 213
0.09945523448778582 0.20489301791374198 -0.8700345179409915 213 213 213
-0.0557613270884912 -0.01193002024972964 -0.23202534548505302 179 179 179
-0.05945387380466435 -0.018107535481489745 -0.23515740625064432 179 179 177
-0.058995216080862695 -0.017450377529335148 -0.23661382932108938 177 178 173
-0.058744098167915135 -0.017134994159566458 -0.2381552745607696 170 166 157
-0.05752226314646151 -0.015220795496437997 -0.23929490118916488 132 123 108
-0.05664377162142707 -0.013871889636261528 -0.2405731405672092 138 125 106
-0.05571396109409011 -0.012438272209252213 -0.24182700709594754 164 148 122
-0.05452522430784335 -0.010577865908325032 -0.24296824031363723 183 165 134
-0.05349621936854171 -0.008980386764719822 -0.24417293819459607 169 153 122
-0.05279014994367477 -0.007914861449208457 -0.24551238960224978 162 146 119
-0.0518796519292329 -0.006512308201417974 -0.24676177982917769 166 150 124
-0.05110049128923232 -0.005326052860923039 -0.24806518855835447 198 182 152
-0.050168774479927236 -0.0038881837922153523 -0.24929963904127955 195 178 145
-0.049620031470717176 -0.0030814952696293363 -0.2506994065858467 152 135 102
-0.04897277919821271 -0.0021123292158696932 -0.2520545728817511 130 116 93
-0.04906174971260978 -0.0023570511914540043 -0.25373619483049814 84 73 59
-0.04838720187206013 -0.0013428111284853606 -0.2550781029681116 54 45 36
-0.04939367760560815 -0.0031009287590772205 -0.25717675333368256 46 41 35
-0.04975361044468685 -0.0037930808336874566 -0.2589896820165085 20 15 14
-0.04688306337544308 0.0008435420132559268 -0.25933090956664184 18 14 13
-0.04658441845974097 0.0012379467612603362 -0.2608402472984295 18 13 12
-0.048978751381657984 -0.00281094415177785 -0.26359562862380564 17 12 10
-0.04778096739644563 -0.0009333630780946206 -0.2646950285457695 30 25 20
-0.04572006585984575 0.00236889044315744 -0.26538557740387025 85 77 69
-0.04438255594631877 0.004477791948930013 -0.26640728000439995 104 93 79
-0.04310114847466488 0.006494418619462747 -0.2674500539572638 101 89 68
-0.041915607858320485 0.008353099237291786 -0.26853333147986785 123 112 92
-0.04132271860293641 0.009233608440501417 -0.26989623345147973 115 108 93
-0.04123604999161635 0.009278351398925341 -0.27150214777457093 55 48 40
-0.04095702264356526 0.009640641430210081 -0.2730163173562198 32 25 19
-0.040843736215282284 0.009729181040743967 -0.2746119523561457 31 25 19
-0.04060973903332341 0.01001700475752676 -0.2761497803574736 28 23 19
-0.04015391640622052 0.01067119910459459 -0.27757879886413916 20 16 12
-0.03972294922127757 0.011284361317046937 -0.2790196822372631 20 16 12
-0.039852926528891386 0.010970765398356966 -0.2807406241316828 80 73 66
-0.039431538686165814 0.011568043388485355 -0.2821872587231867 118 109 100
-0.03838709438866694 0.013194952885875175 -0.28331853945515073 123 112 102
-0.037635964389755486 0.01433733666389074 -0.2845950850215247 118 107 98
-0.03670265809234049 0.01578096591303034 -0.2857762383038397 91 81 72
-0.03649685597519431 0.01602219531421878 -0.28732834669157437 47 37 31
-0.036164961087688706 0.016471826016331126 -0.2888161858174006 30 22 16
-0.035720401117222425 0.017107722637641543 -0.2902456384112796 32 25 19
-0.03551593684463175 0.01734663104443962 -0.2918002690328823 28 22 17
-0.03531137581500118 0.017585641361796953 -0.2933558220642806 32 28 23
-0.03483987938723738 0.018266082083641957 -0.29477113383048664 46 41 39
-0.03466579501942719 0.018454611543476995 -0.2963440668303833 19 13 12
-0.034411662418044366 0.01877549304697816 -0.2978753384991556 44 38 33
-0.03406786576751482 0.01924467746337441 -0.29935907239768617 80 75 67
-0.03338096234860706 0.020281562890103175 -0.30065741693503684 80 72 62
-0.033758398126953935 0.019557297454601608 -0.30253262562856387 79 69 60
-0.033439975999405624 0.019984392291559266 -0.30403183150817537 55 48 41
-0.03297695552519557 0.020650799973329553 -0.3054518706782734 29 22 17
-0.032719203140839294 0.020977454896648373 -0.3069848022344479 60 52 47
-0.032358824955267075 0.021473966725696916 -0.30846138977665655 90 86 80
-0.031718716708016105 0.022433617674271725 -0.3097817967734848 48 44 39
-0.030869209030193155 0.023740099353806013 -0.31098302008586115 27 22 19
-0.030147339828947975 0.024835377496954844 -0.31225344754531065 52 47 41
-0.029426469143136333 0.025929126864097957 -0.31352234801193357 73 68 59
-0.02904462117620276 0.026461447237134894 -0.3149825628462576 55 50 44
-0.028449899688760855 0.027346411273434346 -0.3163206323496453 37 32 28
-0.02821106499135302 0.027641841014359292 -0.3178625152550648 32 27 23
-0.027793012483255497 0.02823417441132578 -0.31930133592499316 30 27 24
-0.026990041600696346 0.029464375263551654 -0.3205156680002566 27 26 22
-0.026747855100616863 0.02976535187477193 -0.3220557228996968 21 20 16
-0.02650561794072248 0.030066366507164696 -0.3235965176798237 23 22 18
-0.02645848987763718 0.030043913584429052 -0.32525348991116 25 24 22
0.05690458022162407 0.160132123505683 -0.4116062984251897 103 95 77
0.058444303417377344 0.16261420833650603 -0.41187204885903533 102 93 75
0.05878221987591284 0.16308366114434944 -0.4131914761208809 98 90 72
0.05853485361317019 0.16257260044051308 -0.41503002636831876 97 86 69
0.05840177840233025 0.16225279550603075 -0.41677078910975557 97 86 68
0.05784908101984177 0.16122964109521448 -0.4188898394405818 97 86 68
0.05835057223827695 0.16197283593052683 -0.42006907050581255 95 84 67
0.05939950716396977 0.1631462378022677 -0.42891966588726604 91 79 60
0.05674996857941189 0.15791106214847678 -0.4446120564353117 84 70 46
0.05665541780480167 0.15765273108902822 -0.4463700020451451 83 68 43
0.05685925917791161 0.157895283031613 -0.4478466662582579 79 63 40
0.05744203080476618 0.15877416335572628 -0.44896188107224977 74 59 37
0.058149915621687656 0.15986329039846808 -0.44995528893735753 72 58 37
0.05861595287039457 0.16054630528603103 -0.4511791093695412 84 71 47
0.05812334884907068 0.15961880015372065 -0.45332902312650397 107 92 62
0.0579638669828666 0.1592506785524775 -0.4551615244699322 117 100 66
0.05781958579633566 0.1589078900597259 -0.4569827599593693 118 102 67
0.057941697701123916 0.15901262111386258 -0.45854700871032855 119 103 68
0.05821927984876305 0.15937858999797186 -0.45996027194216854 118 102 67
0.05803089479449341 0.15896118647639526 -0.4618328318688873 118 102 68
0.05797210097783213 0.15876144330810144 -0.4635810931715946 116 100 66
0.05776440028433762 0.15831113634007976 -0.4654799036791828 111 95 61
0.057713180603829906 0.15812375782591892 -0.46722687740104074 110 94 60
0.05761048879809638 0.15784963668278312 -0.4690280872774706 112 96 63
0.057467359731481205 0.15750730218415315 -0.4708730293923318 110 94 62
0.05736929590303763 0.1572405771310568 -0.47267611626078815 111 95 62
0.057299434596146614 0.15702111666085988 -0.47445389692038914 117 100 67
0.0571726429377103 0.15670567464680357 -0.47629234387665204 126 107 74
0.05708429771680284 0.156454737107176 -0.4780950845370117 136 117 83
0.056929388372723135 0.15609156863736096 -0.479968880758391 133 115 78
0.05677422953022714 0.15572776464368374 -0.4818465426197747 130 111 74
0.055667240721690214 0.15376115863263065 -0.48470611998336954 142 122 85
0.0557869967388886 0.15385964675229913 -0.486310924122057 148 128 91
0.05576715138268592 0.1537229308989005 -0.4880618687239539 153 133 96
0.05557575007590826 0.15329709761943733 -0.4899936709903204 156 136 99
0.05545860743099642 0.1529961233741298 -0.491851989011453 157 137 100
0.055281539818552855 0.15259398699750581 -0.49377637281246517 151 131 94
0.055103568170194746 0.15219009868057376 -0.4957055358652084 143 124 88
0.054926256026260785 0.15178709222538567 -0.4976378496132573 145 127 91
0.05465704612253497 0.15122896884440026 -0.4996711438596362 149 131 93
0.05444126794350586 0.15076064205333906 -0.5016522987937365 143 125 86
0.054152409974251914 0.1501688647664545 -0.5037153808951643 143 123 88
0.05391114598261511 0.14965705476643476 -0.5057323296257092 151 131 96
0.053875472658202285 0.14949167372635405 -0.5075333115605243 151 131 96
0.053491784120135624 0.1487391856154943 -0.5097113772998482 151 132 95
0.05328496722266588 0.1482847114312741 -0.5117040176218767 155 137 97
0.052940468536066654 0.14759772595268553 -0.5138498600133339 148 128 91
0.0527596508930204 0.14718659350909716 -0.5158230306517279 137 114 79
0.05257844170611033 0.14677456428721203 -0.5178005830497474 127 107 74
0.052396790209484 0.14636155183114996 -0.5197825858347773 126 106 73
0.05224594350954576 0.1460002959094325 -0.5217347561771424 130 111 76
0.05167072761810769 0.1449224475741477 -0.5241580496041225 135 115 80
0.05161841548930845 0.14472700392194954 -0.5260104421653276 144 125 87
0.05150227762475306 0.14442360754073671 -0.5279366440776181 142 123 85
0.051416498524968955 0.1441712690272886 -0.5298325956279608 132 111 79
0.051323083524741624 0.14390583641966342 -0.5317403758997912 153 134 98
0.05113483646377312 0.14348001283857964 -0.5337577410490363 148 129 92
0.051064301297977885 0.14325280984819372 -0.5356469122999242 148 128 91
0.05078508502202854 0.14267281826268274 -0.5377745971602373 152 132 95
0.05066210289598414 0.14235655579603512 -0.5397303231141717 152 134 96
0.050511093664958207 0.14199270851165385 -0.5417214873587476 151 133 95
0.05030165885918156 0.14152987378536808 -0.5437830366054819 145 127 89
0.05013122143933771 0.14113270952951554 -0.5458043200557324 145 126 85
0.05004632550116886 0.1408799371727048 -0.5477315418141463 126 106 68
0.04979982600021736 0.1403536921342865 -0.5498480203548913 140 120 85
0.049552750747077816 0.1398261984348116 -0.5519697691097317 143 124 84
0.04947998062642047 0.13959325813333115 -0.5538943121046246 152 134 93
0.04920188586676278 0.13901277675502782 -0.5560606823988532 145 125 88
0.048473969014407106 0.13767094550346676 -0.5587562105891023 138 115 82
0.04828002118508366 0.1372321667094356 -0.5608356704537182 145 124 90
0.04813229095814826 0.13687135101153602 -0.5628651648322407 144 124 89
0.048056765836292786 0.13663251598716178 -0.56481358287437 150 130 93
0.04798116090409751 0.13639334500522382 -0.5667654598921573 161 141 104
0.04804967143871313 0.1363979683035101 -0.5685499725154547 160 139 99
0.04784354539568892 0.1359374177085299 -0.5706631822199206 149 131 92
0.04774707999748694 0.1356623169207587 -0.5726500231830787 156 136 98
0.04765041543480504 0.13538666646638248 -0.5746406594486174 162 141 101
0.047553553710163135 0.1351104691208347 -0.5766350989458251 153 134 91
0.04756109080419746 0.13501093192748392 -0.578507411451622 150 130 89
0.047432715374603106 0.1346809331914203 -0.5805466727740853 150 130 95
0.04721811216000814 0.1342045773176611 -0.5826942657507915 153 130 98
0.04703757013856862 0.133785682344829 -0.5848049669355336 116 96 64
0.04715366505008542 0.1338693743483881 -0.5865581385180624 138 119 86
0.04699202526495984 0.13348208554168522 -0.5886530861081778 139 121 84
0.046900579410700804 0.13321357148692353 -0.5906660045146579 134 114 78
0.046853561934538275 0.13302018660637566 -0.592627804862335 145 125 89
0.04688487112671987 0.13295945574882634 -0.5944960967522632 142 122 85
0.04635384636443512 0.1319446738462594 -0.5970639021868306 132 113 76
0.047107238355390775 0.13310854202042158 -0.5980420118427068 138 120 82
0.04635180923475805 0.13171245147488445 -0.6008987828747565 135 117 78
0.046330465359908826 0.13156158678338775 -0.6028460258457264 149 131 92
0.04641762825435865 0.13159470142916005 -0.6046601739851862 122 104 68
0.04599452308253293 0.13076150765180655 -0.6071189845420963 132 113 81
0.045969757469590165 0.13060421046179505 -0.6090809910886507 162 145 104
0.04579768209464146 0.13019659932429997 -0.6112327672668949 142 123 82
0.045929810380110604 0.13030532989364238 -0.6130022380158396 162 144 102
0.04584595169707347 0.13004710609037778 -0.6150489740000787 164 146 106
0.04583803878401266 0.12991767309858634 -0.6170022114830511 163 145 107
0.04581897704731768 0.129769118299433 -0.6189727819941833 166 146 107
0.04593038407331025 0.1298420637113215 -0.6207785768262797 167 148 108
0.04592741049800858 0.12972050663368842 -0.6227341152533826 158 138 101
0.04566437813041065 0.12915676463410114 -0.6250294255846105 158 140 99
0.045613473372095995 0.12895330818472742 -0.6270542996465189 148 130 89
0.04535124942953589 0.12839038081589565 -0.629357934272325 153 135 93
0.04528869732984678 0.12816666094275753 -0.6314057173982583 162 144 103
0.045389753591111845 0.12822096289260404 -0.6332425213597482 159 140 99
0.04522290337930329 0.12781946696225738 -0.635433862366857 171 150 110
0.04545515433261333 0.12809661325390548 -0.6371031025835355 144 122 84
0.045487901308966835 0.1280342696377826 -0.6390374875559337 152 132 95
0.045520663873491546 0.1279717866672601 -0.6409746306785924 141 121 85
0.045777676787037494 0.12829076909337656 -0.6426159965990601 163 144 102
0.045939951031405704 0.12844844374954462 -0.6443848439674341 163 145 101
0.046127588051088124 0.12864918964991745 -0.6461214549938452 155 137 95
0.046315361921394745 0.12885007693345396 -0.6478594168294625 168 150 105
0.04572930783511911 0.12773320817339423 -0.6506418319318499 168 149 106
0.04555909082042729 0.1273240521140498 -0.652869995093509 163 144 102
0.04566912106932128 0.12739196674634473 -0.6547226490369465 176 157 110
0.0451706065049403 0.12642308000144165 -0.6574051622224564 158 140 93
0.04531485507422671 0.1265488825552394 -0.6592180411891606 149 130 89
0.045106620776897685 0.12607393359544977 -0.6615151581418592 153 134 94
0.044840179846641154 0.1254994958449161 -0.6638970091632054 158 139 100
0.04495861826156229 0.12558077011287094 -0.6657543744228569 172 155 110
0.044826722738575214 0.1252351566569497 -0.6679595490360017 171 154 110
0.04477316586007769 0.12502285765917992 -0.6700604769068841 167 150 106
0.04423617169723108 0.1239859598582069 -0.6728365382517382 171 153 111
0.044056491960202226 0.12355800688860998 -0.6751224161520328 169 152 111
0.043647759743523404 0.12273906783900339 -0.6777330528651587 172 154 113
0.04322723287458026 0.1218996129093651 -0.6803668242699475 154 139 97
0.04269925556901097 0.12087641939873033 -0.6831583660604722 135 120 83
0.041951246949053236 0.11947728603004616 -0.6862677838278495 147 130 94
0.04116441342232677 0.118011320897394 -0.6894416092600724 146 131 92
0.04062999939156704 0.11697564907949079 -0.6922672548645225 126 111 74
0.040045974369363344 0.11585481616215354 -0.6951712239154578 101 83 50
0.03979360822939951 0.1152998051739706 -0.6976101544642137 124 109 76
0.03940108750839863 0.11450512142306365 -0.7002550527738115 131 117 86
0.03951184436772745 0.11456964893127833 -0.7021841962868043 117 102 74
0.040096978140270426 0.11544439899869993 -0.7034328000009122 101 85 60
0.040386081403964116 0.1158134751724777 -0.7051071273536004 72 57 31
0.04031203886666512 0.11556196720477935 -0.7073081389420067 94 79 52
0.04080113028981143 0.11627263688527731 -0.7086952405389624 120 105 74
0.04105831610108189 0.11658696578457667 -0.710419262439754 116 100 68
0.04125855046695723 0.11680386746411137 -0.7122275956658594 119 101 69
0.0413326292899901 0.11680497329684744 -0.7142223673586678 133 115 79
0.04117635407332414 0.11641200145280639 -0.7165583155473506 146 131 93
0.04114068973872484 0.11622503215540131 -0.7187211935122857 119 106 75
0.04109617556794565 0.11602270683197705 -0.7209008005672896 108 95 72
0.0410945629520007 0.1158935555101494 -0.7230205474436013 108 96 72
0.04089840361284709 0.11543131810571192 -0.7254328877271584 106 93 70
0.041079442662926374 0.11561429200585005 -0.7272879015293521 90 78 58
0.04108048948788981 0.11548908412487721 -0.729413864591865 95 83 59
0.041070695421794534 0.11534511683830237 -0.7315594585599 104 90 61
0.04094240105509836 0.1149980561124942 -0.7338867495688471 122 105 69
0.040716306345780814 0.11448325518380681 -0.7363660702551731 148 130 87
0.04029602100436369 0.11363555588185492 -0.7391445175570065 148 131 90
0.03997697558910389 0.11296084682098129 -0.7417764654662693 134 120 83
0.039828197885473635 0.11257746151193679 -0.7441555833525498 114 100 71
0.039102062809223334 0.11120453976797895 -0.7474203716825083 146 129 96
0.03855679549908213 0.1101409810871537 -0.7504182168777406 144 127 90
0.037979657410743495 0.10902230523125778 -0.7534732217864046 144 127 94
0.037122938680385964 0.10742386102073481 -0.7569670451005204 142 125 92
0.03632457421565978 0.10592480439313404 -0.7603818421308783 145 127 95
0.035491894798481374 0.10436627728257783 -0.7638602993466644 148 130 95
0.035250336978993144 0.10382087027066245 -0.766432087760369 147 127 93
0.0342403688953921 0.1019571036354501 -0.7702056815286488 129 109 74
0.03374452724368926 0.10097458616858698 -0.7731891836581386 112 94 52
0.03265473461694621 0.09897250011144912 -0.7771104851271851 133 117 75
0.033721265930964195 0.10066998771379981 -0.7776597001303137 108 93 60
0.034174217020452216 0.10131472958404719 -0.7791690268389261 67 53 27
0.034626014273464206 0.10195751816104492 -0.7806797168913883 72 56 30
0.03485838775630322 0.10222361542274577 -0.7825373832083592 125 109 76
0.03410840989282353 0.10080280784985701 -0.7859563728473672 99 83 51
0.03471434079916419 0.10171000370863928 -0.7872266564411234 74 57 33
0.0355926202810653 0.10308510955819652 -0.7880602244029696 58 42 18
0.035600197934342506 0.10296467169838455 -0.7902837722370178 65 50 22
0.035607493895742276 0.1028435375996139 -0.792511327878718 92 77 46
0.03660541359956174 0.1044245400750271 -0.7931472196535855 78 64 33
0.03723470214628026 0.10537228565508794 -0.794373012980376 73 59 29
0.03738755754251906 0.10550116426294046 -0.7963682754690862 88 75 44
0.03695624127081282 0.1046255572219768 -0.7993144439283206 85 71 41
0.037556141779826205 0.10552272115382696 -0.8005888920643581 93 78 48
0.038201621017310575 0.1064983791619622 -0.8017871164409633 93 78 46
0.03872381207316715 0.10726210272950368 -0.8031850205440619 90 74 44
0.0391930520004162 0.10793479648116436 -0.8046687847866199 88 72 39
0.039423242865285216 0.10819621081992095 -0.8065455818821085 131 116 74
0.04009953558168987 0.10922523089122896 -0.807687313572545 145 130 90
0.04059267510187621 0.10993916111068552 -0.8091298120639067 152 136 97
0.041060813423140746 0.11061010272632302 -0.810612989323859 155 140 100
0.041556073062655643 0.1113277761640045 -0.8120504006239848 158 143 101
0.04156868853012194 0.11121438494890659 -0.8142928178937324 157 142 101
0.04173504741898669 0.11136556838593867 -0.8162814192444388 152 136 95
0.041845890904739516 0.11142099299693597 -0.818365411005467 156 139 99
0.04214447000509236 0.11179969348998425 -0.820136041499695 163 145 102
0.042152516741801246 0.11167771672155724 -0.8223981181424351 153 137 96
0.042611769487735665 0.11233312401045903 -0.823900040118934 147 128 89
0.043326456259126 0.11342884547945536 -0.8249678384833048 148 132 96
0.04384779764968891 0.11419142362792736 -0.8263618389196543 117 103 67
0.043727445313079705 0.11384764428143296 -0.8288500060989984 143 126 85
0.04381302280741188 0.11385869925146219 -0.8309906156284891 156 139 97
0.04391271199941582 0.11389391604742516 -0.8331099848153228 153 135 96
0.04427558908157636 0.11438297824316451 -0.8347792848412909 136 117 81
0.044457452534392566 0.11455970671640006 -0.8367613289693407 140 122 85
0.044935059482201195 0.11524665273626433 -0.8382337326900253 145 127 90
0.04486537031189082 0.11498905818266295 -0.8406550230238354 146 129 94
0.04494033798206423 0.11498090139507616 -0.8428291212511629 147 130 95
0.0457060127567888 0.11616504451794574 -0.843801398678677 152 135 101
0.046299116029095116 0.11705140343268267 -0.845072121369926 150 133 99
0.045970892126313126 0.11634670234431183 -0.8479570521961682 146 129 94
0.045699292253169044 0.11573939318094725 -0.8507493645348003 141 125 91
0.045273059277479794 0.11486455403094312 -0.853820821725378 143 128 94
0.04501377489992313 0.11427771001712461 -0.8566050045793329 146 132 101
0.04410001724718625 0.11255944060099296 -0.860555978264856 108 99 77
0.0437040615532789 0.11173541761843275 -0.8635990195901405 76 70 56
0.04358846803934517 0.11139561022500699 -0.866149981817243 96 90 76
0.04783098725493304 0.11761110317608742 -0.8773287326551523 192 190 190
0.050084702803780995 0.12137216477146975 -0.8755734716905927 198 196 197
0.09620663485518326 0.19664714853833848 -0.8680397879985294 214 212 213
0.09708218385865232 0.19803759197191112 -0.8685422087419454 212 210 211
0.09727775416101485 0.19824350644583413 -0.870407843469581 212 212 212
0.09872463422690848 0.20063005493963548 -0.8697507729251879 213 213 213
0.09834507802350967 0.1998336382265729 -0.8727770488532128 213 213 213
-0.053231639307980444 -0.010961295987051284 -0.23313321639573567 178 179 177
-0.053709690507680714 -0.011850373331516437 -0.23496011368178613 177 178 175
-0.053446243350803974 -0.011514620384859495 -0.23648570598387847 175 173 166
-0.054425892745568694 -0.01323298683303259 -0.23852847038131825 133 125 113
-0.05303440700865192 -0.011033367474814898 -0.23958687269163997 124 112 97
-0.053997802783702246 -0.012725389352745337 -0.24163130381441209 151 136 115
-0.05303694733763076 -0.011237267941206205 -0.24286747129432631 183 168 139
-0.052321467982584635 -0.010154570991054324 -0.2442050628688797 172 159 130
-0.051415164832570366 -0.008756278992003291 -0.2454587699615653 148 135 109
-0.05071256577410432 -0.0076946122996688765 -0.24679755849568413 141 126 101
-0.049669315526421856 -0.006069536383006183 -0.24798625053536522 152 137 109
-0.049289970375641236 -0.005542169595818491 -0.249461958159795 151 134 103
-0.04853710235026823 -0.004397019664963614 -0.25077297318495617 142 125 93
-0.04758490827528979 -0.0029220331716480197 -0.2519934100658284 132 117 93
-0.047103603845444146 -0.0022258282706865973 -0.2534208130955253 83 75 60
-0.04657752352978107 -0.0014555064957805647 -0.25482748179930126 48 41 33
-0.047299439701579495 -0.0027500930437833054 -0.25679757225286215 42 35 30
-0.048720056032374004 -0.005201263422145566 -0.2590917936988317 24 18 18
-0.045955150350972834 -0.0007261526273860813 -0.2594798964661166 15 12 11
-0.045132810066641285 0.0005345680820766918 -0.260749308889668 14 11 10
-0.04797035032232131 -0.00426280935639306 -0.26371269407276926 14 9 9
-0.04685561922924817 -0.002518362995037271 -0.26485105482833565 20 14 12
-0.044802562811358956 0.0007798916664818883 -0.26554485571833164 57 51 45
-0.04314606426589669 0.003422096647257608 -0.26641626647958105 93 84 73
-0.04134166651545782 0.006309672770124411 -0.2672100633625227 122 113 96
-0.0404548149541993 0.007678121812185662 -0.26843410420572983 156 146 130
-0.040240382742148015 0.007932981539876524 -0.2699784441635995 90 83 72
-0.03983869219252312 0.008497986785830414 -0.2714331226542334 34 29 22
-0.039437101816712464 0.009062836809576716 -0.2728876735555049 39 34 28
-0.03941649438448684 0.008996451243611661 -0.27452849998949735 45 40 36
-0.03932538476660959 0.009046768987211157 -0.27613664513522085 36 31 28
-0.038794513668572526 0.009825778678396638 -0.2775286506363882 17 13 10
-0.03844390072331307 0.010306081632663167 -0.2790095150969105 14 10 7
-0.03820075053997775 0.010608247613395627 -0.2805443368258583 54 48 43
-0.0382342413412464 0.01045176081723187 -0.2822192993449105 101 92 84
-0.036973886047814805 0.012440260270205797 -0.283240902777566 97 86 77
-0.03635897036333521 0.013358855089073446 -0.28458631506521975 55 43 36
-0.0357195856237057 0.014318113612724157 -0.2859177618435237 42 31 29
-0.035447845145259435 0.01466773657654756 -0.28743717850224765 35 25 24
-0.03506710277069013 0.01519812123641584 -0.2889006604014665 35 28 22
-0.03493561958900265 0.015315028934561659 -0.2904940481462914 47 41 35
-0.03450757556637452 0.015923850313529983 -0.29193334364749934 43 38 33
-0.03430256105127519 0.0161626426865151 -0.29348990062111624 24 21 17
-0.03371553368176307 0.01703527774265358 -0.29484488751787796 14 12 11
-0.03354794413473142 0.017211910897054095 -0.2964222269622692 9 5 5
-0.033713923159122555 0.016834836435431724 -0.2981795910749614 29 25 21
-0.033196534177303685 0.01759189984327006 -0.29957175585946244 64 61 56
-0.03249309340060152 0.018657878912327952 -0.3008622169454996 59 53 49
-0.03280724410630451 0.018034498599249008 -0.30270526421329985 48 41 37
-0.032390228045777854 0.018624938922411155 -0.3041517459576823 35 30 27
-0.03188045287198384 0.01936943455268586 -0.3055468576083054 25 20 17
-0.03147637460606624 0.019938437242028914 -0.3069996899275946 55 51 47
-0.031014076214698705 0.020604155116532435 -0.30841990889085924 83 82 77
-0.03036710268684442 0.021576684033283014 -0.3097362018359368 47 44 41
-0.030176582669458732 0.021790980093157608 -0.31130774391836047 25 20 20
-0.02957088137646463 0.022695050921605495 -0.31264546028362583 35 30 27
-0.02900720013256583 0.023529381449320083 -0.3140056749484574 76 72 65
-0.028433501040204527 0.024380430896943778 -0.3153590086987243 82 77 71
-0.027746556162488507 0.02541977875668959 -0.316646036523937 54 49 45
-0.02648714337335495 0.02741083861483548 -0.31760040876983775 36 31 28
-0.025243485373476586 0.029376032271425892 -0.31855858732394826 40 36 33
-0.026112544611944254 0.027828864893545566 -0.32074489415273144 39 35 32
0.05586926550535523 0.1560631595432349 -0.40543852343562203 116 103 86
0.05610986282797558 0.15636878341884422 -0.40684834622438604 116 108 83
0.05645608236766178 0.15685181198158496 -0.4081670576752797 113 107 81
0.05733743353609562 0.15823396996437886 -0.40901899703104616 110 103 79
0.05801122982480375 0.1592675790849291 -0.4100489339182598 102 93 72
0.05899239351128415 0.1608178936324637 -0.4108063992323232 96 85 66
0.05994447105065734 0.16231958881686018 -0.41158510908092577 93 82 63
0.06057438247394165 0.16327997192159527 -0.4126449587795291 89 78 59
0.061088511266781324 0.16404582083300895 -0.4138057340596851 90 78 59
0.06045416356312523 0.16288064626230633 -0.41599045482548475 91 79 59
0.0605901888241694 0.16301056669922698 -0.4174915112398097 92 80 60
0.06066486557614516 0.16303722422736092 -0.4190491173822115 90 78 58
0.06019941718402731 0.16215524275630183 -0.42109623519442396 90 76 56
0.06009224688252204 0.16187565010561397 -0.4228241237870441 89 75 54
0.059845137188814915 0.16136042401978942 -0.4246824004570773 87 73 50
0.060089167099219666 0.16167139519405554 -0.426096128791464 86 72 49
0.06019522204740976 0.16175012733003646 -0.4276369920285556 86 73 50
0.06056383452046182 0.16227068000598927 -0.4289378222741963 90 76 53
0.061090530433354925 0.16305735450164963 -0.4300923936223874 93 79 56
0.06200181156625078 0.16449157876720885 -0.4308890297197261 92 76 52
0.058267371044340176 0.1578007668694061 -0.4409812409527708 94 79 51
0.058836836906724074 0.15845605547410022 -0.44543626879534187 93 76 49
0.05855900668732031 0.15788624197942697 -0.44737012697553297 89 72 45
0.059564999665908 0.15948001330755474 -0.44807738418042026 85 68 41
0.060317372216237675 0.16064654613899076 -0.4490240075686782 89 73 46
0.060534578571931105 0.1609110180112165 -0.45048462151483676 101 86 57
0.05976519036650243 0.1595119205979233 -0.45290253823354015 113 97 65
0.05960407733310312 0.15913810040558007 -0.45473648070595074 117 100 67
0.05985130035918915 0.15945274346697144 -0.4561752296386163 119 103 69
0.05978191896165068 0.15923330764562482 -0.4579249436719875 120 104 70
0.05978927596046625 0.1591431505621901 -0.4596020942077511 117 101 67
0.05961936511645779 0.15875376170524536 -0.4614566276484548 115 99 65
0.05948725959200193 0.15842794397344756 -0.463277355202262 112 96 62
0.05935801063127519 0.15810674072513706 -0.46509863118760414 106 90 56
0.05922694605180122 0.15778226740658063 -0.4669250949107544 109 93 59
0.05914629827673444 0.15754269466105875 -0.468704459745955 118 101 67
0.05905699579744522 0.15728832504166082 -0.47049556494789607 114 98 64
0.058960466790033486 0.1570215639491756 -0.47229706992724335 116 100 66
0.058258315217830356 0.1557318749446756 -0.47471484677766274 125 109 74
0.05799196985846397 0.15517778251413827 -0.47669740981428327 132 114 77
0.057873276320249856 0.15487283081130393 -0.47853384425734535 137 119 81
0.05757047458491426 0.1542566436288935 -0.480562012077348 136 118 78
0.05743324302100046 0.1539199202073437 -0.4824248652205651 139 120 82
0.057249264567265326 0.1535039888235964 -0.4843393934652325 146 126 89
0.057537886985080736 0.1538865453009749 -0.48576906130798914 147 127 90
0.05732431043989801 0.15342022003674094 -0.4877202961492416 150 131 93
0.05718116965928828 0.1530727179011377 -0.4896022630056861 148 129 90
0.057028098613242706 0.1527082086263045 -0.49149818418489327 150 131 92
0.05679630120176045 0.15221035460561425 -0.49348032234073524 149 130 91
0.05659181637027991 0.15175843245684656 -0.4954379601495195 148 129 91
0.0564075585935403 0.15134047551250557 -0.497378288809952 153 135 97
0.056154875490157255 0.1508065309996954 -0.4993950389026965 152 134 95
0.05587768267263786 0.15023085060509284 -0.5014422755011033 147 129 89
0.05561548528492146 0.14968026249498856 -0.5034781248952807 149 130 92
0.05536119198196343 0.14914277555156724 -0.5055100243039834 154 134 96
0.05509966145019632 0.14859276761432075 -0.50755416456976 153 133 96
0.05503466724442825 0.1483751687842234 -0.5093909380448165 154 136 95
0.054831255864716044 0.14792304682776133 -0.5113805399839537 159 142 99
0.054526745571133295 0.1472994944313517 -0.5134840071401388 155 134 97
0.054390002849538224 0.1469597456853005 -0.515409604481322 142 119 86
0.05425296838288893 0.14661928128808985 -0.5173391588360499 136 115 81
0.054115644409296004 0.1462781043416746 -0.5192726790664683 131 111 76
0.053716047371978756 0.14549238809832013 -0.5214984808894704 139 119 83
0.05336208825463605 0.14478365467842358 -0.5236795171771627 136 116 80
0.053164743004823746 0.14433998935091208 -0.5256923317049117 139 119 83
0.05308971083646381 0.14410336630951992 -0.5275733063990405 136 116 81
0.05279545522832364 0.1434949605065053 -0.5297020419020655 124 103 73
0.052851386468219144 0.14347990840978403 -0.5314437240929237 144 124 89
0.05266498818802526 0.1430538565140218 -0.5334597942506072 154 133 96
0.05255175907734141 0.1427516286011902 -0.5353975089995958 150 129 92
0.05244128788791129 0.14245386207202856 -0.5373356506543304 151 129 92
0.052148541194123384 0.1418467119816868 -0.5394840832212966 151 132 94
0.05196327160913427 0.14142158543739855 -0.541515116133641 156 137 100
0.05196635796574893 0.14131577711300064 -0.5433351806442519 156 136 99
0.05175752895197541 0.1408502153699628 -0.5454007319288173 152 133 93
0.05147987092836439 0.14026758226881908 -0.5475497162598262 141 122 83
0.051235682496213276 0.13974146250886893 -0.5496649468370332 141 121 84
0.05098671449978386 0.13920694891321023 -0.5517903109420921 142 122 85
0.050879528364314516 0.138912867004999 -0.5537557206896717 142 124 84
0.050751617292045165 0.13858337616608413 -0.555748845106116 146 126 87
0.05066494007328864 0.13832368288317726 -0.5576975236527485 138 117 79
0.05056545791878076 0.1380420315811946 -0.5596646486180887 145 124 87
0.04969718713200354 0.13645420984908302 -0.562539653496669 141 121 83
0.04961740619373609 0.136205418116706 -0.5644935756554504 155 136 97
0.04950909894603041 0.1359079473417279 -0.56648468139645 168 149 108
0.04937588550550057 0.1355679290289038 -0.5685090087544428 169 150 107
0.049242476685016245 0.1352273450083624 -0.5705374056341468 163 144 102
0.0491494798754826 0.13495522288314848 -0.5725213312036251 161 142 101
0.04904376635887278 0.13466126502118594 -0.5745240525469287 158 140 98
0.04884651893375811 0.13421144371538102 -0.5766405751505912 153 135 93
0.04886815132813717 0.1341335842945498 -0.5784972137521599 158 139 99
0.04892719328438673 0.13411918986579763 -0.5803112146645396 159 141 102
0.048814747200933054 0.1338129353126406 -0.5823359780193725 160 141 103
0.048661249180443844 0.13343661103761595 -0.5844145176308325 119 99 66
0.04869642286037072 0.13338107482396272 -0.5862663880802702 142 121 89
0.04855571205632116 0.13302606140723985 -0.5883366355572927 138 118 84
0.04853805507072235 0.1328802474309111 -0.5902594108211077 134 114 80
0.048368845389612496 0.13247626530661075 -0.5923723317908023 139 119 86
0.04836856425883185 0.1323596292583067 -0.5942802304217891 134 114 80
0.04843095684047761 0.13234953462727167 -0.5961131490069562 142 123 88
0.04854952484795854 0.13243495971556526 -0.5978784514924811 143 124 86
0.04834214429117365 0.1319650975462609 -0.6000533279552888 152 134 93
0.04787065733802673 0.13104505850795795 -0.6025640798146541 155 137 94
0.04753549319965764 0.13035686925613582 -0.6049099433687418 147 129 89
0.04732979977674517 0.12988895218181595 -0.6070979578449137 150 131 92
0.04728257854119024 0.12969082511567187 -0.609089861432151 164 145 102
0.0472470540961069 0.12951243207268942 -0.6110702314318224 152 131 92
0.04707222004129236 0.12909636205399244 -0.6132313766907719 153 131 95
0.04713964509723883 0.1290930620560961 -0.6150871818463497 151 131 96
0.0477193256846124 0.129963100607984 -0.6162885012099908 151 131 97
0.0476772209753459 0.12977283495631303 -0.618288018450182 146 125 92
0.04721596384049557 0.12886743290239205 -0.620831743058234 158 138 102
0.04742990891282247 0.12911345810144859 -0.6225081481745964 158 138 102
0.0472582157156335 0.12870144630137573 -0.6246865733051705 158 140 98
0.04720920360217769 0.12849851056495926 -0.626709592776397 160 143 99
0.04708113436837863 0.12816044454016795 -0.6288393137641178 139 122 83
0.04714773469549251 0.1281544122181913 -0.6307179525233751 148 130 94
0.04700983246414621 0.1277991134105964 -0.6328679323976141 143 127 84
0.04711668176338813 0.12786144809114985 -0.6346993017540712 153 134 92
0.046979706935977625 0.12750728717945792 -0.6368553754074341 148 129 90
0.046820921812274936 0.1271156232272056 -0.639044552398351 144 124 88
0.04674626265754749 0.12686739281041345 -0.6411261117427194 159 140 99
0.047078024924380714 0.12731326245757488 -0.6426687496628217 167 149 100
0.04692121423758066 0.12692431863204073 -0.6448660138071357 164 146 100
0.04676400833871181 0.12653443383177376 -0.6470681705932347 138 121 79
0.04741725180893611 0.12752944825966747 -0.6481827381349435 156 138 98
0.04764076834575979 0.12779003358213337 -0.6498757868624209 169 152 106
0.04763146042499554 0.12765249792339362 -0.6518857034841927 158 140 94
0.04763463665237304 0.12753611522763408 -0.6538818228954564 174 156 110
0.04718421482901472 0.12664383001854784 -0.6564996630678179 172 153 108
0.04660942498093984 0.12553841034707952 -0.6592944809556075 164 145 103
0.046865494243229444 0.125853812270593 -0.6609571411302495 166 148 107
0.04676857659636505 0.12556522936610873 -0.6631066218676073 157 140 101
0.046663228119354846 0.12526197964358793 -0.6652716891440544 159 144 101
0.04655767671494204 0.12495813736853859 -0.6674410651213072 164 149 107
0.04603885269627088 0.12394666894875014 -0.670188424001924 145 128 89
0.0457135539446199 0.1232660414969044 -0.6726737120997689 137 119 88
0.04512590744302 0.12213587233791857 -0.6755314363096413 127 112 81
0.04469596337989497 0.12127526193585465 -0.6781762794069071 122 107 76
0.044086346642611546 0.12010651608291475 -0.6810804649975406 147 132 97
0.043249125300773 0.11854739172269484 -0.6843138463038465 150 132 95
0.04251270653655417 0.11716033568257117 -0.6874149688831357 164 144 110
0.04177294065012711 0.115766969434597 -0.6905302825804135 129 113 78
0.041384240168476485 0.11497464633391735 -0.6931557413150489 139 127 96
0.04059123060282341 0.11348895531405381 -0.6963645402295824 127 112 79
0.040119876165598686 0.11255404279298051 -0.6991230869761422 154 137 100
0.039945531910187126 0.11212790353934038 -0.7014626779083508 164 149 113
0.0401288974471216 0.11231485083615494 -0.7032921752219614 132 118 84
0.04032772323122426 0.11252820639569994 -0.7051010942079733 106 91 59
0.040687812475473414 0.11301807144804066 -0.7066781375793902 86 70 38
0.041077279570062575 0.11355832005011957 -0.708212759116482 84 69 35
0.041288794652308156 0.11379324397863749 -0.7100065407001387 105 90 58
0.04190396048978763 0.11472075447636615 -0.711212222833998 90 75 47
0.042145722919146936 0.11500751281544261 -0.7129629895248274 89 72 47
0.042143628502041494 0.11487560025823254 -0.7150733093234486 113 96 67
0.04203974127102782 0.11456872320550834 -0.7173369898427958 126 110 79
0.041876562943902934 0.11415977994587276 -0.7196925422386728 124 108 84
0.04170491591449782 0.11373600268864187 -0.7220654146637473 89 76 58
0.04178424307357832 0.11374300539791068 -0.7240700543794071 93 81 62
0.04200539499573892 0.11399348119318525 -0.7258659398971051 81 71 51
0.04211790475988138 0.114057205707073 -0.7278257341095823 84 74 54
0.04225756963798209 0.11416744667894188 -0.7297472203089236 92 81 61
0.042111952177132525 0.11378724962830236 -0.732099929357691 123 109 80
0.04175490758310835 0.1130433390923633 -0.7347762036523189 157 142 107
0.041226278786381146 0.1120040436086632 -0.7377185559447985 157 140 102
0.040853237941479284 0.11123178587289753 -0.7404329278773493 157 138 103
0.04047901503380329 0.11045708700385928 -0.7431558034039584 150 133 96
0.04026401148264325 0.10995583518080068 -0.7456424762721418 155 138 100
0.03967259446196668 0.10880672655858925 -0.7487104774174718 145 124 89
0.03912443164904207 0.10773151000092535 -0.7517207765123952 144 122 89
0.038483927706915666 0.1064968863432269 -0.7548815020811721 140 121 88
0.03775702911772605 0.10511301419319652 -0.7581847196086592 135 120 86
0.03698141930281512 0.10364468839179053 -0.7615732700603677 138 122 90
0.03639651151646604 0.10250404431006324 -0.7646761937172312 154 136 97
0.03619114901011286 0.10201640045325633 -0.767197005831197 150 131 92
0.035359032989165526 0.1004490653906649 -0.7707016395182937 143 124 84
0.034655611803398934 0.09910272942843693 -0.774015754826883 132 115 71
0.03374036217365149 0.09739087857136675 -0.7776722952222436 130 114 72
0.034817251163779026 0.09911069739408951 -0.7782039429787518 128 113 81
0.0352361105358792 0.09969694217238723 -0.7797685781277157 79 65 41
0.03575338204763065 0.100452810561064 -0.7811772288275313 70 55 28
0.0357712951640656 0.1003479560968174 -0.7833778031967484 82 66 35
0.035432085723740944 0.09962719166485332 -0.7861505287283869 75 53 26
0.03582666027795206 0.10017130773719435 -0.7877581106631271 64 42 20
0.03699620093890356 0.10205193073347413 -0.7881246867847604 65 46 20
0.03686158093258737 0.10168345321019437 -0.7905787908024662 103 86 56
0.03738269849928949 0.10244593009017927 -0.791981683531077 118 103 68
0.03835403556454585 0.1039852958684562 -0.7926563813202262 91 79 45
0.03861711493799322 0.10430272937459409 -0.794472990313357 78 64 38
0.03859785293943477 0.1041327687420549 -0.7967494184267248 78 64 35
0.03859367372917616 0.10398861130408943 -0.7990051189275128 87 72 40
0.03796345095629666 0.10276333814474448 -0.8022870046309345 115 98 66
0.038589516046517905 0.10370687220275654 -0.803520776440167 130 113 76
0.03920599598428018 0.10463397574352096 -0.8047682547141861 134 116 77
0.039762619343298986 0.10545780334414623 -0.8061123614225978 148 132 90
0.04024222179429032 0.106148651031128 -0.8075822639856274 153 138 94
0.04098564602591226 0.10729540883584943 -0.80861453409198 135 120 77
0.04154252692501709 0.10811997021765038 -0.8099534720894325 137 122 80
0.04201764685598604 0.10880329452306678 -0.8114271505703148 147 132 92
0.04216363272307504 0.1089176594492508 -0.8134498109264621 144 129 91
0.0425533992321946 0.10945339136513649 -0.8150666064217036 141 126 85
0.04276945452265064 0.10968870954968615 -0.8169752288422519 149 133 93
0.043106390740872 0.11013300093881148 -0.8186820342066043 152 135 97
0.04318838661963255 0.11013623118640684 -0.8208199344911483 151 131 92
0.04361956595033335 0.11074343413439394 -0.8223695841668913 139 121 85
0.044054028363145814 0.11135633423585509 -0.8239133992082766 139 119 82
0.04447342315570854 0.11194317363258727 -0.8254825760170332 135 117 82
