ply
format ascii 1.0
element vertex 832
property float x
property float y
property float z
property float nx
property float ny
property float nz
property uchar diffuse_red
property uchar diffuse_green
property uchar diffuse_blue
property uchar class
property uchar detection
end_header
-0.0821 -0.0121 -0.2385 -0.837 -0.027 0.547 251 240 199 0 0
-0.0831 -0.0124 -0.2397 -0.562 -0.574 0.595 239 227 183 0 0
-0.0900 -0.0150 -0.2439 -0.326 -0.560 0.762 26 18 8 0 0
-0.0910 -0.0153 -0.2465 -0.769 -0.097 0.632 34 26 15 0 0
-0.1059 -0.0202 -0.2646 -0.834 -0.473 0.285 191 174 145 0 0
-0.1069 -0.0206 -0.2658 -0.852 -0.402 0.336 195 176 141 0 0
-0.1074 -0.0207 -0.2671 -0.852 -0.402 0.336 197 178 145 0 0
-0.1080 -0.0209 -0.2684 -0.760 -0.537 0.367 169 151 120 0 0
-0.1108 -0.0219 -0.2706 -0.715 -0.441 0.542 78 64 41 0 0
-0.1190 -0.0244 -0.2844 -0.901 -0.209 0.380 187 171 133 0 0
-0.1308 -0.0289 -0.2911 -0.711 -0.302 0.634 91 76 50 0 0
-0.1339 -0.0290 -0.3093 -0.875 -0.176 0.451 72 59 43 0 0
-0.1377 -0.0300 -0.3185 -0.839 -0.466 0.281 107 95 72 0 0
-0.1434 -0.0315 -0.3315 -0.666 -0.502 0.551 181 165 139 0 0
-0.1442 -0.0318 -0.3327 -0.773 -0.523 0.360 217 203 168 0 0
-0.1444 -0.0318 -0.3341 -0.869 -0.481 0.115 205 193 160 0 0
-0.1458 -0.0323 -0.3352 -0.722 -0.556 0.412 125 117 90 0 0
-0.1494 -0.0335 -0.3399 -0.747 -0.570 0.343 65 53 32 0 0
-0.1511 -0.0337 -0.3468 -0.729 -0.683 0.038 27 18 12 0 0
-0.1428 -0.0278 -0.3888 -0.901 -0.412 0.135 68 52 29 0 0
-0.1465 -0.0268 -0.4306 -0.789 -0.614 -0.027 82 70 46 0 0
-0.1467 -0.0268 -0.4321 -0.893 -0.449 0.039 82 70 46 0 0
-0.1480 -0.0272 -0.4331 -0.834 -0.246 0.494 74 63 39 0 0
-0.1464 -0.0264 -0.4355 -0.783 -0.604 0.153 73 61 40 0 0
-0.1462 -0.0261 -0.4389 -0.815 -0.420 0.399 65 53 37 0 0
-0.1476 -0.0266 -0.4399 -0.697 -0.309 0.648 54 43 30 0 0
-0.1338 -0.0185 -0.4805 -0.529 -0.309 0.790 14 11 11 0 0
-0.1348 -0.0189 -0.4816 -0.653 -0.373 0.659 22 20 20 0 0
-0.1392 -0.0204 -0.4862 -0.613 -0.160 0.774 22 19 16 0 0
-0.1543 -0.0258 -0.4988 -0.709 -0.281 0.647 79 71 68 0 0
-0.1615 -0.0285 -0.5017 -0.957 -0.025 0.288 93 83 69 0 0
-0.1646 -0.0297 -0.5034 -0.784 -0.510 0.355 106 97 86 0 0
-0.1657 -0.0301 -0.5045 -0.795 -0.336 0.505 81 73 64 0 0
-0.1671 -0.0306 -0.5054 -0.667 -0.308 0.678 55 45 39 0 0
-0.1675 -0.0307 -0.5070 -0.908 -0.284 0.309 71 62 53 0 0
-0.2426 -0.0603 -0.5257 -0.862 0.026 0.507 73 58 36 0 0
-0.1767 -0.0277 -0.6178 -0.464 -0.859 0.216 23 20 14 0 0
-0.1746 -0.0267 -0.6211 -0.581 -0.789 0.200 21 18 12 0 0
-0.1692 -0.0238 -0.6306 -0.580 -0.806 0.116 13 11 10 0 0
-0.1657 -0.0220 -0.6370 -0.813 -0.574 0.102 8 7 5 0 0
-0.1646 -0.0214 -0.6397 -0.763 -0.608 -0.220 8 7 5 0 0
-0.2077 -0.0366 -0.6802 -0.588 -0.367 0.721 111 100 75 0 0
-0.2131 -0.0386 -0.6836 -0.767 -0.094 0.635 122 106 81 0 0
-0.2143 -0.0390 -0.6845 -0.682 -0.028 0.731 113 97 73 0 0
-0.2187 -0.0405 -0.6906 -0.821 -0.011 0.571 109 95 73 0 0
-0.2167 -0.0330 -0.7999 -0.825 -0.499 0.267 46 39 28 0 0
0.0039 0.0244 -0.2319 -0.573 -0.169 0.802 117 103 70 0 0
0.0021 0.0238 -0.2331 -0.668 0.146 0.729 107 92 62 0 0
-0.0827 -0.0108 -0.2384 -0.932 0.087 0.353 231 217 174 0 0
-0.0884 -0.0128 -0.2429 -0.670 -0.312 0.673 44 37 24 0 0
-0.0914 -0.0139 -0.2465 -0.734 0.200 0.649 46 39 28 0 0
-0.1053 -0.0189 -0.2575 -0.749 -0.283 0.599 47 38 29 0 0
-0.1062 -0.0192 -0.2588 -0.749 -0.283 0.599 40 31 23 0 0
-0.1122 -0.0206 -0.2761 -0.715 -0.530 0.456 35 27 17 0 0
-0.1135 -0.0211 -0.2772 -0.625 -0.553 0.550 29 23 9 0 0
-0.1178 -0.0226 -0.2804 -0.823 -0.111 0.557 177 161 131 0 0
-0.1195 -0.0231 -0.2843 -0.859 -0.175 0.481 190 172 131 0 0
-0.1269 -0.0259 -0.2880 -0.787 -0.350 0.508 120 104 78 0 0
-0.1312 -0.0265 -0.3059 -0.749 -0.445 0.491 107 99 86 0 0
-0.1319 -0.0268 -0.3071 -0.804 -0.411 0.429 102 92 78 0 0
-0.1345 -0.0276 -0.3107 -0.921 -0.130 0.368 95 84 70 0 0
-0.1354 -0.0279 -0.3119 -0.673 -0.287 0.682 82 70 55 0 0
-0.1378 -0.0287 -0.3156 -0.682 -0.585 0.439 139 127 106 0 0
-0.1401 -0.0293 -0.3208 -0.767 -0.601 0.224 84 70 52 0 0
-0.1481 -0.0316 -0.3360 -0.707 -0.568 0.421 52 45 27 0 0
-0.1487 -0.0318 -0.3372 -0.707 -0.568 0.421 62 53 36 0 0
-0.1493 -0.0320 -0.3385 -0.707 -0.568 0.421 87 76 57 0 0
-0.1488 -0.0305 -0.3585 -0.802 -0.212 -0.559 52 42 28 0 0
-0.1426 -0.0262 -0.3874 -0.869 -0.367 0.332 61 46 24 0 0
-0.1431 -0.0263 -0.3888 -0.869 -0.367 0.332 50 35 13 0 0
-0.1461 -0.0249 -0.4326 -0.799 -0.597 0.065 84 72 50 0 0
-0.1466 -0.0250 -0.4340 -0.815 -0.455 0.360 94 83 61 0 0
-0.1472 -0.0251 -0.4354 -0.821 -0.537 0.197 93 82 61 0 0
-0.1473 -0.0251 -0.4369 -0.805 -0.593 -0.004 82 71 52 0 0
-0.1458 -0.0241 -0.4426 -0.490 -0.872 -0.015 44 35 25 0 0
-0.1459 -0.0241 -0.4442 -0.490 -0.872 -0.015 29 21 17 0 0
-0.1414 -0.0218 -0.4514 -0.509 -0.859 -0.059 24 19 15 0 0
-0.1392 -0.0205 -0.4575 -0.595 -0.504 0.626 27 22 19 0 0
-0.1400 -0.0190 -0.4861 -0.769 -0.408 0.492 31 26 23 0 0
-0.2316 -0.0556 -0.5048 -0.793 -0.347 0.501 86 77 58 0 0
-0.1767 -0.0261 -0.6163 -0.605 -0.157 0.780 34 26 20 0 0
-0.1770 -0.0261 -0.6179 -0.748 -0.370 0.551 31 24 18 0 0
-0.1764 -0.0256 -0.6220 -0.598 -0.655 0.461 24 20 13 0 0
-0.1505 -0.0127 -0.6580 -0.554 -0.726 -0.407 14 13 11 0 0
-0.1516 -0.0131 -0.6591 -0.698 -0.610 -0.375 17 16 14 0 0
-0.1628 -0.0157 -0.6924 -0.865 -0.126 0.486 40 36 33 0 0
-0.2039 -0.0334 -0.6797 -0.383 0.065 0.921 105 95 78 0 0
-0.2134 -0.0370 -0.6837 -0.870 -0.127 0.476 151 133 106 0 0
-0.2143 -0.0373 -0.6849 -0.767 -0.094 0.635 140 122 94 0 0
-0.2189 -0.0388 -0.6908 -0.821 -0.011 0.571 100 86 65 0 0
-0.2255 -0.0396 -0.7225 -0.922 0.359 0.146 111 91 64 0 0
-0.2233 -0.0381 -0.7324 -0.943 -0.121 0.311 60 52 40 0 0
-0.2035 -0.0264 -0.7896 -0.438 -0.474 0.764 9 7 8 0 0
-0.2049 -0.0270 -0.7904 -0.741 -0.277 0.611 9 6 8 0 0
-0.2065 -0.0276 -0.7910 -0.646 -0.181 0.741 8 7 7 0 0
-0.2076 -0.0280 -0.7921 -0.646 -0.181 0.741 10 8 6 0 0
-0.2096 -0.0285 -0.7965 -0.811 0.112 0.575 21 15 14 0 0
-0.2174 -0.0315 -0.7997 -0.832 -0.380 0.404 35 30 24 0 0
0.0038 0.0261 -0.2319 -0.829 -0.394 0.397 107 93 62 0 0
0.0032 0.0260 -0.2333 -0.827 -0.139 0.544 112 98 68 0 0
0.0031 0.0260 -0.2349 -0.802 -0.218 0.556 112 97 68 0 0
0.0026 0.0259 -0.2363 -0.949 -0.239 0.204 109 95 68 0 0
-0.0854 -0.0102 -0.2393 -0.917 -0.368 0.158 195 180 144 0 0
-0.0888 -0.0115 -0.2414 -0.766 0.073 0.638 75 66 41 0 0
-0.0992 -0.0153 -0.2505 -0.919 -0.158 0.362 190 175 148 0 0
-0.1086 -0.0183 -0.2640 -0.657 -0.684 0.319 162 152 132 0 0
-0.1093 -0.0185 -0.2653 -0.756 -0.430 0.493 190 176 150 0 0
-0.1130 -0.0194 -0.2760 -0.715 -0.530 0.456 26 19 10 0 0
-0.1135 -0.0195 -0.2773 -0.832 -0.389 0.395 27 20 8 0 0
-0.1181 -0.0212 -0.2804 -0.697 -0.500 0.515 184 168 138 0 0
-0.1191 -0.0214 -0.2830 -0.859 -0.175 0.481 221 206 169 0 0
-0.1198 -0.0216 -0.2843 -0.859 -0.175 0.481 197 178 141 0 0
-0.1305 -0.0252 -0.2988 -0.821 -0.382 0.424 57 46 37 0 0
-0.1311 -0.0253 -0.3001 -0.821 -0.382 0.424 60 49 38 0 0
-0.1310 -0.0250 -0.3045 -0.783 -0.287 0.552 76 68 57 0 0
-0.1318 -0.0253 -0.3058 -0.783 -0.287 0.552 157 149 138 0 0
-0.1344 -0.0260 -0.3109 -0.730 -0.369 0.576 54 44 30 0 0
-0.1363 -0.0267 -0.3132 -0.837 -0.162 0.522 107 95 81 0 0
-0.1370 -0.0269 -0.3145 -0.904 -0.182 0.387 112 100 86 0 0
-0.1381 -0.0272 -0.3156 -0.916 -0.354 0.189 101 92 78 0 0
-0.1401 -0.0279 -0.3179 -0.788 -0.492 0.372 68 60 42 0 0
-0.1408 -0.0281 -0.3192 -0.751 -0.565 0.341 67 59 42 0 0
-0.1511 -0.0310 -0.3410 -0.814 -0.478 0.330 69 54 34 0 0
-0.1517 -0.0312 -0.3423 -0.860 -0.403 0.314 67 53 35 0 0
-0.1521 -0.0313 -0.3437 -0.860 -0.403 0.314 64 52 37 0 0
-0.1527 -0.0313 -0.3465 -0.897 -0.399 0.189 51 43 33 0 0
-0.1471 -0.0280 -0.3624 -0.737 -0.296 -0.608 61 49 34 0 0
-0.1454 -0.0272 -0.3646 -0.873 -0.308 -0.378 72 60 44 0 0
-0.1445 -0.0250 -0.3932 -0.830 -0.511 0.225 77 62 39 0 0
-0.1474 -0.0259 -0.3982 -0.814 -0.103 0.572 92 77 56 0 0
-0.1500 -0.0267 -0.4035 -0.755 -0.141 0.640 78 65 42 0 0
-0.1483 -0.0248 -0.4220 -0.734 -0.660 0.157 96 86 61 0 0
-0.1473 -0.0237 -0.4338 -0.949 -0.025 0.313 102 90 71 0 0
-0.1478 -0.0238 -0.4353 -0.949 -0.025 0.313 92 80 61 0 0
-0.1484 -0.0238 -0.4383 -0.929 -0.362 -0.077 76 64 46 0 0
-0.1481 -0.0236 -0.4401 -0.724 -0.678 0.126 78 65 47 0 0
-0.1441 -0.0213 -0.4503 -0.423 -0.902 0.086 26 21 17 0 0
-0.1278 -0.0127 -0.4805 -0.139 -0.613 0.778 11 6 6 0 0
-0.1593 -0.0244 -0.5016 -0.471 -0.717 0.514 83 76 68 0 0
-0.1607 -0.0249 -0.5026 -0.730 -0.247 0.638 92 85 74 0 0
-0.1617 -0.0252 -0.5038 -0.730 -0.247 0.638 97 89 78 0 0
-0.1699 -0.0283 -0.5095 -0.893 -0.221 0.392 58 51 43 0 0
-0.2329 -0.0537 -0.5191 -0.896 -0.302 0.326 61 52 39 0 0
-0.2362 -0.0526 -0.5575 -0.984 0.180 -0.003 121 109 90 0 0
-0.1761 -0.0239 -0.6207 -0.438 -0.084 0.895 36 30 19 0 0
-0.1743 -0.0229 -0.6239 -0.485 -0.859 0.167 31 25 16 0 0
-0.1708 -0.0210 -0.6320 -0.576 -0.805 0.141 15 13 10 0 0
-0.1713 -0.0211 -0.6336 -0.875 -0.426 -0.231 10 9 7 0 0
-0.1505 -0.0110 -0.6583 -0.510 -0.860 -0.026 13 12 10 0 0
-0.1680 -0.0167 -0.6828 -0.945 -0.159 0.287 18 18 13 0 0
-0.1626 -0.0139 -0.6909 -0.702 -0.192 0.686 30 29 25 0 0
-0.1631 -0.0141 -0.6925 -0.865 -0.126 0.486 32 28 25 0 0
-0.1650 -0.0147 -0.6950 -0.835 -0.433 0.340 42 37 34 0 0
-0.1658 -0.0149 -0.6964 -0.768 -0.283 0.575 51 44 41 0 0
-0.1667 -0.0152 -0.6978 -0.636 -0.297 0.712 65 57 54 0 0
-0.1768 -0.0196 -0.6938 -0.012 -0.005 1.000 62 54 51 0 0
-0.2149 -0.0359 -0.6848 -0.795 0.206 0.571 157 138 108 0 0
-0.2160 -0.0363 -0.6858 -0.533 0.046 0.845 142 122 92 0 0
-0.2252 -0.0378 -0.7231 -0.977 0.212 -0.037 115 95 67 0 0
-0.2099 -0.0270 -0.7946 -0.593 -0.248 0.766 11 10 9 0 0
-0.2118 -0.0275 -0.7991 -0.949 0.059 0.310 19 13 12 0 0
-0.2212 -0.0309 -0.8071 -0.886 -0.283 0.367 57 47 33 0 0
-0.2240 -0.0317 -0.8129 -0.909 -0.011 0.416 83 74 58 0 0
-0.2324 -0.0336 -0.8368 -0.945 -0.106 0.309 99 85 60 0 0
-0.2329 -0.0333 -0.8450 -0.962 -0.051 0.267 120 106 77 0 0
-0.2325 -0.0330 -0.8476 -0.990 0.015 0.138 118 106 78 0 0
0.0020 0.0273 -0.2363 -0.878 -0.188 0.440 83 70 44 0 0
-0.1121 -0.0177 -0.2719 -0.841 -0.540 -0.030 43 32 19 0 0
-0.1129 -0.0177 -0.2776 -0.865 -0.474 0.164 27 21 10 0 0
-0.1223 -0.0210 -0.2866 -0.762 -0.563 0.320 65 55 37 0 0
-0.1317 -0.0240 -0.3000 -0.776 -0.481 0.409 82 73 62 0 0
-0.1315 -0.0237 -0.3045 -0.783 -0.287 0.552 72 64 53 0 0
-0.1350 -0.0247 -0.3108 -0.709 -0.391 0.586 41 32 21 0 0
-0.1403 -0.0266 -0.3165 -0.684 -0.532 0.499 91 81 63 0 0
-0.1409 -0.0267 -0.3178 -0.788 -0.492 0.372 54 45 32 0 0
-0.1415 -0.0269 -0.3190 -0.841 -0.458 0.289 28 20 9 0 0
-0.1415 -0.0267 -0.3220 -0.867 -0.496 -0.050 38 28 21 0 0
-0.1488 -0.0291 -0.3314 -0.767 -0.265 0.585 189 173 137 0 0
-0.1486 -0.0288 -0.3345 -0.781 -0.510 0.362 128 119 92 0 0
-0.1499 -0.0293 -0.3356 -0.909 -0.350 0.225 62 55 37 0 0
-0.1542 -0.0306 -0.3430 -0.751 -0.213 0.625 45 36 25 0 0
-0.1549 -0.0307 -0.3458 -0.710 -0.499 0.497 36 30 21 0 0
-0.1556 -0.0309 -0.3470 -0.710 -0.499 0.497 32 25 16 0 0
-0.1446 -0.0241 -0.3838 -0.800 -0.336 0.497 69 51 27 0 0
-0.1506 -0.0253 -0.4034 -0.659 -0.106 0.744 69 56 33 0 0
-0.1505 -0.0252 -0.4050 -0.811 -0.319 0.490 78 66 44 0 0
-0.1521 -0.0248 -0.4220 -0.968 -0.010 0.249 85 73 51 0 0
-0.1484 -0.0224 -0.4352 -0.863 -0.410 0.295 102 90 67 0 0
-0.1493 -0.0226 -0.4380 -0.927 -0.349 0.137 98 84 64 0 0
-0.1470 -0.0208 -0.4507 -0.261 -0.965 0.033 23 19 15 0 0
-0.1517 -0.0203 -0.4906 -0.669 -0.344 0.659 83 78 71 0 0
-0.1528 -0.0207 -0.4917 -0.695 -0.470 0.544 77 73 64 0 0
-0.1606 -0.0233 -0.5012 -0.412 -0.643 0.645 82 76 69 0 0
-0.1703 -0.0268 -0.5095 -0.897 -0.259 0.359 51 44 36 0 0
-0.2358 -0.0532 -0.5208 -0.794 -0.024 0.608 109 98 77 0 0
-0.1756 -0.0218 -0.6233 -0.660 -0.686 0.307 40 33 20 0 0
-0.1723 -0.0199 -0.6313 -0.709 -0.658 -0.254 18 14 13 0 0
-0.1723 -0.0198 -0.6332 -0.887 -0.404 -0.225 12 11 9 0 0
-0.1519 -0.0098 -0.6576 -0.497 0.548 0.673 13 12 10 0 0
-0.1682 -0.0150 -0.6829 -0.941 -0.164 0.297 19 20 15 0 0
-0.1616 -0.0118 -0.6901 -0.897 -0.338 0.285 25 26 21 0 0
-0.1631 -0.0123 -0.6909 -0.599 -0.322 0.733 29 28 24 0 0
-0.1652 -0.0131 -0.6933 -0.835 -0.433 0.340 30 26 24 0 0
-0.1657 -0.0132 -0.6949 -0.835 -0.433 0.340 38 33 30 0 0
-0.1666 -0.0135 -0.6962 -0.703 -0.392 0.593 49 41 38 0 0
-0.1676 -0.0138 -0.6975 -0.501 -0.315 0.806 55 47 44 0 0
-0.2091 -0.0320 -0.6821 -0.722 -0.054 0.689 85 72 55 0 0
-0.2190 -0.0355 -0.6915 -0.894 0.116 0.433 55 43 27 0 0
-0.2196 -0.0357 -0.6929 -0.914 0.102 0.392 58 42 27 0 0
-0.2239 -0.0359 -0.7168 -0.603 -0.499 0.622 70 54 31 0 0
-0.2268 -0.0368 -0.7222 -0.884 -0.152 0.442 102 83 53 0 0
-0.2258 -0.0362 -0.7251 -0.947 -0.164 -0.276 122 105 77 0 0
-0.2202 -0.0331 -0.7360 -0.946 0.323 0.023 50 41 33 0 0
-0.2169 -0.0311 -0.7471 -0.924 0.334 -0.188 36 31 21 0 0
-0.2157 -0.0304 -0.7502 -0.877 0.468 -0.110 37 30 21 0 0
-0.2116 -0.0257 -0.7977 -0.735 -0.119 0.667 16 10 10 0 0
-0.2133 -0.0264 -0.7982 -0.669 -0.291 0.684 18 12 12 0 0
-0.2234 -0.0306 -0.7970 -0.767 -0.320 0.556 28 21 18 0 0
-0.2332 -0.0317 -0.8452 -0.973 -0.161 0.163 118 104 75 0 0
0.0227 0.0362 -0.2139 -0.785 0.004 0.619 176 174 173 0 0
-0.0961 -0.0109 -0.2499 -0.964 0.018 0.265 202 185 156 0 0
-0.1095 -0.0155 -0.2640 -0.708 -0.677 0.201 194 181 149 0 0
-0.1099 -0.0156 -0.2653 -0.719 -0.602 0.347 218 200 162 0 0
-0.1131 -0.0168 -0.2674 -0.614 -0.668 0.420 125 110 77 0 0
-0.1232 -0.0197 -0.2879 -0.798 -0.288 0.530 71 62 48 0 0
-0.1241 -0.0200 -0.2891 -0.845 -0.429 0.318 76 68 54 0 0
-0.1245 -0.0201 -0.2905 -0.845 -0.429 0.318 43 34 23 0 0
-0.1308 -0.0221 -0.3003 -0.934 -0.187 0.305 90 82 69 0 0
-0.1319 -0.0224 -0.3015 -0.767 -0.436 0.471 74 65 51 0 0
-0.1357 -0.0234 -0.3107 -0.709 -0.391 0.586 50 41 27 0 0
-0.1411 -0.0254 -0.3163 -0.684 -0.532 0.499 112 102 82 0 0
-0.1416 -0.0255 -0.3176 -0.788 -0.492 0.372 80 70 57 0 0
-0.1410 -0.0249 -0.3223 -0.985 -0.172 0.003 48 39 32 0 0
-0.1484 -0.0275 -0.3302 -0.833 -0.361 0.420 185 171 134 0 0
-0.1491 -0.0277 -0.3315 -0.857 -0.332 0.395 164 148 112 0 0
-0.1485 -0.0273 -0.3332 -0.917 -0.390 0.080 136 123 89 0 0
-0.1506 -0.0280 -0.3369 -0.937 -0.315 0.148 54 47 33 0 0
-0.1549 -0.0293 -0.3444 -0.871 -0.240 0.429 28 21 14 0 0
-0.1551 -0.0293 -0.3458 -0.941 -0.210 0.265 27 21 15 0 0
-0.1482 -0.0255 -0.3607 -0.936 -0.191 -0.294 68 53 35 0 0
-0.1475 -0.0251 -0.3625 -0.908 -0.197 -0.369 68 57 34 0 0
-0.1469 -0.0247 -0.3643 -0.914 -0.403 -0.058 71 61 39 0 0
-0.1468 -0.0246 -0.3658 -0.817 -0.568 0.103 63 52 34 0 0
-0.1444 -0.0227 -0.3793 -0.892 0.106 0.440 104 89 60 0 0
-0.1449 -0.0228 -0.3807 -0.898 0.019 0.440 90 75 48 0 0
-0.1449 -0.0227 -0.3822 -0.861 -0.310 0.404 66 51 27 0 0
-0.1520 -0.0231 -0.4222 -0.899 -0.395 0.192 102 90 70 0 0
-0.1473 -0.0194 -0.4507 -0.591 -0.795 0.138 22 19 15 0 0
-0.1478 -0.0194 -0.4522 -0.650 -0.731 0.207 19 15 12 0 0
-0.1453 -0.0182 -0.4551 -0.151 -0.937 0.314 25 20 17 0 0
-0.1387 -0.0138 -0.4822 -0.810 -0.196 0.553 13 12 10 0 0
-0.1403 -0.0143 -0.4848 -0.777 -0.214 0.593 29 25 23 0 0
-0.1410 -0.0145 -0.4862 -0.867 -0.274 0.416 31 26 23 0 0
-0.2254 -0.0486 -0.5010 -0.622 0.626 0.471 56 50 38 0 0
-0.1750 -0.0193 -0.6316 -0.711 0.008 0.703 16 15 12 0 0
-0.1666 -0.0127 -0.6806 -0.684 -0.501 0.529 12 11 9 0 0
-0.1615 -0.0101 -0.6885 -0.497 -0.474 0.727 25 24 21 0 0
-0.1674 -0.0121 -0.6959 -0.735 -0.158 0.660 48 43 40 0 0
-0.1692 -0.0128 -0.6965 -0.437 -0.398 0.806 43 38 34 0 0
-0.2008 -0.0268 -0.6833 -0.046 0.346 0.937 66 55 46 0 0
-0.2093 -0.0303 -0.6823 -0.744 -0.064 0.665 86 73 54 0 0
-0.2107 -0.0309 -0.6831 -0.824 0.078 0.562 82 72 52 0 0
-0.2157 -0.0288 -0.7485 -0.924 0.334 -0.188 34 28 17 0 0
-0.2105 -0.0238 -0.7928 -0.864 0.207 0.459 18 13 9 0 0
-0.2222 -0.0266 -0.8243 -0.889 -0.190 0.416 46 40 26 0 0
-0.2231 -0.0269 -0.8256 -0.825 -0.271 0.496 43 37 24 0 0
-0.2238 -0.0271 -0.8271 -0.819 -0.379 0.431 44 37 25 0 0
-0.2324 -0.0296 -0.8444 -0.971 -0.063 0.231 117 104 72 0 0
-0.2373 -0.0304 -0.8634 -0.254 0.270 0.929 153 151 152 0 0
0.0225 0.0379 -0.2139 -0.781 -0.088 0.619 176 175 173 0 0
-0.1122 -0.0148 -0.2692 -0.768 -0.241 0.593 97 85 54 0 0
-0.1230 -0.0182 -0.2866 -0.788 -0.362 0.498 92 82 67 0 0
-0.1290 -0.0200 -0.2966 -0.870 -0.209 0.447 149 140 121 0 0
-0.1314 -0.0208 -0.3003 -0.893 -0.350 0.282 95 88 71 0 0
-0.1319 -0.0207 -0.3046 -0.729 -0.194 0.656 33 25 16 0 0
-0.1320 -0.0207 -0.3060 -0.794 -0.215 0.569 29 25 15 0 0
-0.1420 -0.0242 -0.3161 -0.684 -0.532 0.499 107 99 81 0 0
-0.1423 -0.0242 -0.3175 -0.788 -0.492 0.372 60 52 40 0 0
-0.1458 -0.0251 -0.3267 -0.665 -0.362 0.653 145 131 113 0 0
-0.1493 -0.0263 -0.3300 -0.897 -0.308 0.319 141 127 95 0 0
-0.1481 -0.0257 -0.3319 -0.725 -0.455 0.518 110 96 67 0 0
-0.1535 -0.0277 -0.3360 -0.834 -0.360 0.418 35 27 17 0 0
-0.1478 -0.0237 -0.3610 -0.834 -0.406 0.373 68 54 36 0 0
-0.1479 -0.0236 -0.3625 -0.933 -0.149 -0.329 81 72 47 0 0
-0.1479 -0.0232 -0.3702 -0.910 -0.402 0.104 69 57 38 0 0
-0.1481 -0.0232 -0.3717 -0.910 -0.402 0.104 79 64 42 0 0
-0.1483 -0.0231 -0.3732 -0.910 -0.402 0.104 85 71 46 0 0
-0.1484 -0.0231 -0.3747 -0.929 -0.359 0.094 82 67 42 0 0
-0.1455 -0.0215 -0.3806 -0.947 -0.136 0.292 90 74 48 0 0
-0.1454 -0.0214 -0.3822 -0.848 -0.294 0.440 78 61 39 0 0
-0.1461 -0.0215 -0.3835 -0.848 -0.294 0.440 101 85 61 0 0
-0.1519 -0.0227 -0.4032 -0.859 -0.478 0.185 66 51 32 0 0
-0.1522 -0.0227 -0.4046 -0.936 -0.318 0.148 78 63 44 0 0
-0.1544 -0.0224 -0.4245 -0.692 -0.502 0.518 65 53 30 0 0
-0.1546 -0.0224 -0.4261 -0.863 -0.287 0.417 77 65 41 0 0
-0.1550 -0.0222 -0.4308 -0.754 -0.652 0.073 97 83 59 0 0
-0.1501 -0.0198 -0.4364 -0.684 -0.530 0.502 96 81 58 0 0
-0.1492 -0.0185 -0.4500 -0.493 -0.779 0.388 27 23 18 0 0
-0.1493 -0.0185 -0.4517 -0.462 -0.834 0.301 19 15 12 0 0
-0.1487 -0.0181 -0.4536 -0.065 -0.896 0.440 21 17 14 0 0
-0.1484 -0.0179 -0.4554 -0.085 -0.828 0.554 28 24 21 0 0
-0.1300 -0.0089 -0.4749 -1.000 -0.014 -0.018 18 14 13 0 0
-0.1300 -0.0088 -0.4766 -1.000 -0.014 -0.018 18 14 13 0 0
-0.1411 -0.0129 -0.4846 -0.952 -0.210 0.224 26 22 20 0 0
-0.1422 -0.0133 -0.4858 -0.907 -0.355 0.227 30 26 23 0 0
-0.1544 -0.0178 -0.4947 -0.879 -0.178 0.442 26 23 20 0 0
-0.1654 -0.0218 -0.5041 -0.885 -0.331 0.328 70 62 53 0 0
-0.2222 -0.0456 -0.5032 -0.484 0.724 0.492 43 38 34 0 0
-0.2256 -0.0470 -0.5028 -0.797 0.581 -0.167 53 48 44 0 0
-0.2337 -0.0491 -0.5227 -0.743 0.340 0.577 94 83 56 0 0
-0.1518 -0.0060 -0.6623 -0.752 0.656 0.066 12 11 9 0 0
-0.1654 -0.0106 -0.6779 -0.644 0.197 0.739 9 8 7 0 0
-0.1674 -0.0113 -0.6803 -0.684 -0.501 0.529 12 11 9 0 0
-0.1680 -0.0105 -0.6958 -0.731 -0.357 0.582 36 32 28 0 0
-0.1984 -0.0239 -0.6856 0.046 0.512 0.858 62 52 43 0 0
-0.2089 -0.0284 -0.6830 -0.774 0.150 0.615 116 102 80 0 0
-0.2108 -0.0292 -0.6834 -0.883 -0.019 0.468 78 68 46 0 0
-0.2250 -0.0341 -0.6989 -0.920 -0.032 0.392 115 102 82 0 0
-0.2248 -0.0330 -0.7148 -0.644 -0.680 0.351 61 46 21 0 0
-0.2284 -0.0342 -0.7196 -0.867 -0.044 0.496 121 106 71 0 0
-0.2116 -0.0251 -0.7527 -0.992 -0.082 0.099 34 27 18 0 0
-0.2237 -0.0254 -0.8255 -0.848 -0.359 0.389 64 55 38 0 0
-0.2243 -0.0256 -0.8270 -0.848 -0.359 0.389 61 54 36 0 0
-0.2293 -0.0252 -0.8657 -0.718 0.338 0.609 116 113 106 0 0
0.0209 0.0389 -0.2137 -0.938 0.033 0.344 176 176 175 0 0
-0.1108 -0.0129 -0.2652 -0.959 0.052 0.280 234 217 188 0 0
-0.1134 -0.0137 -0.2703 -0.768 -0.241 0.593 72 59 36 0 0
-0.1133 -0.0135 -0.2719 -0.975 -0.209 0.077 65 53 31 0 0
-0.1134 -0.0134 -0.2733 -0.975 -0.209 0.077 48 39 21 0 0
-0.1283 -0.0182 -0.2954 -0.801 -0.232 0.551 198 186 157 0 0
-0.1291 -0.0185 -0.2966 -0.799 -0.353 0.487 184 172 143 0 0
-0.1332 -0.0199 -0.3013 -0.752 -0.346 0.561 59 52 36 0 0
-0.1324 -0.0193 -0.3060 -0.811 -0.189 0.553 19 15 9 0 0
-0.1370 -0.0209 -0.3104 -0.497 -0.368 0.786 95 88 76 0 0
-0.1428 -0.0230 -0.3160 -0.684 -0.532 0.499 64 57 44 0 0
-0.1428 -0.0229 -0.3175 -0.827 -0.450 0.337 36 30 21 0 0
-0.1463 -0.0237 -0.3267 -0.768 -0.286 0.573 141 126 105 0 0
-0.1540 -0.0264 -0.3359 -0.834 -0.360 0.418 53 44 32 0 0
-0.1487 -0.0225 -0.3607 -0.783 -0.468 0.410 77 65 45 0 0
-0.1484 -0.0219 -0.3686 -0.704 -0.629 0.329 56 41 25 0 0
-0.1459 -0.0201 -0.3805 -0.953 -0.175 0.247 94 79 56 0 0
-0.1463 -0.0200 -0.3835 -0.769 -0.461 0.443 102 88 67 0 0
-0.1559 -0.0211 -0.4289 -0.822 -0.514 0.244 91 81 56 0 0
-0.1560 -0.0210 -0.4305 -0.750 -0.638 0.176 110 95 73 0 0
-0.1561 -0.0209 -0.4337 -0.707 -0.672 0.219 110 95 72 0 0
-0.1529 -0.0192 -0.4385 -0.717 -0.671 0.189 83 71 50 0 0
-0.1507 -0.0176 -0.4495 -0.407 -0.845 0.345 31 26 21 0 0
-0.1509 -0.0176 -0.4510 -0.488 -0.859 0.153 19 15 12 0 0
-0.1509 -0.0174 -0.4544 -0.386 -0.911 0.147 23 19 16 0 0
-0.1412 -0.0113 -0.4848 -0.871 -0.482 -0.093 23 19 18 0 0
-0.1678 -0.0212 -0.5047 -0.915 -0.175 0.365 68 59 49 0 0
-0.1684 -0.0213 -0.5061 -0.915 -0.175 0.365 60 50 40 0 0
-0.1689 -0.0214 -0.5075 -0.915 -0.175 0.365 59 50 41 0 0
-0.2325 -0.0477 -0.5121 -0.826 0.421 0.375 33 30 25 0 0
-0.2309 -0.0469 -0.5147 -0.784 0.579 0.224 98 93 80 0 0
-0.2356 -0.0481 -0.5267 -0.963 -0.052 -0.263 79 69 47 0 0
-0.2352 -0.0478 -0.5287 -0.815 0.242 0.526 77 69 47 0 0
-0.2359 -0.0480 -0.5299 -0.728 0.420 0.542 86 78 60 0 0
-0.1731 -0.0148 -0.6355 -0.495 -0.801 -0.337 17 13 11 0 0
-0.1594 -0.0079 -0.6532 -0.431 -0.828 -0.359 14 13 11 0 0
-0.1644 -0.0082 -0.6810 -0.882 0.005 0.471 10 9 7 0 0
-0.1686 -0.0090 -0.6958 -0.658 -0.389 0.645 34 29 25 0 0
-0.2118 -0.0278 -0.6849 -0.651 -0.089 0.754 74 63 46 0 0
-0.2133 -0.0284 -0.6857 -0.493 -0.056 0.868 60 51 36 0 0
-0.2242 -0.0311 -0.7138 -0.785 -0.404 0.470 68 52 28 0 0
-0.2086 -0.0219 -0.7557 -0.785 -0.413 -0.462 34 27 19 0 0
-0.2050 -0.0200 -0.7610 -0.821 -0.144 -0.553 33 26 16 0 0
-0.2018 -0.0183 -0.7660 -0.797 -0.174 -0.578 32 25 15 0 0
-0.2279 -0.0249 -0.8326 -0.887 -0.134 0.442 99 85 59 0 0
-0.2263 -0.0222 -0.8650 -0.935 0.354 0.030 86 82 73 0 0
0.0208 0.0406 -0.2137 -0.815 -0.217 0.538 176 177 177 0 0
0.0108 0.0372 -0.2258 -0.931 0.284 0.230 62 48 24 0 0
-0.1004 -0.0075 -0.2563 -0.741 -0.064 0.668 50 40 39 0 0
-0.1146 -0.0125 -0.2716 -0.918 -0.336 0.210 84 70 44 0 0
-0.1149 -0.0125 -0.2730 -0.928 -0.294 0.229 49 38 18 0 0
-0.1239 -0.0157 -0.2821 -0.920 -0.340 0.195 173 160 130 0 0
-0.1290 -0.0170 -0.2953 -0.637 -0.466 0.614 188 173 141 0 0
-0.1340 -0.0187 -0.3011 -0.679 -0.601 0.421 49 42 28 0 0
-0.1343 -0.0188 -0.3025 -0.682 -0.393 0.616 41 32 25 0 0
-0.1354 -0.0191 -0.3037 -0.932 -0.295 0.208 17 11 8 0 0
-0.1371 -0.0195 -0.3090 -0.726 -0.159 0.670 79 72 63 0 0
-0.1427 -0.0214 -0.3161 -0.744 -0.342 0.574 59 52 42 0 0
-0.1423 -0.0207 -0.3237 -0.790 -0.514 0.334 67 62 53 0 0
-0.1463 -0.0223 -0.3253 -0.881 -0.255 0.398 106 93 73 0 0
-0.1473 -0.0226 -0.3265 -0.880 -0.227 0.418 158 143 113 0 0
-0.1479 -0.0228 -0.3278 -0.880 -0.227 0.418 207 193 155 0 0
-0.1507 -0.0237 -0.3327 -0.883 -0.432 0.181 92 83 63 0 0
-0.1516 -0.0239 -0.3339 -0.787 -0.413 0.458 78 68 53 0 0
-0.1543 -0.0250 -0.3360 -0.791 -0.273 0.548 75 63 48 0 0
-0.1531 -0.0240 -0.3424 -0.815 -0.250 0.522 50 40 27 0 0
-0.1543 -0.0240 -0.3511 -0.942 -0.327 0.080 61 48 30 0 0
-0.1483 -0.0209 -0.3595 -0.752 -0.571 0.329 64 53 31 0 0
-0.1488 -0.0210 -0.3609 -0.752 -0.571 0.329 88 77 57 0 0
-0.1493 -0.0207 -0.3684 -0.825 -0.513 0.236 64 49 31 0 0
-0.1496 -0.0207 -0.3698 -0.816 -0.529 0.232 60 44 26 0 0
-0.1459 -0.0186 -0.3791 -0.793 -0.023 0.608 64 48 32 0 0
-0.1515 -0.0201 -0.3910 -0.707 -0.562 0.430 63 48 31 0 0
-0.1529 -0.0195 -0.4095 -0.928 -0.046 0.370 72 59 37 0 0
-0.1561 -0.0207 -0.4113 -0.898 -0.426 0.108 86 75 53 0 0
-0.1564 -0.0207 -0.4143 -0.898 -0.426 0.108 75 60 39 0 0
-0.1566 -0.0207 -0.4158 -0.898 -0.426 0.108 84 70 49 0 0
-0.1562 -0.0203 -0.4192 -0.834 -0.551 -0.028 79 64 41 0 0
-0.1563 -0.0202 -0.4208 -0.834 -0.551 -0.028 63 48 26 0 0
-0.1567 -0.0198 -0.4287 -0.822 -0.514 0.244 95 85 60 0 0
-0.1571 -0.0199 -0.4302 -0.822 -0.514 0.244 103 89 66 0 0
-0.1571 -0.0197 -0.4334 -0.707 -0.672 0.219 102 87 62 0 0
-0.1520 -0.0165 -0.4491 -0.854 -0.327 0.405 31 26 20 0 0
-0.1529 -0.0168 -0.4503 -0.595 -0.490 0.637 22 18 15 0 0
-0.1333 -0.0071 -0.4736 -0.763 -0.635 -0.121 21 17 16 0 0
-0.1331 -0.0069 -0.4754 -0.518 -0.840 0.164 22 18 16 0 0
-0.1421 -0.0101 -0.4828 -0.877 0.354 0.324 15 12 10 0 0
-0.1422 -0.0101 -0.4845 -0.970 0.175 0.168 20 16 14 0 0
-0.1425 -0.0101 -0.4861 -0.995 0.061 0.075 25 21 18 0 0
-0.1435 -0.0105 -0.4872 -0.969 0.149 0.198 30 26 23 0 0
-0.1439 -0.0105 -0.4888 -0.931 0.215 0.295 26 22 19 0 0
-0.1444 -0.0106 -0.4902 -0.677 0.131 0.724 19 18 16 0 0
-0.1692 -0.0199 -0.5076 -0.915 -0.175 0.365 56 47 37 0 0
-0.1992 -0.0206 -0.6877 -0.010 0.566 0.824 60 52 42 0 0
-0.2252 -0.0301 -0.7093 -0.981 -0.134 0.141 86 74 48 0 0
-0.2249 -0.0299 -0.7115 -0.683 -0.508 0.525 84 70 45 0 0
-0.2249 -0.0297 -0.7136 -0.766 -0.413 0.493 69 54 31 0 0
-0.2299 -0.0315 -0.7191 -0.993 0.038 0.115 99 83 49 0 0
-0.2024 -0.0168 -0.7659 -0.774 -0.258 -0.578 34 27 17 0 0
-0.1939 -0.0126 -0.7758 -0.802 0.110 0.587 38 31 22 0 0
-0.1949 -0.0130 -0.7769 -0.918 0.055 0.393 40 33 24 0 0
-0.2192 -0.0206 -0.8158 -0.807 -0.418 0.417 106 93 64 0 0
-0.2374 -0.0247 -0.8693 -0.193 0.283 0.940 170 168 170 0 0
0.0111 0.0392 -0.2290 -0.963 0.118 0.240 67 53 31 0 0
-0.0981 -0.0052 -0.2541 -0.788 0.072 0.611 70 57 40 0 0
-0.1196 -0.0127 -0.2761 -0.932 -0.166 0.322 56 47 35 0 0
-0.1241 -0.0142 -0.2821 -0.848 -0.048 0.528 198 180 143 0 0
-0.1303 -0.0162 -0.2920 -0.838 -0.423 0.344 110 96 68 0 0
-0.1358 -0.0178 -0.3036 -0.833 -0.509 0.217 12 8 4 0 0
-0.1391 -0.0186 -0.3115 -0.771 -0.499 0.395 143 136 118 0 0
-0.1425 -0.0198 -0.3148 -0.683 -0.274 0.677 87 77 63 0 0
-0.1461 -0.0207 -0.3240 -0.519 -0.457 0.722 88 78 61 0 0
-0.1483 -0.0214 -0.3277 -0.892 -0.367 0.263 221 209 171 0 0
-0.1486 -0.0214 -0.3291 -0.781 -0.572 0.249 229 216 177 0 0
-0.1513 -0.0223 -0.3327 -0.781 -0.471 0.409 77 66 47 0 0
-0.1522 -0.0226 -0.3338 -0.787 -0.413 0.458 65 53 40 0 0
-0.1554 -0.0234 -0.3432 -0.895 -0.083 0.437 34 25 18 0 0
-0.1547 -0.0225 -0.3511 -0.931 -0.352 0.102 62 49 31 0 0
-0.1492 -0.0197 -0.3593 -0.761 -0.491 0.425 76 69 44 0 0
-0.1496 -0.0198 -0.3607 -0.752 -0.571 0.329 86 76 56 0 0
-0.1500 -0.0194 -0.3683 -0.825 -0.513 0.236 68 52 36 0 0
-0.1527 -0.0190 -0.3922 -0.940 -0.306 0.153 51 36 24 0 0
-0.1546 -0.0186 -0.4105 -0.893 -0.419 0.163 62 48 26 0 0
-0.1580 -0.0194 -0.4186 -0.707 -0.591 0.388 85 70 51 0 0
-0.1585 -0.0196 -0.4199 -0.707 -0.591 0.388 69 54 35 0 0
-0.1588 -0.0190 -0.4295 -0.865 -0.501 -0.007 85 73 46 0 0
-0.1425 -0.0087 -0.4828 -0.832 0.250 0.494 16 12 11 0 0
-0.1425 -0.0085 -0.4846 -0.993 -0.024 0.120 20 16 13 0 0
-0.1424 -0.0083 -0.4863 -0.729 0.300 0.616 27 22 18 0 0
-0.1431 -0.0086 -0.4877 -0.929 -0.121 0.350 31 28 23 0 0
-0.1440 -0.0089 -0.4889 -0.789 -0.006 0.614 21 20 15 0 0
-0.1694 -0.0172 -0.5251 -0.838 -0.424 0.344 15 12 11 0 0
-0.2320 -0.0440 -0.5179 -0.919 -0.270 -0.286 50 45 42 0 0
-0.1805 -0.0158 -0.6158 -0.869 -0.392 0.301 92 82 66 0 0
-0.1809 -0.0159 -0.6173 -0.869 -0.392 0.301 89 79 61 0 0
-0.1759 -0.0127 -0.6342 -0.867 -0.283 -0.411 23 20 15 0 0
-0.2257 -0.0284 -0.7133 -0.913 0.100 0.396 72 57 34 0 0
-0.2032 -0.0154 -0.7657 -0.760 -0.297 -0.579 35 28 20 0 0
-0.2009 -0.0141 -0.7699 -0.656 -0.652 -0.381 35 28 20 0 0
-0.1987 -0.0121 -0.7866 -0.606 -0.179 0.775 31 25 19 0 0
-0.2254 -0.0180 -0.8671 -0.850 0.320 0.419 114 110 105 0 0
-0.2259 -0.0181 -0.8688 -0.853 0.283 0.438 133 129 127 0 0
-0.2358 -0.0226 -0.8649 -0.466 0.190 0.864 162 158 159 0 0
-0.1238 -0.0125 -0.2823 -0.938 0.044 0.345 238 223 188 0 0
-0.1246 -0.0128 -0.2836 -0.731 -0.571 0.374 185 168 134 0 0
-0.1290 -0.0143 -0.2881 -0.696 -0.546 0.466 91 80 62 0 0
-0.1309 -0.0149 -0.2920 -0.870 -0.384 0.310 111 95 67 0 0
-0.1368 -0.0167 -0.3019 -0.831 -0.462 0.309 20 13 8 0 0
-0.1366 -0.0165 -0.3035 -0.833 -0.509 0.217 12 8 5 0 0
-0.1385 -0.0170 -0.3088 -0.559 -0.760 0.332 92 83 73 0 0
-0.1448 -0.0187 -0.3231 -0.777 -0.485 0.402 89 81 69 0 0
-0.1471 -0.0196 -0.3238 -0.461 -0.536 0.707 95 84 69 0 0
-0.1592 -0.0184 -0.4182 -0.716 -0.383 0.583 75 60 41 0 0
-0.1598 -0.0186 -0.4195 -0.664 -0.533 0.525 73 58 39 0 0
-0.1595 -0.0183 -0.4213 -0.801 -0.584 0.128 67 52 33 0 0
-0.1590 -0.0174 -0.4312 -0.709 -0.705 0.003 94 77 53 0 0
-0.1594 -0.0175 -0.4327 -0.648 -0.741 0.175 115 99 74 0 0
-0.1522 -0.0133 -0.4493 -0.905 -0.395 -0.158 40 32 20 0 0
-0.1557 -0.0146 -0.4526 -0.766 0.021 0.642 17 13 11 0 0
-0.1441 -0.0077 -0.4822 -0.594 0.033 0.804 14 10 9 0 0
-0.1432 -0.0072 -0.4844 -0.841 -0.327 0.432 19 14 12 0 0
-0.1435 -0.0071 -0.4877 -0.810 -0.258 0.527 24 21 17 0 0
-0.1749 -0.0181 -0.5204 -0.930 -0.248 0.270 8 7 5 0 0
-0.1745 -0.0179 -0.5224 -0.683 -0.487 0.545 11 8 6 0 0
-0.2208 -0.0370 -0.5285 -0.991 0.133 -0.023 63 55 50 0 0
-0.1764 -0.0112 -0.6341 -0.867 -0.283 -0.411 27 23 17 0 0
-0.1662 -0.0034 -0.6847 -0.965 -0.261 -0.029 14 10 9 0 0
-0.1696 -0.0045 -0.6901 -0.804 -0.503 0.318 21 17 14 0 0
-0.1703 -0.0047 -0.6916 -0.806 -0.508 0.303 25 21 18 0 0
-0.2251 -0.0269 -0.7062 -0.623 0.011 0.782 89 76 53 0 0
-0.2035 -0.0122 -0.7890 -0.784 -0.173 0.596 28 23 14 0 0
-0.2205 -0.0169 -0.8263 -0.918 -0.093 0.385 67 59 38 0 0
-0.2261 -0.0164 -0.8691 -0.873 0.177 0.454 141 139 137 0 0
-0.2340 -0.0200 -0.8651 -0.392 0.153 0.907 158 156 156 0 0
-0.2377 -0.0214 -0.8679 -0.455 -0.248 0.855 170 169 167 0 0
0.0204 0.0459 -0.2184 -0.851 -0.319 0.417 176 176 179 0 0
0.0210 0.0463 -0.2201 -0.915 0.041 0.401 176 176 175 0 0
0.0150 0.0441 -0.2252 -0.995 -0.088 -0.050 163 159 154 0 0
0.0176 0.0474 -0.2576 -0.907 0.417 0.061 103 89 64 0 0
-0.1104 -0.0064 -0.2656 -0.907 -0.233 0.351 141 125 101 0 0
-0.1109 -0.0065 -0.2670 -0.907 -0.233 0.351 123 108 85 0 0
-0.1166 -0.0082 -0.2786 -0.650 -0.228 0.725 146 132 113 0 0
-0.1235 -0.0110 -0.2810 -0.923 -0.275 0.269 222 202 162 0 0
-0.1245 -0.0113 -0.2822 -0.830 -0.424 0.362 187 171 132 0 0
-0.1266 -0.0118 -0.2875 -0.743 -0.458 0.488 98 83 65 0 0
-0.1295 -0.0130 -0.2881 -0.756 -0.555 0.348 77 63 46 0 0
-0.1362 -0.0152 -0.2978 -0.650 -0.357 0.671 77 67 47 0 0
-0.1375 -0.0155 -0.3018 -0.831 -0.462 0.309 17 11 6 0 0
-0.1388 -0.0156 -0.3088 -0.697 -0.681 0.227 104 94 83 0 0
-0.1390 -0.0155 -0.3102 -0.729 -0.545 0.414 167 155 136 0 0
-0.1396 -0.0157 -0.3115 -0.752 -0.419 0.509 184 170 147 0 0
-0.1553 -0.0205 -0.3390 -0.943 -0.198 0.267 54 45 33 0 0
-0.1569 -0.0210 -0.3414 -0.873 -0.204 0.444 34 25 18 0 0
-0.1523 -0.0161 -0.3848 -0.770 -0.579 0.269 54 38 22 0 0
-0.1559 -0.0167 -0.3991 -0.657 -0.415 0.629 85 72 48 0 0
-0.1591 -0.0172 -0.4120 -0.665 -0.668 0.334 85 71 51 0 0
-0.1541 -0.0123 -0.4519 -0.773 -0.259 0.579 27 21 16 0 0
-0.1337 -0.0021 -0.4757 -0.990 0.066 -0.121 21 17 14 0 0
-0.1388 -0.0040 -0.4783 -0.662 -0.742 -0.105 15 11 10 0 0
-0.1467 -0.0072 -0.4810 -0.230 -0.738 0.634 12 8 7 0 0
-0.1480 -0.0070 -0.4924 -0.579 0.127 0.805 16 15 11 0 0
-0.1749 -0.0166 -0.5189 -0.926 -0.256 0.278 11 9 7 0 0
-0.1753 -0.0167 -0.5204 -0.930 -0.248 0.270 12 9 8 0 0
-0.2205 -0.0352 -0.5307 -0.869 0.478 0.131 27 20 17 0 0
-0.2206 -0.0351 -0.5323 -0.800 0.589 0.119 30 24 17 0 0
-0.1784 -0.0104 -0.6330 -0.940 -0.174 -0.294 30 27 19 0 0
-0.1524 0.0025 -0.6597 -0.492 -0.039 0.870 15 13 14 0 0
-0.1708 -0.0033 -0.6895 -0.858 -0.315 0.405 18 14 11 0 0
-0.1724 -0.0036 -0.6943 -0.565 -0.713 0.415 27 22 18 0 0
-0.1991 -0.0152 -0.6908 0.001 0.477 0.879 62 55 45 0 0
-0.2178 -0.0226 -0.6991 -0.826 0.033 0.563 68 57 40 0 0
-0.2187 -0.0229 -0.7003 -0.826 0.033 0.563 60 48 33 0 0
-0.1933 -0.0063 -0.7861 -0.238 0.153 0.959 18 13 10 0 0
-0.1953 -0.0071 -0.7864 -0.226 0.073 0.971 16 12 9 0 0
-0.1990 -0.0086 -0.7873 -0.701 0.082 0.709 16 12 9 0 0
-0.1998 -0.0089 -0.7887 -0.565 -0.034 0.824 17 14 9 0 0
-0.2208 -0.0151 -0.8287 -0.833 0.298 0.466 67 58 37 0 0
-0.2264 -0.0147 -0.8693 -0.677 0.159 0.719 147 146 144 0 0
-0.2360 -0.0192 -0.8636 -0.481 -0.030 0.876 160 160 159 0 0
-0.2344 -0.0182 -0.8675 -0.491 -0.072 0.868 164 163 164 0 0
-0.2357 -0.0187 -0.8683 -0.491 -0.072 0.868 169 168 166 0 0
-0.2343 -0.0175 -0.8765 -0.706 0.567 0.425 176 175 173 0 0
0.0216 0.0484 -0.2219 -0.861 0.382 0.337 176 176 176 0 0
0.0156 0.0460 -0.2238 -0.985 0.103 0.136 174 173 176 0 0
0.0155 0.0460 -0.2254 -1.000 0.019 0.017 173 172 175 0 0
-0.0828 0.0057 -0.2478 -0.637 -0.757 0.147 107 99 81 0 0
-0.0839 0.0053 -0.2490 -0.395 -0.915 0.081 158 149 126 0 0
-0.0987 -0.0001 -0.2615 -0.975 -0.134 0.180 99 83 61 0 0
-0.1257 -0.0104 -0.2805 -0.855 -0.149 0.498 220 200 159 0 0
-0.1266 -0.0107 -0.2817 -0.825 -0.031 0.565 176 158 116 0 0
-0.1269 -0.0107 -0.2831 -0.888 -0.249 0.386 183 168 130 0 0
-0.1263 -0.0103 -0.2847 -0.786 -0.581 0.213 153 136 105 0 0
-0.1267 -0.0104 -0.2861 -0.817 -0.220 0.533 95 78 54 0 0
-0.1273 -0.0106 -0.2874 -0.895 -0.295 0.336 69 52 35 0 0
-0.1277 -0.0107 -0.2887 -0.895 -0.295 0.336 77 60 42 0 0
-0.1370 -0.0139 -0.2991 -0.857 -0.353 0.376 54 46 31 0 0
-0.1371 -0.0136 -0.3035 -0.957 -0.105 0.269 10 7 6 0 0
-0.1398 -0.0145 -0.3086 -0.662 -0.680 0.316 125 113 101 0 0
-0.1404 -0.0146 -0.3099 -0.854 -0.065 0.516 197 183 162 0 0
-0.1423 -0.0147 -0.3212 -0.948 -0.148 0.283 46 39 30 0 0
-0.1484 -0.0171 -0.3236 -0.641 -0.414 0.646 127 112 94 0 0
-0.1572 -0.0200 -0.3354 -0.834 -0.285 0.472 89 77 63 0 0
-0.1572 -0.0196 -0.3414 -0.873 -0.204 0.444 30 21 12 0 0
-0.1514 -0.0158 -0.3604 -0.853 -0.273 0.445 49 43 25 0 0
-0.1523 -0.0161 -0.3616 -0.857 -0.091 0.507 46 42 28 0 0
-0.1595 -0.0160 -0.4088 -0.701 -0.683 0.205 71 56 34 0 0
-0.1601 -0.0160 -0.4117 -0.665 -0.668 0.334 67 52 31 0 0
-0.1618 -0.0159 -0.4238 -0.826 -0.554 0.099 83 68 45 0 0
-0.1369 -0.0017 -0.4760 -0.810 -0.166 0.563 16 12 10 0 0
-0.1378 -0.0020 -0.4773 -0.810 -0.166 0.563 21 17 16 0 0
-0.1399 -0.0028 -0.4779 -0.744 -0.651 0.148 16 12 11 0 0
-0.1576 -0.0091 -0.4961 -0.895 -0.160 0.416 82 76 71 0 0
-0.1736 -0.0146 -0.5164 -0.701 0.043 0.712 27 23 19 0 0
-0.1746 -0.0149 -0.5176 -0.835 -0.080 0.545 25 19 15 0 0
-0.1754 -0.0152 -0.5189 -0.835 -0.080 0.545 34 28 24 0 0
-0.1757 -0.0152 -0.5204 -0.926 -0.256 0.278 41 35 31 0 0
-0.1721 -0.0127 -0.5348 -0.269 -0.744 0.612 50 46 44 0 0
-0.1729 -0.0129 -0.5361 -0.620 -0.768 0.161 52 48 46 0 0
-0.1798 -0.0098 -0.6248 -0.973 -0.228 0.039 75 67 57 0 0
-0.1801 -0.0098 -0.6264 -0.983 -0.110 0.150 77 69 58 0 0
-0.1792 -0.0092 -0.6290 -0.879 -0.462 0.115 64 55 44 0 0
-0.1819 -0.0104 -0.6290 -0.713 -0.020 0.701 49 40 30 0 0
-0.1526 0.0042 -0.6598 -0.566 -0.073 0.821 14 12 13 0 0
-0.1653 0.0005 -0.6841 -0.912 0.339 0.233 9 8 6 0 0
-0.1675 -0.0003 -0.6865 -0.947 -0.053 0.316 10 8 7 0 0
-0.1736 -0.0024 -0.6937 -0.565 -0.713 0.415 29 22 18 0 0
-0.2175 -0.0208 -0.6978 -0.785 -0.286 0.550 122 109 89 0 0
-0.2182 -0.0211 -0.6991 -0.935 -0.192 0.299 98 85 65 0 0
-0.2172 -0.0195 -0.7158 -0.927 -0.035 0.373 112 97 70 0 0
-0.2179 -0.0197 -0.7173 -0.851 -0.202 0.485 85 71 46 0 0
-0.2255 -0.0232 -0.7127 -0.991 0.057 0.121 70 55 34 0 0
-0.1901 -0.0031 -0.7853 -0.200 0.240 0.950 21 16 11 0 0
-0.1909 -0.0034 -0.7866 0.109 -0.424 0.899 19 14 10 0 0
-0.1932 -0.0044 -0.7867 -0.006 -0.362 0.932 18 13 10 0 0
-0.2076 -0.0098 -0.7967 -0.928 -0.303 0.216 34 27 20 0 0
-0.2085 -0.0101 -0.7980 -0.907 -0.309 0.285 37 29 21 0 0
-0.2098 -0.0102 -0.8054 -0.978 -0.191 0.084 80 68 45 0 0
-0.2190 -0.0131 -0.8201 -0.827 -0.524 0.203 108 96 63 0 0
0.0156 0.0478 -0.2254 -0.997 0.012 0.076 176 175 178 0 0
0.0235 0.0536 -0.2607 -0.896 0.019 0.443 108 93 68 0 0
0.0228 0.0534 -0.2622 -0.896 0.019 0.443 129 114 86 0 0
-0.0848 0.0065 -0.2489 -0.433 -0.892 0.133 151 140 120 0 0
-0.1106 -0.0033 -0.2672 -0.927 -0.170 0.335 181 166 135 0 0
-0.1125 -0.0039 -0.2696 -0.967 -0.051 0.249 61 45 26 0 0
-0.1266 -0.0091 -0.2818 -0.905 0.080 0.418 185 170 130 0 0
-0.1262 -0.0087 -0.2848 -0.771 -0.142 0.620 112 96 64 0 0
-0.1271 -0.0090 -0.2860 -0.771 -0.142 0.620 100 86 56 0 0
-0.1279 -0.0093 -0.2873 -0.871 -0.220 0.439 101 87 65 0 0
-0.1287 -0.0095 -0.2885 -0.756 -0.186 0.628 58 43 24 0 0
-0.1296 -0.0098 -0.2897 -0.756 -0.186 0.628 71 55 34 0 0
-0.1398 -0.0129 -0.3087 -0.614 -0.439 0.656 148 136 123 0 0
-0.1418 -0.0136 -0.3110 -0.712 -0.260 0.652 176 163 142 0 0
-0.1492 -0.0159 -0.3234 -0.841 -0.240 0.485 188 172 147 0 0
-0.1579 -0.0188 -0.3353 -0.754 -0.501 0.424 65 53 36 0 0
-0.1578 -0.0183 -0.3413 -0.684 -0.646 0.338 52 43 33 0 0
-0.1583 -0.0184 -0.3426 -0.684 -0.646 0.338 52 43 31 0 0
-0.1518 -0.0144 -0.3604 -0.916 -0.142 0.375 36 28 14 0 0
-0.1522 -0.0145 -0.3618 -0.934 -0.138 0.330 28 23 11 0 0
-0.1533 -0.0149 -0.3629 -0.881 -0.186 0.436 46 38 29 0 0
-0.1545 -0.0154 -0.3639 -0.833 -0.359 0.421 45 33 23 0 0
-0.1549 -0.0149 -0.3731 -0.889 -0.229 0.396 42 28 14 0 0
-0.1548 -0.0147 -0.3747 -0.858 -0.330 0.394 47 34 17 0 0
-0.1553 -0.0146 -0.3792 -0.706 -0.561 0.432 43 29 17 0 0
-0.1560 -0.0149 -0.3804 -0.790 -0.459 0.405 44 31 16 0 0
-0.1582 -0.0147 -0.3968 -0.736 -0.539 0.410 74 60 37 0 0
-0.1610 -0.0149 -0.4099 -0.719 -0.681 0.142 79 64 42 0 0
-0.1625 -0.0146 -0.4236 -0.801 -0.584 0.128 73 59 35 0 0
-0.1456 -0.0046 -0.4633 -0.647 -0.095 -0.756 25 19 18 0 0
-0.1357 0.0006 -0.4769 -0.983 -0.146 0.110 14 10 9 0 0
-0.1379 -0.0001 -0.4809 -0.279 -0.059 0.959 13 9 8 0 0
-0.1623 -0.0089 -0.5058 -0.749 -0.396 0.532 27 25 22 0 0
-0.1745 -0.0132 -0.5179 -0.675 -0.132 0.726 40 33 27 0 0
-0.1801 -0.0082 -0.6249 -0.983 -0.110 0.150 63 59 51 0 0
-0.1804 -0.0082 -0.6266 -0.983 -0.110 0.150 73 67 56 0 0
-0.1815 -0.0083 -0.6315 -0.749 -0.432 0.502 34 28 22 0 0
-0.1526 0.0060 -0.6602 -0.546 -0.470 0.693 10 8 9 0 0
-0.1542 0.0054 -0.6610 -0.544 -0.206 0.813 12 10 11 0 0
-0.1644 0.0027 -0.6852 -0.900 -0.315 0.300 9 8 6 0 0
-0.1941 -0.0030 -0.7863 -0.010 -0.420 0.908 31 24 16 0 0
-0.2082 -0.0083 -0.7967 -0.910 -0.345 0.231 24 19 13 0 0
-0.2090 -0.0085 -0.7981 -0.911 -0.210 0.354 29 21 16 0 0
-0.2176 -0.0092 -0.8417 -0.978 -0.191 -0.078 89 79 54 0 0
-0.1086 -0.0010 -0.2649 -0.818 -0.327 0.474 193 177 144 0 0
-0.1091 -0.0011 -0.2662 -0.794 -0.478 0.376 185 169 130 0 0
-0.1109 -0.0018 -0.2672 -0.886 -0.320 0.335 165 148 107 0 0
-0.1122 -0.0023 -0.2683 -0.816 -0.371 0.444 132 113 79 0 0
-0.1141 -0.0028 -0.2722 -0.684 -0.429 0.590 65 49 32 0 0
-0.1275 -0.0078 -0.2831 -0.978 0.061 0.198 120 105 79 0 0
-0.1381 -0.0106 -0.3079 -0.412 -0.231 0.881 95 86 74 0 0
-0.1405 -0.0115 -0.3101 -0.538 -0.079 0.839 158 148 128 0 0
-0.1434 -0.0126 -0.3135 -0.915 -0.086 0.393 85 76 65 0 0
-0.1496 -0.0145 -0.3234 -0.751 -0.105 0.652 168 153 121 0 0
-0.1542 -0.0159 -0.3322 -0.966 -0.148 0.213 41 30 17 0 0
-0.1585 -0.0175 -0.3352 -0.825 -0.523 0.215 52 41 23 0 0
-0.1592 -0.0173 -0.3424 -0.679 -0.551 0.485 61 50 37 0 0
-0.1510 -0.0127 -0.3578 -0.887 -0.451 0.097 78 64 50 0 0
-0.1516 -0.0129 -0.3590 -0.954 -0.273 0.123 36 26 15 0 0
-0.1549 -0.0134 -0.3717 -0.911 -0.411 0.042 50 36 23 0 0
-0.1547 -0.0132 -0.3733 -0.892 -0.053 0.449 36 22 8 0 0
-0.1565 -0.0133 -0.3820 -0.930 -0.173 0.324 49 36 20 0 0
-0.1569 -0.0129 -0.3912 -0.668 -0.593 0.449 85 70 49 0 0
-0.1618 -0.0136 -0.4113 -0.629 -0.564 0.535 81 67 44 0 0
-0.1635 -0.0136 -0.4217 -0.765 -0.588 0.262 74 60 35 0 0
-0.1645 -0.0139 -0.4229 -0.814 -0.560 0.153 87 72 50 0 0
-0.1588 -0.0065 -0.4941 -0.970 -0.232 0.070 58 53 44 0 0
-0.1593 -0.0065 -0.4973 -0.957 -0.256 0.137 68 64 57 0 0
-0.1736 -0.0099 -0.5362 -0.996 0.041 -0.081 56 52 48 0 0
-0.1710 -0.0078 -0.5502 -0.897 0.090 0.434 19 15 14 0 0
-0.1700 -0.0072 -0.5527 -0.933 -0.230 -0.278 19 15 14 0 0
-0.1806 -0.0067 -0.6248 -0.941 -0.047 0.334 54 53 45 0 0
-0.1538 0.0073 -0.6597 -0.263 -0.539 0.800 7 5 6 0 0
-0.1723 0.0013 -0.6874 -0.737 -0.513 0.440 11 9 7 0 0
-0.1734 0.0009 -0.6886 -0.690 -0.560 0.458 14 10 9 0 0
-0.1712 0.0021 -0.6924 -0.758 -0.518 0.396 18 14 12 0 0
-0.2057 -0.0126 -0.6945 -0.388 0.755 0.528 64 57 48 0 0
-0.2085 -0.0138 -0.6942 -0.491 0.736 0.465 64 56 50 0 0
-0.2136 -0.0157 -0.6979 -0.998 0.019 0.068 88 77 59 0 0
-0.2139 -0.0158 -0.6996 -0.946 0.036 0.323 93 83 61 0 0
-0.2139 -0.0156 -0.7016 -0.860 0.170 0.481 117 102 77 0 0
-0.2259 -0.0198 -0.7151 -0.966 0.218 0.138 75 59 30 0 0
-0.1928 -0.0007 -0.7858 -0.347 0.591 0.728 64 56 39 0 0
-0.1948 -0.0015 -0.7861 -0.335 0.493 0.803 80 69 51 0 0
-0.1979 -0.0027 -0.7875 -0.324 0.184 0.928 78 70 49 0 0
-0.2083 -0.0067 -0.7949 -0.752 -0.399 0.525 30 23 15 0 0
-0.2089 -0.0067 -0.7985 -0.989 -0.049 0.143 32 25 17 0 0
-0.2092 -0.0067 -0.8004 -0.989 -0.049 0.143 46 37 26 0 0
-0.2108 -0.0067 -0.8097 -0.657 -0.554 0.512 81 69 45 0 0
-0.2169 -0.0090 -0.8145 -0.844 -0.063 0.532 110 95 62 0 0
-0.2225 -0.0099 -0.8351 -0.382 -0.118 0.917 95 87 61 0 0
-0.2173 -0.0072 -0.8425 -0.791 -0.611 0.038 101 93 65 0 0
-0.2297 -0.0108 -0.8674 -0.588 0.190 0.786 160 158 159 0 0
0.0208 0.0547 -0.2425 -0.963 -0.102 -0.251 175 175 177 0 0
0.0213 0.0551 -0.2442 -0.989 0.139 -0.058 175 175 177 0 0
-0.1109 -0.0005 -0.2644 -0.451 -0.145 0.881 195 180 146 0 0
-0.1131 -0.0010 -0.2696 -0.728 -0.388 0.565 142 124 96 0 0
-0.1283 -0.0064 -0.2858 -0.947 0.009 0.322 137 125 99 0 0
-0.1305 -0.0072 -0.2881 -0.891 -0.305 0.336 55 44 27 0 0
-0.1386 -0.0093 -0.3078 -0.412 -0.231 0.881 112 104 91 0 0
-0.1406 -0.0101 -0.3086 -0.660 -0.059 0.749 135 125 107 0 0
-0.1421 -0.0107 -0.3096 -0.481 -0.185 0.857 129 118 100 0 0
-0.1434 -0.0112 -0.3107 -0.499 -0.263 0.826 93 83 67 0 0
-0.1430 -0.0105 -0.3183 -0.824 -0.427 0.373 30 22 16 0 0
-0.1457 -0.0115 -0.3203 -0.856 -0.244 0.455 111 102 90 0 0
-0.1532 -0.0144 -0.3252 -0.800 -0.327 0.504 219 204 174 0 0
-0.1592 -0.0157 -0.3426 -0.923 -0.380 0.066 70 58 45 0 0
-0.1519 -0.0114 -0.3591 -0.986 -0.135 0.097 20 14 7 0 0
-0.1519 -0.0112 -0.3622 -0.985 0.002 0.175 26 21 13 0 0
-0.1632 -0.0130 -0.4060 -0.698 -0.232 0.677 82 67 47 0 0
-0.1650 -0.0136 -0.4084 -0.627 -0.467 0.623 78 63 40 0 0
-0.1608 -0.0051 -0.5019 -0.798 -0.392 0.458 124 119 111 0 0
-0.1620 -0.0053 -0.5064 -0.847 -0.176 0.502 57 53 46 0 0
-0.1700 -0.0071 -0.5298 -0.945 -0.252 0.208 48 43 39 0 0
-0.1719 -0.0077 -0.5340 -0.965 0.055 0.258 54 49 45 0 0
-0.1796 -0.0053 -0.6146 -0.998 -0.062 -0.013 32 28 25 0 0
-0.1796 -0.0051 -0.6164 -0.998 -0.062 -0.013 34 30 27 0 0
-0.1796 -0.0050 -0.6183 -0.998 -0.062 -0.013 38 35 30 0 0
-0.1815 -0.0051 -0.6283 -0.804 -0.199 0.560 62 60 48 0 0
-0.1549 0.0085 -0.6592 -0.263 -0.539 0.800 7 5 6 0 0
-0.1561 0.0081 -0.6603 -0.311 -0.707 0.635 6 4 5 0 0
-0.1723 0.0029 -0.6858 -0.554 -0.458 0.695 10 9 7 0 0
-0.1732 0.0026 -0.6871 -0.647 -0.631 0.428 12 10 8 0 0
-0.1738 0.0025 -0.6886 -0.457 -0.687 0.565 14 10 9 0 0
-0.1721 0.0035 -0.6920 -0.840 -0.395 0.372 19 15 13 0 0
-0.2134 -0.0135 -0.7043 -0.772 0.411 0.484 84 74 52 0 0
-0.2181 -0.0144 -0.7203 -0.803 -0.209 0.559 81 66 33 0 0
-0.2167 -0.0135 -0.7235 -0.977 -0.079 0.199 101 86 51 0 0
-0.2170 -0.0136 -0.7252 -0.977 -0.079 0.199 123 105 69 0 0
-0.1941 0.0007 -0.7872 -0.335 0.493 0.803 107 92 63 0 0
-0.2001 -0.0018 -0.7881 -0.290 -0.099 0.952 113 97 69 0 0
-0.2089 -0.0051 -0.7948 -0.571 -0.491 0.658 40 30 23 0 0
-0.2092 -0.0052 -0.7966 -0.894 -0.380 0.236 34 23 15 0 0
-0.2084 -0.0046 -0.7996 -0.981 0.116 0.158 44 35 24 0 0
-0.2085 -0.0045 -0.8016 -0.974 -0.042 0.222 49 39 23 0 0
-0.2113 -0.0054 -0.8053 -0.864 -0.436 0.252 80 66 45 0 0
-0.2164 -0.0071 -0.8133 -0.237 -0.417 0.877 110 95 62 0 0
-0.2152 -0.0046 -0.8407 -0.620 -0.488 0.614 97 87 62 0 0
-0.2162 -0.0049 -0.8419 -0.620 -0.488 0.614 104 95 67 0 0
-0.2229 -0.0055 -0.8752 -0.981 0.180 0.078 163 161 162 0 0
-0.1261 -0.0044 -0.2793 -0.744 -0.174 0.645 43 30 24 0 0
-0.1272 -0.0047 -0.2819 -0.900 -0.237 0.365 63 53 42 0 0
-0.1280 -0.0049 -0.2831 -0.887 -0.344 0.308 82 73 57 0 0
-0.1284 -0.0050 -0.2845 -0.887 -0.199 0.418 95 85 68 0 0
-0.1295 -0.0054 -0.2856 -0.726 -0.176 0.665 99 89 75 0 0
-0.1294 -0.0049 -0.2915 -0.832 -0.111 0.544 116 99 70 0 0
-0.1302 -0.0052 -0.2928 -0.936 -0.103 0.337 172 155 117 0 0
-0.1310 -0.0054 -0.2940 -0.832 -0.111 0.544 134 117 87 0 0
-0.1446 -0.0096 -0.3178 -0.732 -0.471 0.491 34 25 18 0 0
-0.1452 -0.0098 -0.3191 -0.867 -0.109 0.486 95 84 74 0 0
-0.1499 -0.0115 -0.3235 -0.761 -0.302 0.575 211 196 168 0 0
-0.1547 -0.0135 -0.3248 -0.760 -0.370 0.535 106 90 69 0 0
-0.1602 -0.0147 -0.3408 -0.833 -0.548 0.073 40 29 20 0 0
-0.1606 -0.0146 -0.3452 -0.800 -0.577 0.165 80 69 47 0 0
-0.1545 -0.0116 -0.3505 -0.872 -0.108 -0.478 62 55 36 0 0
-0.1655 -0.0122 -0.4084 -0.707 -0.333 0.624 71 58 37 0 0
-0.1660 -0.0114 -0.4225 -0.677 -0.726 0.121 64 50 26 0 0
-0.1653 -0.0094 -0.4457 -0.791 -0.450 -0.415 62 48 32 0 0
-0.1616 -0.0035 -0.5069 -0.900 -0.220 0.376 96 89 79 0 0
-0.1823 -0.0070 -0.5833 -0.669 -0.425 0.610 29 25 23 0 0
-0.1884 -0.0086 -0.5976 -0.986 -0.168 0.023 17 16 12 0 0
-0.1882 -0.0083 -0.5996 -0.931 -0.355 -0.082 20 15 12 0 0
-0.1881 -0.0082 -0.6015 -0.931 -0.355 -0.082 26 22 19 0 0
-0.1886 -0.0083 -0.6030 -0.880 -0.473 0.050 32 29 26 0 0
-0.1811 -0.0041 -0.6157 -0.878 -0.448 -0.169 16 12 9 0 0
-0.1801 -0.0035 -0.6183 -0.990 -0.102 -0.092 16 15 11 0 0
-0.1799 -0.0033 -0.6203 -0.989 -0.091 -0.118 25 24 20 0 0
-0.1590 0.0086 -0.6605 -0.514 -0.771 0.376 5 5 5 0 0
-0.1587 0.0105 -0.6847 -0.853 0.310 -0.421 6 6 6 0 0
-0.1707 0.0055 -0.6874 -0.063 -0.360 0.931 11 10 7 0 0
-0.1735 0.0043 -0.6873 -0.598 -0.498 0.629 13 12 9 0 0
-0.1884 -0.0014 -0.6974 -0.640 -0.142 0.755 28 22 16 0 0
-0.2192 -0.0131 -0.7198 -0.957 0.234 0.172 99 84 48 0 0
-0.2173 -0.0121 -0.7234 -0.926 -0.368 0.083 120 104 69 0 0
-0.2029 -0.0012 -0.7881 -0.214 -0.212 0.954 122 108 80 0 0
-0.2294 -0.0093 -0.8356 -0.658 0.424 0.622 115 102 75 0 0
0.0250 0.0613 -0.2597 -0.833 0.027 0.553 169 154 121 0 0
-0.0840 0.0140 -0.2597 -0.820 0.439 0.366 72 60 45 0 0
-0.0870 0.0128 -0.2605 -0.718 0.552 0.424 74 62 48 0 0
-0.1186 -0.0000 -0.2727 -0.732 -0.169 0.660 65 50 29 0 0
-0.1214 -0.0011 -0.2748 -0.769 -0.215 0.602 92 78 56 0 0
-0.1271 -0.0033 -0.2791 -0.852 -0.048 0.521 49 36 27 0 0
-0.1269 -0.0031 -0.2806 -0.845 -0.339 0.414 52 40 32 0 0
-0.1283 -0.0035 -0.2831 -0.869 -0.415 0.270 46 36 26 0 0
-0.1299 -0.0040 -0.2856 -0.726 -0.176 0.665 79 69 58 0 0
-0.1304 -0.0037 -0.2928 -0.800 -0.181 0.573 168 154 125 0 0
-0.1444 -0.0080 -0.3180 -0.859 -0.422 0.291 40 30 23 0 0
-0.1454 -0.0083 -0.3192 -0.867 -0.109 0.486 122 113 101 0 0
-0.1463 -0.0086 -0.3204 -0.844 -0.167 0.509 100 88 76 0 0
-0.1495 -0.0098 -0.3237 -0.888 -0.060 0.456 219 204 172 0 0
-0.1550 -0.0121 -0.3248 -0.857 -0.096 0.506 95 80 58 0 0
-0.1554 -0.0122 -0.3262 -0.702 -0.317 0.637 66 53 32 0 0
-0.1564 -0.0125 -0.3273 -0.702 -0.317 0.637 94 82 61 0 0
-0.1573 -0.0128 -0.3285 -0.714 -0.220 0.665 98 88 70 0 0
-0.1575 -0.0128 -0.3299 -0.850 -0.318 0.419 75 66 49 0 0
-0.1596 -0.0132 -0.3366 -0.860 -0.306 0.409 37 28 19 0 0
-0.1600 -0.0133 -0.3380 -0.960 -0.030 0.278 38 29 21 0 0
-0.1606 -0.0134 -0.3408 -0.982 -0.187 -0.038 40 29 19 0 0
-0.1611 -0.0134 -0.3436 -0.986 -0.110 -0.125 78 67 47 0 0
-0.1617 -0.0135 -0.3449 -0.918 -0.259 0.301 86 75 51 0 0
-0.1571 -0.0081 -0.3932 -0.868 -0.108 0.485 63 48 29 0 0
-0.1672 -0.0101 -0.4254 -0.722 -0.630 0.285 82 66 42 0 0
-0.1681 -0.0103 -0.4282 -0.702 -0.672 0.234 88 72 46 0 0
-0.1665 -0.0084 -0.4453 -0.891 -0.147 -0.430 60 51 31 0 0
-0.1620 -0.0020 -0.5069 -0.900 -0.220 0.376 90 82 68 0 0
-0.1669 -0.0039 -0.5094 -0.740 -0.389 0.548 93 89 87 0 0
-0.1698 -0.0014 -0.5608 -0.659 -0.675 0.331 17 13 12 0 0
-0.1709 -0.0019 -0.5619 -0.841 -0.115 0.529 15 11 10 0 0
-0.1870 -0.0071 -0.5860 -0.686 -0.544 0.482 28 24 21 0 0
-0.1895 -0.0074 -0.5971 -0.974 -0.185 0.128 27 25 21 0 0
-0.1889 -0.0070 -0.5994 -0.882 -0.460 -0.105 30 25 22 0 0
-0.1878 -0.0063 -0.6020 -0.867 -0.422 0.266 36 31 28 0 0
-0.1894 -0.0069 -0.6027 -0.875 -0.481 -0.049 29 24 21 0 0
-0.1888 -0.0065 -0.6050 -0.784 -0.613 -0.093 27 23 20 0 0
-0.1886 -0.0062 -0.6089 -0.784 -0.613 -0.093 19 15 12 0 0
-0.1613 0.0090 -0.6552 -0.929 -0.267 -0.257 8 6 7 0 0
-0.1930 -0.0015 -0.7001 -0.848 -0.106 0.519 81 73 69 0 0
-0.1934 -0.0015 -0.7018 -0.755 -0.298 0.585 74 67 63 0 0
-0.2163 -0.0097 -0.7267 -0.794 -0.603 -0.068 125 109 78 0 0
-0.1861 0.0078 -0.7869 -0.913 -0.136 0.385 76 64 42 0 0
-0.2167 -0.0034 -0.8162 -0.907 -0.418 0.053 114 99 66 0 0
-0.2174 -0.0028 -0.8285 -0.981 0.183 0.065 114 102 74 0 0
-0.2193 -0.0027 -0.8420 -0.816 -0.578 -0.017 121 108 80 0 0
0.0265 0.0635 -0.2568 -0.893 -0.050 0.446 172 168 158 0 0
0.0260 0.0634 -0.2584 -0.875 -0.002 0.484 154 146 124 0 0
-0.0932 0.0119 -0.2634 -0.364 -0.444 0.819 135 123 100 0 0
-0.1261 -0.0014 -0.2780 -0.674 -0.513 0.531 80 66 46 0 0
-0.1270 -0.0016 -0.2792 -0.729 -0.310 0.611 65 53 37 0 0
-0.1274 -0.0017 -0.2805 -0.828 -0.370 0.421 65 53 41 0 0
-0.1341 -0.0028 -0.3066 -0.867 0.029 0.498 91 82 72 0 0
