ply
format ascii 1.0
element vertex 672
property float x
property float y
property float z
property uchar diffuse_red
property uchar diffuse_green
property uchar diffuse_blue
end_header
-0.06230493319814642 0.0661313601958003 -0.4094702146253466 69 58 41
-0.06223890364492108 0.06616534007866755 -0.4112026363454964 60 48 32
-0.06228126451851415 0.0663410667969068 -0.41286262736056784 58 46 30
-0.06231209128252745 0.06650183661001789 -0.41453210426065384 60 49 32
-0.0626289691323096 0.06703629633934284 -0.4160049387590243 56 46 29
-0.06405366060018408 0.0690173292905778 -0.41670714896456906 49 37 22
-0.06218421938362262 0.06669713491356623 -0.41970395915156933 90 79 65
-0.060298317920270524 0.06435629557826941 -0.4227241271123268 129 121 105
-0.06038724743323209 0.06459387982040529 -0.42436643635430765 85 77 59
-0.06143676376141365 0.06608514130203873 -0.4253314369244606 57 49 32
-0.06110553415985752 0.06577448995669836 -0.4272716948227836 43 33 22
-0.06131405754536804 0.0661682733937088 -0.428831296517468 29 20 12
-0.06163472041381976 0.06670838268489793 -0.4303114193586596 24 15 9
-0.06263936042696791 0.0681405718339376 -0.4313009972608235 75 66 59
-0.061652660888986466 0.06697568140476273 -0.43372061699501313 108 100 91
-0.06385263729671378 0.07021009582341493 -0.4372651954573875 45 36 30
-0.06317799766581661 0.06945294580225896 -0.43947132071860795 43 36 26
-0.0640826637097163 0.07075415821555703 -0.44052438737286437 41 33 25
-0.06399902756257268 0.07076749517486883 -0.442301995133799 41 30 25
-0.06443665815309597 0.07146004580446992 -0.4436966260510874 45 34 28
-0.06409031984604235 0.0711314321066465 -0.4456721785068851 87 77 67
-0.06364720425011551 0.0706770479441329 -0.4477234766561244 124 115 101
-0.06360100417537909 0.07185183500237484 -0.46508503595845807 32 25 21
-0.06383513619214197 0.07228045251252889 -0.4666463899985531 20 16 13
-0.06451449360755758 0.07328788003578669 -0.46786209588771194 23 18 17
-0.06523374961912948 0.07434702837603725 -0.4690447378414132 28 21 19
-0.06557845190298338 0.07491926953505625 -0.4705185406988378 34 27 21
-0.06591854670757605 0.07548551854371215 -0.4719958889567828 54 46 37
-0.06611507378475208 0.07586524657377967 -0.4735864145988062 75 67 54
-0.06609799418371887 0.07596756125321469 -0.47534675000930066 91 83 68
-0.06629131531459206 0.07634327493563549 -0.4769419183378662 105 96 81
-0.06697527619442142 0.0773561704092538 -0.4781468003261525 96 87 72
-0.06722491085374607 0.07780501178721612 -0.47969709888818834 87 75 59
-0.07627095746374143 0.08979621282561756 -0.4759152575706121 75 63 50
-0.07599890210595261 0.08956641295036738 -0.47786461371155164 64 53 41
-0.07676458353702409 0.0906833841149251 -0.47897568813448066 58 49 38
-0.11626087123282386 0.14391303702549346 -0.47473222340702587 126 115 86
-0.1219954127387509 0.15145075448639797 -0.4714390987386404 121 110 79
-0.12229551878450023 0.15195559532971925 -0.47281530605355565 107 96 67
-0.12282862135593542 0.15276182420299553 -0.47398935258265584 92 80 56
-0.12312474020291388 0.1532614653870678 -0.47536842876064267 84 68 43
-0.12360410577618992 0.15399806882055353 -0.47658748680847707 107 92 61
-0.12408141427981843 0.15473194147635605 -0.47780734899957383 126 111 77
-0.12462920120773105 0.15555685117791543 -0.4789642513401899 125 108 72
-0.12530283438237685 0.15654431701573 -0.4800087385327353 145 128 87
-0.12598347820758807 0.15754069120031738 -0.48104489601555994 147 129 90
-0.1253413774707428 0.15682781428326295 -0.4832534184475397 110 92 61
-0.12551953500087715 0.15717500095001943 -0.4847366965168675 74 57 36
-0.12322870436652485 0.15433311935456795 -0.4884273416419813 67 50 36
-0.12319953906308997 0.1544131710676027 -0.4901051438556984 63 47 34
-0.12379884977012742 0.15530488638844508 -0.4912195589382801 80 66 49
-0.12418291644769511 0.15591858978560005 -0.4925265224279489 97 86 60
-0.12430492820142051 0.1561939893175344 -0.4940702890705177 94 82 55
-0.12458655928858606 0.15667547608668983 -0.4954701567250708 80 65 45
-0.1253798669108429 0.1578172554558339 -0.4964039470771542 60 44 28
-0.12759729206855677 0.16079625860778543 -0.49603313057226955 105 91 64
-0.12564539053257096 0.1583959825944748 -0.4994744676498843 110 96 67
-0.12566626316684487 0.15854113982457257 -0.5011141848959378 89 76 52
-0.12549865401235974 0.1584433511083057 -0.5029295188292453 87 76 53
-0.12524264759114892 0.15823178236926239 -0.5048294715389366 106 93 64
-0.12794855448348844 0.16183888239773556 -0.5039819400079076 106 92 59
-0.1279229172711255 0.16192410406111732 -0.5056651872293334 74 57 29
-0.12785124665684147 0.16195013887183854 -0.5073934089486963 94 77 48
-0.1279258529268783 0.16216481734327992 -0.5089867166491415 110 96 63
-0.12812890455916573 0.16254507455919684 -0.5104605917069198 116 101 66
-0.128230768080759 0.1627950320595179 -0.5120305434685903 123 104 72
-0.12817041539495214 0.16283615452739536 -0.5137552248817884 110 91 59
-0.1283344188949332 0.1631663371437809 -0.5152690883212193 113 94 62
-0.12844285828602425 0.16342504153481258 -0.5168367131382089 120 102 68
-0.12808177499060644 0.16307941965816286 -0.5188540311035643 130 112 77
-0.12518453221101378 0.1594698521135943 -0.523305515538687 131 114 77
-0.1250724285048843 0.15944573504948992 -0.5250989787544562 138 121 84
-0.12451789893899372 0.15885254846792984 -0.5273215173440899 130 113 79
-0.12471524743602655 0.15922697439589012 -0.5288220305425362 119 103 72
-0.12437800694947536 0.15891384505808462 -0.5308418277648833 128 110 78
-0.1240719526216862 0.15864109677584234 -0.5328351388524061 133 116 83
-0.12396061675283501 0.15861898037176342 -0.5346420708454257 105 94 69
-0.12383246319321484 0.15857542319280443 -0.5364679922128018 96 89 70
-0.12370143774542115 0.1585283618969053 -0.5382993624411739 110 101 79
-0.12515136818150097 0.1605132758495925 -0.5385760640650685 121 110 82
-0.12479289251020863 0.1601739928189683 -0.5406327315926172 135 122 87
-0.12427814218751804 0.15963422456037554 -0.5428482930000413 139 123 86
-0.1230766412828167 0.15821266407807683 -0.5457514827750362 135 118 85
-0.12084745918350388 0.15547189381072835 -0.549688431639815 111 97 67
-0.04654450347635476 0.06101844719011587 -0.6374439672891133 72 65 55
-0.049093856390928045 0.06442801934197279 -0.6368021349625455 71 64 54
-0.054391768365182724 0.07136130590283685 -0.6333317167283659 76 69 59
-0.055903358240036546 0.07343781311147393 -0.633720970314822 62 53 44
-0.05505425832307258 0.0724875683747558 -0.6365355133314765 66 59 49
-0.06002798678904504 0.07900106367007591 -0.6333400592704695 69 63 53
-0.06224017569430777 0.08197363758150528 -0.6329786127011727 82 75 65
-0.0631509798684471 0.08327796001914298 -0.6339585880461984 80 73 63
-0.06299950228229385 0.08322118655403123 -0.6360426223553262 55 48 40
-0.06194102632292403 0.08200290603759332 -0.6390780955909077 44 37 29
-0.06608478375059859 0.08744736376549019 -0.6366666800473604 71 64 55
-0.0678006525664785 0.08978147220647639 -0.636785530232773 69 62 52
-0.06944988962807394 0.09202968038110547 -0.6369662615534382 67 60 50
-0.06594290324182564 0.08767750128630679 -0.6425937479255309 61 54 44
-0.0717195690327433 0.0952077817731934 -0.6383952138015723 61 54 44
-0.0734883824671655 0.0976075025526086 -0.6384278146113685 61 54 44
-0.07451615384079834 0.09905857322252909 -0.6392424301789751 66 59 49
-0.07535577274537501 0.10026867874192211 -0.6402541916534483 53 49 40
-0.07630005759870341 0.1016124201983293 -0.6411505487291755 46 39 31
-0.07707471075734139 0.10273899694062667 -0.6422257828457507 63 56 46
-0.07899137513074132 0.10532536512741404 -0.6420655276741336 62 53 44
-0.07988574748230402 0.10660433436792836 -0.643002260763152 62 53 41
-0.0814306355429206 0.10871441055631365 -0.6432292868432108 74 65 49
-0.07841874243076398 0.10500145129144334 -0.6484103905455251 70 61 45
-0.08366517823987775 0.1118403640032275 -0.6445947548377928 77 69 49
-0.08504635994024493 0.11373992247742008 -0.6449812392688573 71 63 47
-0.08642210424186222 0.11563207412708335 -0.6453672026639414 71 63 46
-0.08678179476806422 0.11622638817091786 -0.6468656750777866 86 78 59
-0.08734286768465793 0.11707778895111794 -0.6481416081761486 78 66 50
-0.08845735489232749 0.11863548647374993 -0.6488032168487309 86 74 58
-0.09090215943041567 0.12189060024711137 -0.6479824013866435 113 101 85
-0.09331130851791525 0.12509927656443004 -0.6471880881246607 86 74 58
-0.09437936521664207 0.12659611181032265 -0.647878715719596 81 70 50
-0.09538199842364284 0.12800916907605536 -0.648638024289867 88 77 54
-0.09660662739432439 0.12970504134103056 -0.6491437789854114 99 85 58
-0.0975880391921273 0.1310903909183163 -0.6499178923783973 113 97 67
-0.09845556797401725 0.13233026457625424 -0.6508165659465612 133 116 86
-0.09973189771726973 0.1340909718712358 -0.6512488189727742 138 122 88
-0.10034037461494794 0.13500013419217094 -0.6524337156997964 156 141 103
-0.10158267531231432 0.13671678311328975 -0.6528949220961763 128 111 78
-0.1010571611440652 0.13618089294981534 -0.6553695881961095 133 113 83
-0.10323103226350325 0.13908369472277138 -0.6547578726185691 163 145 108
-0.10547103329116275 0.1420698805848593 -0.6540585158338831 180 163 122
-0.10759948417525243 0.14491316720502345 -0.653475508107319 188 170 126
-0.10685152311854126 0.14409380502000319 -0.6562030885501278 181 161 119
-0.10670153045025277 0.1440360441658219 -0.6582450309709897 186 168 124
-0.10787365938914295 0.1456610361580306 -0.6587546681087124 176 159 116
-0.10855748444417915 0.146664340295672 -0.6598275606729657 148 130 89
-0.10889345229021019 0.14722495842781458 -0.6613043853171992 124 105 67
-0.10960614896796939 0.1482647423620154 -0.6623400694712923 118 98 63
-0.11058676311067162 0.1496450596926558 -0.6630587460925232 133 112 76
-0.11107342720154653 0.15039704155268813 -0.6643547793656589 103 83 48
-0.11282280037804872 0.15275414802619802 -0.6641591643719312 97 80 47
-0.11316447094909117 0.15332140993501833 -0.6656207583949634 105 88 56
-0.11398520905059034 0.15449745246248187 -0.6665136453018226 98 80 55
-0.11397050406001527 0.15461180221119614 -0.6683976829476648 65 47 26
-0.11450038360349574 0.15541810328933223 -0.6696340338524119 77 61 36
-0.1144702022613433 0.1555129878140876 -0.6715392712502634 110 93 58
-0.11457098507344174 0.15577434318059274 -0.673289693614676 161 143 98
-0.11403360757209588 0.1552255813564427 -0.6758093636045837 150 132 89
-0.11382420652816536 0.15509355048345266 -0.6779390020159264 146 127 87
-0.11337115342189395 0.15465253556191216 -0.6803668573355602 140 119 84
-0.11307644443379042 0.1544128107162962 -0.6826077568977034 125 105 72
-0.11274271461154628 0.15412387016869494 -0.684900176583415 135 118 84
-0.11279128073838497 0.1543201670868239 -0.6867307768670161 116 100 69
-0.1125957332583159 0.15420700261553233 -0.688861673718165 97 82 55
-0.11017504493969164 0.15127260499625936 -0.6937237242094344 82 68 48
-0.10910775440452807 0.15005528234292292 -0.6969402608379804 41 32 21
-0.1079575016638189 0.1487334553447384 -0.7002682028978439 30 21 14
-0.10715009983618948 0.14784681640597408 -0.7031822152049775 41 32 25
-0.10756674608658234 0.1485116621471288 -0.7045871819637043 26 17 12
-0.10470069891208213 0.14501784577406662 -0.7100694898506076 42 32 23
-0.10615721221757281 0.1470004788635844 -0.7101890052244568 60 49 38
-0.10687096361454207 0.1480419800640162 -0.7112287264236329 67 55 39
-0.10814400446913995 0.14979143728386424 -0.7115656777041475 78 64 46
-0.10980896563044501 0.1520365842205992 -0.7114044377684586 98 83 58
-0.11076591808162335 0.15338500806620764 -0.7121255959763889 113 97 71
-0.11408819403352889 0.15772627575677356 -0.7098575954190541 106 92 66
-0.11407030920697762 0.15784020329369214 -0.7117961791017382 123 110 81
-0.11494749480768647 0.15908651769286639 -0.7126015795926148 130 111 76
-0.11568221770673928 0.16015240029256061 -0.7135845784838056 149 131 100
-0.11610258863147134 0.1608206014142449 -0.7149657923548154 100 85 63
-0.11654866099172512 0.16152125395269878 -0.7163135636031294 95 79 54
-0.11689301234158067 0.16209327695760817 -0.717790979223977 94 74 49
-0.11709074677845435 0.1624800048166964 -0.7194567568103962 81 60 35
-0.11694761851889049 0.16243610676579387 -0.7215626646373955 93 77 44
-0.11758438666926214 0.1633776719681022 -0.7226641880311959 125 106 65
-0.1177676946165421 0.16374634803378751 -0.7243510317810724 154 134 89
-0.117929230189302 0.1640876010419039 -0.7260671514326701 150 130 88
-0.11482779136603308 0.1603091826343918 -0.7320326852714836 149 133 90
-0.1135435638644981 0.15882633968914645 -0.7356492296496799 120 103 68
-0.11097422015615553 0.15572232998991042 -0.740958450259173 115 98 67
-0.10907195422961599 0.15346147030279939 -0.7454119798141101 106 91 63
-0.10711290344423713 0.15113004475881525 -0.7499552864525506 80 69 45
-0.10396014005249385 0.14729400075746105 -0.7560883206441874 70 61 42
-0.09030411554195185 0.13064955980908227 -0.7822488179762095 31 22 12
-0.09114321391063347 0.13185263305969047 -0.7831718112467025 30 21 12
-0.09186191082885188 0.13290377280864826 -0.7842527198242362 28 19 11
-0.09259424405236144 0.13397191192962582 -0.7853128228004547 26 18 8
-0.09353046385619605 0.13529665013417302 -0.7860959230085899 27 19 7
-0.09423001393267622 0.13632308869637988 -0.7871943680932519 38 31 18
-0.09538728458177641 0.1379256094190619 -0.7876712748248424 61 54 39
-0.09648452097366242 0.13945217114965333 -0.7882240824004755 95 85 68
-0.09693955383113514 0.1401701725891283 -0.7896448705090767 110 99 76
-0.09825547383901258 0.14197131585707617 -0.7898915897188362 125 113 87
-0.09905143922684907 0.1431178917025117 -0.7908421357101394 127 113 84
-0.10001481660596749 0.14447480962675718 -0.7915602902715959 117 102 72
-0.10070342954665135 0.14548591122070328 -0.7926515362605921 111 93 63
-0.10213080592810897 0.14742565687091883 -0.7927234020144625 161 140 99
-0.10298682868366102 0.14864667798963382 -0.7935763692678992 152 134 91
-0.10343874852214778 0.1493595886408588 -0.7949849297680838 135 122 79
-0.10369288631451738 0.14982393158464063 -0.7966670902138454 131 116 78
-0.10310310543477248 0.14922813203858587 -0.7995233303168088 99 83 55
-0.10458904523656452 0.15123994395749138 -0.7994926483526671 72 57 34
-0.10477925543919153 0.15162404935899298 -0.8012647172094423 63 46 27
-0.10580149330616803 0.15305286578475402 -0.8018723209373714 62 44 23
-0.10699998701606958 0.15470259848884896 -0.8022277150660436 66 49 25
-0.10768153876358708 0.15570313001390923 -0.8033049369309132 62 47 23
-0.10800091287636522 0.15624904003425083 -0.8048909554372451 57 42 20
-0.1082796942831045 0.15674403800805123 -0.8065345850941648 55 39 19
-0.10850190262452386 0.15716811024895733 -0.808258914942034 64 51 29
-0.10918727534123605 0.1581730701814439 -0.8093256079399032 63 51 25
-0.10896220518784808 0.15803635659147167 -0.8116875194111128 98 84 54
-0.10795994968870606 0.1569256941095898 -0.8151638134633153 77 62 36
-0.10693737342945553 0.15579023701321765 -0.8186786572058863 56 41 18
-0.10732070524949676 0.15641712498706353 -0.820184582992155 92 78 46
-0.10910446988108391 0.15879844422934508 -0.8196746767251607 119 103 60
-0.1101290067859972 0.16022808038651865 -0.8202500617177233 171 153 106
-0.11184054216222693 0.16251769715106604 -0.8198270738773842 169 153 109
-0.11275350621744823 0.16380678627995165 -0.8205522427316191 122 108 72
-0.11252454554663888 0.16366614383850234 -0.8229330147244802 77 63 32
-0.11290322186333908 0.16428626925905795 -0.8244325899415611 84 70 43
-0.11385453872246344 0.16562291308859908 -0.8250956375172904 69 55 28
-0.11435447125976757 0.16639455553874266 -0.826415199175618 90 75 44
-0.11499824996768429 0.1673460392413979 -0.827522567706471 108 93 56
-0.1152360249707127 0.16778965404149387 -0.8292250654662002 128 110 68
-0.11522085382640276 0.16791707166006692 -0.8313013180852966 145 124 81
-0.11521974147272503 0.1680622455549058 -0.8333593506673257 134 114 74
-0.11549105737448881 0.168548066179946 -0.8350161855916926 135 119 80
-0.11539520305089837 0.16857514157933723 -0.837218901315722 148 130 87
-0.11523741007491481 0.16852506429146796 -0.8395169848812015 152 135 92
-0.11526229818863545 0.16870341222691146 -0.8415460271047099 149 134 94
-0.11518690011765693 0.16875669197845794 -0.8437273960096954 138 123 86
-0.11511148672665586 0.16881016784572103 -0.8459118078751685 131 116 83
-0.11519996487930634 0.16906843437637747 -0.8478528857599295 116 102 70
-0.11515039908430824 0.16915455718127306 -0.8500038187936758 104 90 54
-0.11547499061457828 0.16970772735467793 -0.8515924837584088 127 113 76
-0.11559691106003965 0.17000808383856147 -0.8534881482136167 123 109 75
-0.11572469050306705 0.17031586331561818 -0.8553765431503348 94 83 59
-0.11567181449350325 0.17039848710129032 -0.8575413320826943 55 48 33
-0.11557666287280821 0.17042861222663003 -0.8597734742659008 39 36 27
-0.11548135380733429 0.17045876934795282 -0.8620090594497452 51 45 35
-0.11554613426068619 0.17068865512948844 -0.8640025895215273 83 75 64
-0.11520950444541425 0.17041856269018674 -0.8666146080390849 112 108 100
-0.11604252053958226 0.17160580578936796 -0.86743115919783 145 143 139
-0.11769194402377835 0.17380955224883335 -0.866984520085893 165 164 162
-0.11860890384584538 0.17510060268428967 -0.8676612210548025 179 177 179
-0.12047767878592879 0.17757625442583763 -0.8668582439656806 186 184 186
-0.11581077921459021 0.1719166730323265 -0.8761997694266594 190 188 189
0.01122005651685732 -0.04910098263071312 -0.1523655887258451 180 177 178
0.00120048259324472 -0.035399127852691344 -0.15456604604232554 124 117 103
-0.0011909354848821663 -0.03209833271908805 -0.15551442019353132 140 130 113
-0.0022028263957507843 -0.030637289839972808 -0.15680844369097788 153 140 119
-0.004059645605098819 -0.028050209372561904 -0.15788011448262226 166 149 114
-0.006022604596341179 -0.02532216182554277 -0.15891711778153877 162 144 97
-0.008606411186432204 -0.021767279528805437 -0.1597828310460752 137 120 76
-0.009936645086780674 -0.019883488270376372 -0.16097216339905168 106 89 58
-0.010648196468374602 -0.01882430381485789 -0.16232309691440025 105 89 60
-0.0102367063689415 -0.019261306929762058 -0.16397639596637623 93 78 46
-0.01188610945511772 -0.016952983967810746 -0.165070282715275 84 70 40
-0.01027919254290454 -0.01898194298740903 -0.16705470186517277 126 108 76
-0.010135217812090529 -0.019062126628515773 -0.16864177914049572 183 167 123
-0.011196577764108137 -0.017537255536236168 -0.16989366690111146 129 113 77
-0.011894561213248375 -0.01649640121219654 -0.17124472947757133 78 62 35
-0.012162925194250183 -0.01602756615676893 -0.17271627798204894 106 91 63
-0.012148958174207705 -0.015934497221671527 -0.17426901803607703 186 172 138
-0.01236618006442284 -0.015533640976628058 -0.17575649897857165 187 173 134
-0.013117775477806813 -0.0144216698692506 -0.17708884822945853 121 104 73
-0.013310585308118676 -0.01405331131272821 -0.17858325713399278 80 62 38
-0.013557440748149047 -0.013613009777987649 -0.18006228221748302 83 67 40
-0.008985798031999816 -0.019582176582014214 -0.18297792324211226 127 115 83
-0.010067889314779851 -0.018030148630158345 -0.18421781099425288 110 95 64
-0.010728362055192467 -0.017039061447543857 -0.1855818442924735 110 93 62
-0.012146793194291149 -0.015040234953373456 -0.1867132161373795 138 125 91
-0.012284117688550478 -0.014745032190393942 -0.18823317887701757 96 80 60
-0.013297327596272217 -0.013285400842029046 -0.1894828955578659 157 141 114
-0.013717880718852792 -0.012613752548168586 -0.19091426158102137 175 163 135
-0.014925923783052165 -0.010895539972999344 -0.19209781874885865 78 63 46
-0.015014049602863296 -0.01066583507639441 -0.1936316899369741 75 59 41
-0.016377090105735154 -0.00874207831254152 -0.19476029346990004 137 121 94
-0.017638494274530202 -0.006953693498963041 -0.19591673939429743 186 169 133
-0.01837327108572203 -0.005865172454878942 -0.197239146786846 188 170 124
-0.019512779124672537 -0.00423922585034716 -0.19842785141490013 176 157 115
-0.01893690032545131 -0.004891634518851946 -0.20017539243775775 110 90 60
-0.019630275879499143 -0.0038583481372354636 -0.20150787495568773 68 49 26
-0.016295648927146703 -0.008173143124522247 -0.2041784073362448 99 84 55
-0.017664667397759792 -0.006242495169737433 -0.20529051808646648 103 89 57
-0.017012785615942057 -0.006994658827768778 -0.2070793417096592 93 80 50
-0.018985086681836426 -0.004263699179297316 -0.20798159105034292 71 59 36
-0.019292085694430215 -0.003743188883165341 -0.20944555574765797 117 104 78
-0.020289578447480243 -0.0023064862184680457 -0.21067191225392262 144 129 95
-0.02057010480746048 -0.0018212007545703734 -0.21214361088553593 200 183 146
-0.020850602300960933 -0.001335938668674437 -0.21361552644868403 182 168 136
-0.02112168601686199 -0.000863147619642464 -0.21509095577905177 100 85 57
-0.02201408148941386 0.0004336348780984711 -0.21634695584060115 90 74 48
-0.022016000932218463 0.0005494416321387349 -0.21791723454111053 85 71 41
-0.023093797971256137 0.0020918050763070323 -0.21910358208323885 76 61 32
-0.024169078293662008 0.0036305775327225565 -0.2202873053176347 64 47 26
-0.02344163305209796 0.0027795698354929135 -0.2221218064327206 66 49 30
-0.025011937626918092 0.004974213438819333 -0.2231218768468666 72 56 32
-0.02501082985049506 0.005086048603164063 -0.22469382312356037 64 49 27
-0.025547124825499506 0.005910052038714558 -0.22606845667466835 69 54 31
-0.02561992799873651 0.006119936120115001 -0.2276146782419761 67 53 29
-0.02522299862998744 0.005707670365366839 -0.22933810486171247 53 37 16
-0.024827910033885424 0.005298088193817031 -0.2310642425070834 55 37 20
-0.02397311794749204 0.004279957627710086 -0.2329682152203477 61 46 27
-0.024141207428023323 0.004616675517083536 -0.23448721898237757 81 66 44
-0.023635527364491447 0.004061391918029476 -0.23626581800401536 89 74 50
-0.023131723282822488 0.003508875844579637 -0.23804763224723663 76 61 38
-0.02321562297507291 0.0037345487966227373 -0.2396048110373791 69 54 32
-0.02278086223748213 0.0032738765829136846 -0.24136609307893048 75 60 41
-0.02517690679088328 0.0065594477633725765 -0.24201657047864084 69 55 37
-0.02496591828565929 0.006394889777221094 -0.24368973330434224 61 47 31
-0.022247561581211564 0.002913396222475724 -0.24636448620478352 46 35 23
-0.025025955042197866 0.006703923872396336 -0.24685053184925843 21 15 8
-0.020119412036508535 0.00032947342321208717 -0.250423520256946 14 10 7
-0.019425592741751666 -0.0004721309846245775 -0.25231283554975076 14 9 8
-0.018506251985366262 -0.0015715808219174954 -0.2542990525077063 18 12 9
-0.017714254672327304 -0.0025022404655526548 -0.25623898779002885 29 22 18
-0.016791070192893096 -0.0036059307541427277 -0.2582384509884736 33 27 21
-0.016429954801941364 -0.003966277127460643 -0.26001056926598987 24 17 12
-0.021074914295374045 0.0024059316331132563 -0.26131066180698725 21 16 11
-0.020289165658466245 0.0014843395528761072 -0.26325921581132933 30 22 15
-0.0196406362642595 0.0007444079864307035 -0.2651548505228124 55 46 37
-0.019336915894226654 0.00046026611572194676 -0.266907898396916 54 47 39
-0.019827982551313128 0.0012260209280303136 -0.2683225526151699 77 72 67
-0.020305574179912952 0.001973925829944906 -0.26974225489804715 44 39 35
-0.020214236160396838 0.0019705918112053744 -0.2714084186162574 12 8 6
-0.018740132583249268 0.00014190811502376444 -0.2736807119226064 9 6 5
-0.01915886619397024 0.0008124066639770555 -0.27513024298769717 11 8 7
-0.019887999954052972 0.0018925498900535798 -0.276442244302662 15 12 11
-0.030005461729782273 0.01735204779133817 -0.30118638414303733 58 52 48
-0.032909479443687356 0.021293229201059 -0.301406823314902 64 58 53
-0.03488795884115305 0.02401520979067056 -0.30206869968682476 62 55 47
-0.0351652173094212 0.024497593820548377 -0.3035614213160516 59 47 36
-0.034497579139837746 0.02373656905702428 -0.3055227406269556 60 48 35
-0.03745218839815195 0.027741910591513326 -0.30568460303025197 60 48 32
-0.03935266801459913 0.030359518258843282 -0.306361146309412 66 54 38
-0.04020496613476652 0.031597781470351756 -0.307557217425759 67 54 36
-0.041908093896677295 0.033954886626357324 -0.3083204921991436 59 45 26
-0.04301774207530262 0.03553104567350727 -0.30937844609505544 66 49 33
-0.04301234313458974 0.03564078754232028 -0.31100180876072087 75 59 41
-0.04446259368501076 0.037664367126248224 -0.3118799602083881 77 61 40
-0.047109468661074246 0.04126050879875838 -0.31213554230568713 83 67 44
-0.047828968592914564 0.04232261856595132 -0.3133780309187263 92 75 53
-0.048472694728908576 0.043285007621923784 -0.3146579807811239 90 72 50
-0.049219042790772084 0.04438212211240947 -0.31588264304271463 91 73 50
-0.04983427764279639 0.04530682923733471 -0.3171740916997953 98 81 54
-0.050308643404427957 0.04604638461718264 -0.31853846295248284 96 79 51
-0.05043359677401996 0.04632695977491215 -0.320087471804609 95 78 52
-0.05074419921736118 0.04685140793857821 -0.3215384983654398 89 73 50
-0.05165146550338838 0.04815931386456361 -0.3226699844068968 80 65 45
-0.05265208771409923 0.049589571876111814 -0.3237482810514606 73 57 40
-0.05323252988985291 0.05046801553321811 -0.3250503393984596 91 77 56
-0.05376158441521262 0.0512789180882595 -0.32637900504863504 119 109 81
-0.05436852943779229 0.052191962947032766 -0.32766411349014424 114 103 80
-0.05446236010814706 0.05243162242765569 -0.32922910222058516 81 67 48
-0.054693265284818125 0.05285120177445322 -0.33071974202430743 94 79 55
-0.05521872008548722 0.05365719882065299 -0.332047854937746 153 138 107
-0.055651043758388 0.0543409705889659 -0.3334267015999842 161 149 115
-0.056948773063391606 0.05615960755359296 -0.33432172685104167 156 144 114
-0.05798865065628222 0.05763978313791819 -0.33535643011124106 99 87 65
-0.058531484740698796 0.05846804684266386 -0.3366675591353775 84 72 52
-0.05917334898358677 0.05942604391884744 -0.3379214981127275 92 81 62
-0.05974029653608668 0.060285730879599334 -0.33921639457219005 79 68 50
-0.06031473794073443 0.06115514763238328 -0.3405057504181859 53 42 29
-0.060600649817376014 0.06164640690209827 -0.3419593392256086 48 35 22
-0.06061722614273075 0.06178481477725435 -0.3435683127439193 50 36 24
-0.06039463859059747 0.061610043648752645 -0.34531727629569636 56 43 30
-0.06030007118166689 0.061603148539688034 -0.346994591595465 47 34 26
-0.06008302900942304 0.06143601731867052 -0.3487455573902273 43 32 26
-0.05917810802653118 0.06036838510189503 -0.35090274931075477 52 42 34
-0.05845974641503861 0.05954545137560221 -0.3529563423061822 43 33 23
-0.057773423826090554 0.05876484322429713 -0.3549963317583375 44 35 26
-0.05752372916436318 0.05855608189515568 -0.35678204866273733 37 30 22
-0.056304445667972276 0.057078685730389114 -0.3591494025140831 29 22 15
-0.05664979650565077 0.05764912343023473 -0.3605868500932392 23 15 11
-0.05700309387273295 0.05822994922951828 -0.3620194011199979 20 12 10
-0.056467179968354736 0.0576475990884899 -0.36398940615019404 24 15 13
-0.05719760248963953 0.058721810426818816 -0.36519496918845307 66 56 47
-0.05682668459655005 0.05835563332089463 -0.36706999149058706 84 74 61
-0.05713304740718937 0.058875277805937674 -0.36853387473158083 103 92 73
-0.0575818207626246 0.05958110764909427 -0.36991027258866427 120 109 90
-0.058396791286938136 0.06076556555209004 -0.3710598711808813 94 83 66
-0.058522827614740223 0.06104942781506027 -0.3726341695608416 56 43 27
-0.056903830939699786 0.05905299901285047 -0.375296261455265 47 33 19
-0.05878966254904744 0.06175609264685408 -0.3774331345547371 55 40 22
-0.059764512386752594 0.06314900262185741 -0.3784765869774576 72 57 37
-0.05994993927831346 0.06351066378956033 -0.3800165171699747 87 72 51
-0.059869543308618926 0.06352525708669807 -0.3817261947959198 80 65 46
-0.06138250328875754 0.06562035833938254 -0.38242068927536704 55 40 25
-0.06305848677808452 0.06792782947310622 -0.38300443098043385 47 33 21
-0.06368443811428787 0.06886421805194867 -0.3842569910132308 49 36 22
-0.06452175299231629 0.07007633706535898 -0.38537134267292145 80 67 53
-0.06431724525267579 0.06992880142369909 -0.38715910751817006 80 67 52
-0.06429316877186665 0.07001687390679434 -0.38883207811467807 70 58 44
-0.06355248141013778 0.06917025556434755 -0.39097572409044457 55 43 29
-0.06256445257015794 0.06800143103065055 -0.39328746492167943 67 51 36
-0.061729638452580185 0.06703291747057757 -0.3955050887106305 103 92 73
-0.06049705880542659 0.06554618628455529 -0.39799224035724784 79 69 45
-0.0605587471183932 0.06574744227276672 -0.39962717007951376 69 57 39
-0.060082295404647046 0.06524730592630701 -0.40162269952670254 59 46 30
-0.0609357752479956 0.06648085631872903 -0.4027312478607763 64 51 35
-0.0601801111861525 0.06561721895934652 -0.40491961994511494 62 52 36
-0.06252884828634081 0.06879895894866966 -0.4050168577177807 40 30 16
-0.06123060626790665 0.0672286935660691 -0.4075764118171054 90 80 63
-0.06130829326375539 0.06745132716106067 -0.40920790984833416 84 72 54
-0.062015559734058236 0.06849402082925675 -0.4104104462294923 59 46 29
-0.06121948455362707 0.06757890471088498 -0.4126424254839043 55 42 25
-0.0607733261366525 0.06711981807408612 -0.41463938376931353 65 53 35
-0.06096648802512361 0.06749331091967944 -0.41619840596746294 64 52 35
-0.062374557910876115 0.06944821475959465 -0.41691481421349685 50 39 26
-0.061577080391791134 0.06853232300368584 -0.4191623262863463 48 36 22
-0.06001586561483639 0.06662305949159701 -0.42195012306350843 102 91 74
-0.05945001113585899 0.06600953943266963 -0.42404912123789446 110 101 81
-0.060371511443510266 0.06733119785450228 -0.4251044975775967 62 53 34
-0.05983382973146688 0.06675472636040923 -0.4271891835970476 53 43 28
-0.05992371852767258 0.06699472538695413 -0.42883278424846294 36 28 19
-0.060858825960134304 0.06833383070545217 -0.42987504609200605 21 12 9
-0.06149997909246758 0.06929053686038511 -0.431124411632275 58 49 43
-0.06087989555439669 0.06860766313908416 -0.43327814730557346 105 97 86
-0.06084600503415134 0.06893424664878056 -0.438443310710765 44 36 26
-0.06200854360457554 0.07056830311810312 -0.439312723969809 41 35 23
-0.06268202364544168 0.0715667932388412 -0.44053557643848223 42 34 24
-0.06199594790569031 0.0707994833012259 -0.442755387025596 41 31 23
-0.06347229068926194 0.07284049583532592 -0.44338615944055665 50 40 33
-0.06292194164072759 0.07224977457736179 -0.44551068569928903 101 91 79
-0.062691747218416 0.07207499764205548 -0.4474021824849107 124 115 99
-0.06257191241891025 0.07304230529854638 -0.46306561220952025 41 32 26
-0.06243206068944189 0.07298645666659412 -0.4649129231456361 29 22 18
-0.06251348804745668 0.07334325377626733 -0.4683351734376168 21 16 15
-0.06369395027429547 0.07499841612457808 -0.46916129663534956 27 22 18
-0.06379130772563282 0.07525025020164182 -0.47082902945321065 30 24 20
-0.06440823099237766 0.07617508844157701 -0.47209064226587427 34 27 21
-0.0653123068499598 0.07747165780335899 -0.4731247019613204 62 55 45
-0.0662008029136204 0.07874782583088534 -0.4741678811168337 91 83 71
-0.06650318400255878 0.0792650213392316 -0.47567244593622515 102 93 78
-0.06616827874198163 0.0789573639311987 -0.4776839833146128 96 85 69
-0.06762939750696614 0.080974276097331 -0.47826589871648584 88 75 58
-0.06942297044611662 0.08354654263094322 -0.4803178395916426 78 65 49
-0.07451640773683449 0.0902608406825616 -0.4779547118325251 68 55 40
-0.1129547250086182 0.1419900261621887 -0.474807134803907 115 103 82
-0.1136778744123966 0.14304204259210118 -0.4758412062861051 120 108 83
-0.11949911231744585 0.15066869672426092 -0.47248783007853784 116 105 78
-0.11972953865926823 0.1510839782036741 -0.47392783474867156 103 92 67
-0.12034873385728742 0.15200051102108147 -0.475031655354436 87 74 55
-0.12110407693399008 0.15309241523850084 -0.47601541127053976 97 80 59
-0.12145850808432557 0.1536674241345576 -0.47734602441061574 146 132 99
-0.12212777317238808 0.15464811732431064 -0.4784010516697018 155 141 106
-0.12289169095659357 0.1557506127807094 -0.47937095152499604 139 121 84
-0.12365447199087481 0.15685145399898298 -0.48033921855702005 153 134 92
-0.12430291230156577 0.15780483381539778 -0.48140582688437084 137 121 81
-0.124822229690171 0.15859178667049345 -0.48258485713351684 111 94 65
-0.12491625475725912 0.15883104760246214 -0.4841406733544582 84 69 47
-0.12238727032038703 0.15569357699455916 -0.4880367425505522 72 55 41
-0.12242371560368297 0.15585944527407292 -0.4896540940767621 64 47 34
-0.12241951371585613 0.15597311481392082 -0.49130949200530444 72 57 39
-0.12285716573238588 0.15665547324977877 -0.49256883953618785 108 95 72
-0.12351824345702302 0.15762522514423827 -0.49362560556451324 96 81 59
-0.12375865339722335 0.15805370731927051 -0.4950615339775441 69 52 35
-0.12442626005264142 0.1590316477700189 -0.4961094724906413 53 36 25
-0.12630695011835943 0.16156936517912818 -0.4960489357420737 83 68 49
-0.1264943615965839 0.16192935623650556 -0.4975284940710206 104 90 64
-0.12664156605354782 0.16223771096805703 -0.4990456476629524 81 66 43
-0.1267563197418181 0.16250442386704295 -0.5005936078780422 82 67 45
-0.12687115202250074 0.16277131834144393 -0.5021426131306523 108 94 66
-0.12683810936231868 0.16284829373203127 -0.5038297628148338 119 104 72
-0.12685860687330391 0.1629941931101553 -0.5054691306047162 91 75 46
-0.12674242816214873 0.16296466019133032 -0.5072376238258849 84 67 41
-0.12674847039300438 0.16309226641807464 -0.5088942696132166 100 85 56
-0.12687762163461147 0.16337807471896668 -0.5104371614805433 110 95 61
-0.1267926906080761 0.16338911746483115 -0.5121826155496174 113 95 65
-0.12680403302960017 0.16352390299058503 -0.5138394716549375 116 97 67
-0.1268418460816227 0.16369278629028933 -0.5154729991970627 110 92 62
-0.12671338772175797 0.16364842939266067 -0.5172660997941694 117 101 68
-0.12647824328532198 0.16346738428536903 -0.519163458670757 116 102 68
-0.12630596349134124 0.1633672100661547 -0.5210039263196337 115 100 67
-0.1261341426374199 0.16326782949630084 -0.5228467978362655 111 96 64
-0.12325634988935394 0.15969873429423076 -0.5272956077233623 118 103 75
-0.12272049621423697 0.15913361477809473 -0.5295034760281264 123 109 82
-0.12241944292771799 0.15886984620013125 -0.5314891032894222 131 115 86
-0.12224714023689905 0.1587713565938723 -0.5333533661508937 143 127 95
-0.12204896248650868 0.1586399165584991 -0.5352457057166258 124 110 84
-0.12177591940915726 0.15841277445444468 -0.537214213968248 121 110 88
-0.12074153329543436 0.15721057875976352 -0.5399321968807683 129 118 92
-0.12041714837612166 0.15691834447347347 -0.5419604206600593 131 120 93
-0.12160790522055293 0.15856667774144678 -0.5424988193270368 124 112 85
-0.1206667769509489 0.15748499683522674 -0.5451399679553979 127 113 86
-0.11878989394099267 0.15520593258937718 -0.5487167046547562 120 106 79
-0.11718670730772963 0.15327813419662112 -0.5520343079897386 95 82 57
-0.048474200319521404 0.06616900074310078 -0.6320356350612146 76 68 58
-0.04807420435185719 0.06579811873835739 -0.6343905558148364 66 59 49
-0.05064176893065249 0.06922074648942214 -0.633726375830042 73 66 56
-0.05409491806344094 0.07377418187854758 -0.6321437803454024 58 50 41
-0.05456370796997102 0.07451291318900438 -0.6336012578378254 66 56 47
-0.055553785005462375 0.07591756847094955 -0.6345221403298684 71 63 53
-0.0580694867862286 0.07927068568259507 -0.6338661592094332 69 62 52
-0.05714513650456848 0.07822949159125107 -0.636754314522825 78 71 61
-0.05870437570585743 0.08036015552891636 -0.6370744271595324 75 68 57
-0.06032297961875087 0.08256607802388094 -0.6373254211231105 65 58 49
-0.0619305937636567 0.08475741423507403 -0.6375801366304122 46 39 30
-0.06449828154580252 0.08817348134034685 -0.6368226492654654 64 57 47
-0.06510415213483116 0.08908525100995418 -0.6381102140650895 66 59 49
-0.06688686936102033 0.09149832702490807 -0.6381576715381274 63 56 46
-0.06462804248298218 0.08875546185282542 -0.6424620824936038 64 57 47
-0.07041747546255152 0.09627815583563495 -0.6382630362377181 64 57 47
-0.07451612740002228 0.10164246368570161 -0.6358255139970074 60 53 43
-0.07323160794260863 0.10014202683980546 -0.6390963339550275 60 53 43
-0.07417235472524554 0.1014788413841497 -0.6400010956052886 53 48 39
-0.07506286351038044 0.10275136381575943 -0.6409559750173118 47 40 31
-0.075951829922896 0.10402167748401664 -0.6419091348460415 53 46 36
-0.0775419461692974 0.10618502989345475 -0.6421037600351922 66 57 48
-0.07823756369588124 0.10720841250509792 -0.6432568425922612 74 65 51
-0.07988557027434899 0.10944457900345006 -0.6433760855099134 74 65 48
-0.07691065780759464 0.10579354749730725 -0.6485092240268006 64 55 40
-0.08220095070648667 0.11266668611291626 -0.6446585954492255 72 64 47
-0.08319831991021483 0.11407311739109985 -0.6454673976528139 74 66 52
-0.08507937581884621 0.11660390646674382 -0.6453039046053354 68 61 44
-0.08551518192889936 0.11729498422851095 -0.6467187981489643 86 77 60
-0.08617697842609265 0.11827353102026046 -0.6478840757203002 95 84 68
-0.08704833415783304 0.11951849365153813 -0.6488157766862346 83 71 55
-0.0884855053059171 0.12148281070656104 -0.6491171571105575 96 84 68
-0.08911688185925931 0.12242201839409751 -0.650307106689589 114 101 85
-0.09047934427110114 0.12429054606762399 -0.6506805089860079 89 77 57
-0.09316897186162817 0.12784557737980162 -0.649564354598714 94 81 56
-0.09435824756896666 0.12949277829641326 -0.650114815701985 121 107 79
-0.0933198124950195 0.12830894626651385 -0.6531634165729023 109 94 62
-0.09391378709951953 0.12919959276413615 -0.6543810246463804 138 120 90
-0.09755562269000831 0.1339615113323519 -0.6521526374561126 127 110 79
-0.09848955610922241 0.1352829688363627 -0.6529721307637 131 117 83
-0.09949695890932857 0.1366974407517699 -0.6537043482324887 115 100 71
-0.10036174687609808 0.13793055403474275 -0.6545948288093615 127 107 80
-0.10090051866012906 0.13874961662524884 -0.6558544965104232 144 125 93
-0.10172707076323453 0.13993379578358472 -0.6567830971514237 153 136 100
-0.1026735324955135 0.1412698944629887 -0.6575707855956531 195 177 135
-0.10410746794290948 0.14322412256256523 -0.657792893039423 185 166 124
-0.10500816999965942 0.1445015071457582 -0.6586241078457234 188 168 124
-0.1059100723527569 0.1457801529914754 -0.6594503134498311 174 157 112
-0.10688630655540667 0.14715278335862986 -0.6601865292668861 185 170 125
-0.10728313624679037 0.14779061527128393 -0.6615936222756897 161 143 103
-0.10812482295151907 0.14899225270918975 -0.6624806291337567 124 106 73
-0.10887068753990427 0.1500722267381273 -0.6634766136978842 111 91 59
-0.10894968465001671 0.15030709277556184 -0.665253216271124 92 72 41
-0.11169586399250789 0.15392076030055266 -0.6638901251674046 93 74 43
-0.11223441670439394 0.15473728353558241 -0.665118678634225 90 73 46
-0.11202826413448379 0.15461068994926322 -0.667227751583446 70 54 31
-0.11256407699797832 0.15542372291212259 -0.6684592609685285 64 50 27
-0.11238423329297945 0.1553307563946969 -0.6705415093596131 67 52 29
-0.11289381128010313 0.15611056088733943 -0.6718039848129236 123 109 74
-0.11296783335415314 0.15633914181401137 -0.6735866836445291 153 136 92
-0.11228272424600888 0.1556074357065677 -0.6762822045429515 147 130 87
-0.11177740096255884 0.15510361453924282 -0.678767909583093 139 117 80
-0.11137687163372609 0.1547327131743484 -0.6811325612746197 126 106 74
-0.1108546525844312 0.1542082841890018 -0.6836491936724212 118 101 72
-0.11093277568153961 0.15444320954078244 -0.6854430049640527 120 105 75
-0.11063127980886887 0.15419842635153663 -0.687700261244466 104 90 60
-0.11061970747684358 0.15432032680416666 -0.6896080049502905 98 83 57
-0.10794747048934739 0.15108063462141602 -0.6947719411145579 78 67 49
-0.1069614229420025 0.14997246076956872 -0.6978877745611286 31 24 16
-0.1059845823920314 0.1488765364706876 -0.7010008989318085 30 23 18
-0.1053769163275324 0.1482474218096816 -0.7036674811968137 34 25 17
-0.10535428899536806 0.14835739844407583 -0.7056170983868975 28 19 13
-0.10362476907291977 0.1463128921868373 -0.7096844380541044 63 54 43
-0.10417555744889584 0.14714731201085357 -0.7109318265303234 83 72 58
-0.10504674980262164 0.1483859331744415 -0.7117786329972442 77 64 48
-0.10645016931191409 0.15029576717560023 -0.7119570982998937 86 71 53
-0.10872601333172612 0.15330555247468355 -0.7110358888575777 109 93 69
-0.10924597750260233 0.15410000603811702 -0.7123068296475547 123 107 79
-0.11112638753916064 0.15660976193165077 -0.7118637106880387 112 97 70
-0.11314342777193098 0.15929102757990712 -0.7112379226923957 118 102 72
-0.1138150427950558 0.1602756816472863 -0.7123038315355704 141 123 87
-0.11445586192533527 0.16122136575239585 -0.713406580764493 130 113 81
-0.11490261730673859 0.16192239237290112 -0.7147541899187877 116 100 78
-0.11511703202802642 0.16233068254119581 -0.7163974098344548 88 73 49
-0.11495344553493339 0.16226294759619322 -0.7185248349545819 93 72 48
-0.11575700700285665 0.16341331418030403 -0.7194154769084937 92 71 46
-0.1158090052347386 0.16361724289864926 -0.7212691478306219 89 73 41
-0.11496337065397913 0.162691409250864 -0.7242816134256475 115 96 56
-0.1160408688170572 0.1641864274936566 -0.7248168762274432 149 131 86
-0.1155342772491379 0.16368787333722506 -0.7273994136618033 148 131 86
-0.11274401444357979 0.16031679628101386 -0.7329537642453492 140 125 86
-0.11121351726666329 0.15853174565769662 -0.736888526102286 111 97 62
-0.08908454896176869 0.13186985446374644 -0.781956792448152 51 42 29
-0.08952959541593294 0.13257588450145208 -0.7834058390764325 43 34 23
-0.09038979604502577 0.13380303741364502 -0.7842996515465425 34 25 14
-0.09087976886570055 0.13456526216652004 -0.7856858503550971 33 24 13
-0.09171599262202042 0.13576191977958713 -0.7866062054583779 33 24 14
-0.09274237279394675 0.13719691521753413 -0.7872673003768688 29 19 10
-0.09379498293558454 0.13866448167514328 -0.7878884022374235 34 25 13
-0.09486962156838796 0.14015933002771946 -0.7884749191643242 47 38 22
-0.09595320024763883 0.14166503193894436 -0.7890443690774994 55 44 28
-0.09681742818671861 0.1428953843865374 -0.7899070556888023 68 56 38
-0.09673780543788425 0.1429424608767435 -0.7920527857907954 109 95 70
-0.0979555574779984 0.14461555758821 -0.7924285521738168 150 134 102
-0.09895507031943761 0.14601479200018122 -0.79309734333445 156 138 102
-0.10001408223169651 0.14748823651345205 -0.7936799545432693 179 162 115
-0.1004831786885464 0.1482225121403351 -0.7950698835387504 159 143 100
-0.10116619728774652 0.14922459303979185 -0.7961637117675455 134 122 83
-0.1015034732611416 0.1497936667683648 -0.7977336285129122 126 113 75
-0.10214979952644623 0.15074957359512955 -0.7988749211856092 110 94 63
-0.10242889591238699 0.15124577325892707 -0.8005248112910505 87 74 48
-0.10375596712937482 0.15305320136164538 -0.8007142643944556 65 51 30
-0.10467945356735195 0.15435528842698232 -0.8014609458152234 62 46 25
-0.10570238356386472 0.15578145876665433 -0.8020643186996006 66 50 27
-0.10546293039315392 0.1556287798876633 -0.8044359034806821 70 56 34
-0.10742773277550069 0.15823209106195446 -0.8037082266613176 61 46 25
-0.10566767150904248 0.1561788059943781 -0.8082263921642654 59 45 24
-0.10734845835538877 0.1584265024584662 -0.8078909929645055 65 58 36
-0.10694549170945145 0.15807004692376886 -0.8105017062884942 75 69 42
-0.10663531782751977 0.15782988128891307 -0.8129857045517239 100 90 60
-0.10612931282097929 0.15734546900547866 -0.8157533959244238 72 58 31
-0.1049882713283272 0.15606853832787174 -0.81943436610744 70 56 32
-0.10644324182273811 0.15803325229366172 -0.8194075492184404 106 92 61
-0.10849825561654226 0.16074635742795196 -0.8185114525191572 119 103 65
-0.1097477345009207 0.16245336617630904 -0.8187627705107494 196 179 137
-0.11134693141490766 0.16459624498849834 -0.8185031779624343 165 149 112
-0.11127433378247897 0.16465309021078423 -0.8206526954261308 104 89 59
-0.11109779661251962 0.16458051924369976 -0.8229558434702499 64 50 24
-0.1110167996739052 0.16462734168198198 -0.8251238131590125 74 59 36
-0.11227089020663045 0.1663387534085739 -0.8253497421125296 85 71 43
-0.11268758127066425 0.16700598071814557 -0.8267921940992846 97 84 49
-0.11333177893346319 0.1679566742962968 -0.8279010849865099 121 105 64
-0.11349009334589777 0.16830186554443172 -0.8297208792470785 143 123 84
-0.11342642754501923 0.1683706492671977 -0.8318685320854793 137 118 78
-0.11339185004854094 0.16847586752787716 -0.8339761915668862 129 111 70
-0.1133572022099905 0.16858119270688118 -0.8360866528031035 136 118 76
-0.11352454843516986 0.1689381652978435 -0.8379005281783897 153 135 92
-0.11340526717677535 0.1689384944704475 -0.840141381623684 148 133 93
-0.11347490863667338 0.1691741462697135 -0.842104282825096 141 126 90
-0.1134724878161123 0.16932028905256452 -0.8441767000927693 114 99 67
-0.11347007818103491 0.16946662536332185 -0.846251591928212 98 84 56
-0.11367203582344308 0.16986728551790195 -0.8480225275197849 100 85 58
-0.11334073054184082 0.16960501118701868 -0.8505960454010852 94 79 43
-0.11371161508256199 0.17021594298265835 -0.8521164483069458 129 114 73
-0.1138570435524717 0.17054666814645003 -0.8539771808264656 125 111 77
-0.11383846567933648 0.17067371505766504 -0.8560876470584504 103 93 70
-0.11392912473606956 0.17093665359699264 -0.8580349827986561 55 48 34
-0.11351074910213124 0.170567499042463 -0.8607584460585537 69 66 55
-0.1130912179688739 0.17019730807882844 -0.8634891974299729 68 62 51
-0.11254597370826167 0.16967144525664868 -0.8664176193906268 89 81 71
-0.11387877467497348 0.1714771335230765 -0.8664755191140001 123 119 113
-0.11549920891041947 0.17363925204160496 -0.8660846276226489 154 152 147
-0.1163915875488245 0.1748974019871571 -0.86680510152602 169 168 167
-0.11813802697341162 0.17721468271957014 -0.8662039949839158 181 179 181
-0.11950637079436154 0.17906232251092685 -0.866177413093218 187 185 187
-0.11554182960251266 0.1742970690959783 -0.8744096372146128 190 188 189
0.010697950975874108 -0.04569854454636996 -0.15185096586854552 179 178 177
0.004048348762800323 -0.03662678257142875 -0.15333407758067458 178 176 171
0.001637590933447175 -0.03330767945147058 -0.15428608683693196 157 151 139
-0.00019199901064790442 -0.030761882793650847 -0.15537665764022973 141 131 114
-0.001521321919381216 -0.028881569124501183 -0.15658891780578665 167 153 128
-0.003885988598547961 -0.025625496503779897 -0.15752858502887984 174 157 119
-0.005017816734400139 -0.024008468478305442 -0.15878110794651404 153 134 94
-0.007518745812348543 -0.020572466202036115 -0.15966933294792757 110 92 57
-0.008168687754985068 -0.019596434601550763 -0.16103955885550394 107 90 61
-0.00937090339344629 -0.017886839080799015 -0.1622603427892188 105 88 59
-0.0095573525152216 -0.01752676507029107 -0.16375162751471406 104 88 58
-0.009787560150834068 -0.017108528865990902 -0.16523161235341874 91 77 45
-0.009739808225489907 -0.01705938115641245 -0.16678838171476582 95 77 46
-0.00945304999043621 -0.017327462434938525 -0.1684130325353876 131 114 78
-0.01008291445363603 -0.016378404906938565 -0.16978449579409416 103 87 58
-0.009924313274381098 -0.016476109589538976 -0.17137653210352166 73 57 36
-0.010577044835691211 -0.015496771815743937 -0.17274052894827416 70 55 30
-0.011183996881103317 -0.014578298132832991 -0.17411613286151315 118 104 77
-0.011401808463060506 -0.014176295515909855 -0.17560264835076841 125 111 78
-0.01173339162696517 -0.013623304876271392 -0.17705658967776655 101 84 53
-0.011978013130048856 -0.01318568314079778 -0.17853596755479878 84 64 38
-0.012296046734595986 -0.012650655701598013 -0.17999404375948658 75 59 33
-0.008420777935273412 -0.017677226090672654 -0.18269931980724857 86 70 43
-0.009230545387188975 -0.01648938874999018 -0.18401965565526254 97 81 54
-0.010012081952220038 -0.015339145715783618 -0.18534630989315126 135 121 88
-0.011374474193680248 -0.01341895265535438 -0.18649414408912574 175 165 130
-0.011532996913293195 -0.013095001597826582 -0.1880062965069932 97 84 58
-0.012021976598814432 -0.0123329832680628 -0.18941715275895138 80 65 42
-0.012706191593564863 -0.011312273247523603 -0.19076651410838094 83 70 51
-0.013308110818217839 -0.010400736381662994 -0.19214002511972691 71 55 35
-0.014786521886748477 -0.00832796712323007 -0.19323552200535463 82 63 38
-0.01652838409737479 -0.005906564038802638 -0.19424192710859248 110 90 57
