ply
format ascii 1.0
element vertex 677
property float x
property float y
property float z
property uchar diffuse_red
property uchar diffuse_green
property uchar diffuse_blue
end_header
-0.08951253060321082 0.13479653368289352 -0.7862637680612159 77 64 45
-0.08945804814635452 0.13508474203844717 -0.7881700488989364 56 44 26
-0.08920578848453023 0.13697495213671365 -0.7887525191584801 60 47 31
-0.08884046987538013 0.13978153972360682 -0.7885693897985933 57 42 26
-0.0885886283754484 0.1416692724224108 -0.7891411650184033 54 40 23
-0.08822033668692605 0.14450115709621936 -0.7889201126760149 64 52 34
-0.08804617727910212 0.1457601355522667 -0.79000482946189 67 56 38
-0.08810331337058003 0.14514417786200948 -0.7926589970816472 66 54 37
-0.08801479580215714 0.14570882032685542 -0.7943263617044886 79 64 46
-0.08785722780909008 0.14683340185800595 -0.7955222201492727 89 76 55
-0.08756825304826621 0.14902395638112667 -0.7958151686110757 92 79 58
-0.08743078287355101 0.14998595979309629 -0.7971423636749704 88 75 55
-0.08764828420584564 0.1480679963837335 -0.80091505045794 73 59 40
-0.08723831263767898 0.15124101954034888 -0.8003626539258809 85 69 49
-0.08711155782021235 0.15211623037653313 -0.8017615395352109 72 58 33
-0.08698618658905305 0.15298027631168254 -0.8031690602559297 83 69 43
-0.08691188159026386 0.15342979360961467 -0.8049315988429879 92 77 54
-0.08647481249320756 0.15682488714756096 -0.8041595643902785 57 46 29
-0.08646003148273448 0.1567913249616231 -0.8063343664767259 43 35 19
-0.08629741507938192 0.15795834823282096 -0.8074734505780665 55 44 29
-0.08622300658964004 0.15840893742741213 -0.8092318312123904 61 48 32
-0.0862005400279212 0.1584374152446836 -0.8113583530432886 82 70 43
-0.08583402542699248 0.16126161684031437 -0.8110496453126804 145 130 88
-0.08540436109761623 0.1645997930742247 -0.8102817621483833 175 159 116
-0.0851490344238647 0.16652161069116347 -0.8107433636849763 121 108 77
-0.08520699716824748 0.16589662676728908 -0.8134376301402882 89 74 52
-0.08518206008214257 0.1659453526019266 -0.8155441048240706 81 65 43
-0.08534255576390476 0.16448571677277488 -0.8189859568829202 80 61 37
-0.08529298856996423 0.1647341471325799 -0.820924606844988 79 58 34
-0.08522687083608085 0.16511709340169015 -0.8227457128144584 88 67 41
-0.08521359905875295 0.16506992879993104 -0.8249510505320619 92 72 46
-0.08505797991244812 0.16618102809378768 -0.8261257858220199 97 77 44
-0.08506270173637405 0.1659871185667892 -0.8284663389798932 120 100 60
-0.08517668778280782 0.16490338144360622 -0.8316092053054708 105 91 57
-0.08514562144520417 0.16500016350568678 -0.8336982521669114 74 64 33
-0.08503318494929718 0.16575942743568844 -0.8351925025835862 76 63 31
-0.0847797186566275 0.16766744547239987 -0.835647724958163 140 124 77
-0.08459863895586214 0.16898616955240878 -0.8366313720300278 141 125 84
-0.08447760409592883 0.16981586673089277 -0.8380564077219019 105 91 54
-0.0843538767958876 0.17066755947488443 -0.8394606521871832 128 114 73
-0.08422110228860813 0.17159305459590976 -0.8407966308597596 135 120 75
-0.08431349872490784 0.17068303249488978 -0.8438122171565209 142 126 80
-0.08428770167041007 0.17073616231534283 -0.8459509347355212 151 134 90
-0.0842149107680063 0.17117231017811188 -0.8477400013880111 132 115 72
-0.08423099453621483 0.17088350531757973 -0.8501990752785523 138 123 79
-0.08407615939449832 0.1719886520759481 -0.851373155796585 133 120 75
-0.08408985910403836 0.1717188883049934 -0.8538202750041749 135 122 82
-0.08398909113792317 0.17238289440504334 -0.8554036395459881 97 88 61
-0.0839798656190376 0.17229976157029644 -0.8576834285957037 58 57 44
-0.08411304400032282 0.1710539271148865 -0.8610532312556936 34 35 29
-0.08425268939791407 0.1697546436504502 -0.8644821320630933 49 48 39
-0.08469072973201186 0.16601805878746365 -0.8702093260124444 83 80 69
-0.08391626523454011 0.1721827246134544 -0.8666351955350591 126 123 116
-0.08441354126354894 0.1679609516347067 -0.8728386385867405 154 154 151
-0.0841803871461734 0.16970510035525355 -0.8734200301679683 171 171 170
-0.11114824627021105 -0.007807563058054273 -0.26164485853286323 179 178 182
-0.1122399263505749 -0.016642961568384712 -0.26716902749723526 164 159 155
-0.11118342260045254 -0.008449990473536256 -0.26676129476880794 137 126 115
-0.11080532160688225 -0.005595776944307268 -0.2676905339574206 136 125 107
-0.11039107722550774 -0.0024565247047875355 -0.26854019460334655 127 113 89
-0.10990634522239466 0.001238278848736618 -0.26923931698566617 117 101 75
-0.10938539934200459 0.0052189247485480705 -0.26985528570840017 108 94 69
-0.10894169262249301 0.008592010718245988 -0.27061959153602444 118 103 79
-0.10838509879716625 0.012854838616541436 -0.27114257034194905 141 123 95
-0.10809068642478938 0.015053206908197336 -0.27219876784038843 143 124 89
-0.10787711295625958 0.016615066368944026 -0.2734189607808874 146 125 91
-0.10768603911478405 0.01799985937175859 -0.27468354237198583 145 125 97
-0.10760936886186477 0.018483340424268954 -0.2761874134123535 78 65 46
-0.10752572832363096 0.019021721384754886 -0.27767690492885594 51 37 25
-0.10738309253891885 0.0200250588156647 -0.27904063924733047 41 26 18
-0.10728463627408223 0.02068023806341271 -0.28049810988911816 38 25 18
-0.1072637275744598 0.02072409231972558 -0.28212299693265636 39 27 18
-0.10713318544495246 0.021632189335394597 -0.28351150648561163 58 47 33
-0.10676865775485234 0.024385343268993956 -0.2843880227958498 77 62 46
-0.10660789520349323 0.02553208990656272 -0.28570555806074965 111 92 70
-0.10641039299670882 0.02696871331302715 -0.2869403287028338 161 135 106
-0.10622700975533791 0.028294152602579767 -0.2882039394681662 160 133 96
-0.10609090665046492 0.029246775656497956 -0.28957095111332604 158 135 90
-0.10579833105471365 0.03143395985517404 -0.2905856182356208 159 139 93
-0.10561965762410043 0.03272276588633556 -0.2918525601600126 156 136 95
-0.10535501946262625 0.03469009166674031 -0.2929223132253135 125 104 70
-0.10518684156722766 0.03589644288080253 -0.29420799516772467 132 112 79
-0.10499648271767865 0.037278001464214935 -0.2954409607282877 168 148 108
-0.10478436683270989 0.03883148052636784 -0.2966213664309234 170 149 104
-0.10460784153584604 0.04010419005437624 -0.29788138130649267 167 146 101
-0.10432366903629671 0.0422269980210509 -0.2988884122713929 160 142 104
-0.10419126757551188 0.043151672547498424 -0.30024640264398555 123 105 78
-0.10402266740128735 0.04436229610264075 -0.3015181491242883 119 98 67
-0.10401180023660231 0.04432721858641275 -0.3031615683265241 130 110 77
-0.10404854433311729 0.04391589854201533 -0.30492036751125123 115 98 61
-0.10381592444779043 0.04563236928182411 -0.3060378155214919 156 142 100
-0.10400077741337051 0.044050603766855725 -0.30815598169828684 123 108 81
-0.10392596743069928 0.04452018917336345 -0.3096532489739675 81 67 47
-0.10368847531625688 0.046275399113432855 -0.3107556184192423 88 73 55
-0.10348042293134814 0.04779818399741076 -0.31192630773876634 122 102 79
-0.10317003747170764 0.050130088001969705 -0.31284287977512926 178 159 126
-0.10303795883346323 0.05105276326356721 -0.31419403489778436 204 183 151
-0.10283352645162752 0.0525475745770812 -0.3153647571439453 120 97 68
-0.10252875390232705 0.05483601956028898 -0.3162825572616012 135 116 86
-0.10226441158987488 0.05680511446878528 -0.31729633012438524 116 102 80
-0.10223454678771816 0.05691998399989254 -0.31889619030248273 87 75 58
-0.1022982762679151 0.05629439420598391 -0.3207344779358156 98 86 66
-0.10229853967539658 0.056170602456376076 -0.32241530944300245 68 56 37
-0.10222064684152564 0.05666501061609382 -0.3238987434882134 68 56 40
-0.10212986900477374 0.05726134883992599 -0.3253494640609724 49 39 24
-0.10209110934826135 0.05744602106764042 -0.3269345036335293 40 29 14
-0.10205922620008148 0.0575761680099138 -0.32853875411899097 75 60 43
-0.10194641861289201 0.05834677194867206 -0.3299336291260882 147 128 103
-0.10191332108117145 0.0584863820666125 -0.3315367775953659 225 206 165
-0.10210371629053222 0.05685637943589275 -0.33372967067259274 230 211 168
-0.10176643321323717 0.05940422959137176 -0.33453424993477393 120 103 70
-0.1017178444909158 0.059666261972102216 -0.33609978968983745 68 53 31
-0.10169255520551812 0.05974367409124583 -0.3377286832301678 88 73 49
-0.10162499208057203 0.06015581971341012 -0.33924589125892274 75 60 35
-0.10147337972416542 0.061233766295382824 -0.34053716913196486 68 52 32
-0.10128197635306618 0.06262708802040098 -0.3417191631128786 72 56 34
-0.10118427997539672 0.06327805979455767 -0.34315366172229045 97 82 56
-0.1012079008853697 0.06296761031874022 -0.34491978020503544 119 104 75
-0.10106611584330016 0.06396792634399223 -0.3462344776087995 117 102 73
-0.10102817473559828 0.06414518424526532 -0.3478345580062074 110 95 70
-0.10103964824616264 0.06393059309995802 -0.34957310380314577 67 52 29
-0.10102627341006722 0.06391281982626244 -0.3512451285366879 55 39 19
-0.10093650168882509 0.06450069363227152 -0.35270537894115067 77 65 42
-0.10094089224791314 0.06434180246115973 -0.35443051828078853 91 79 51
-0.10109094246329038 0.06302742924062846 -0.3565697092062062 94 80 49
-0.10122111260416572 0.06187029396799701 -0.3586588189892494 96 82 51
-0.10135136042748275 0.06071211960447498 -0.3607539870530977 86 72 46
-0.10136005977488943 0.06051792636097687 -0.362506856968428 64 52 33
-0.10145947542718188 0.05960368022426335 -0.36452343436709594 44 34 24
-0.10153554748675386 0.05887432700978747 -0.36647760394708484 33 21 14
-0.10166142057211422 0.057749371147264694 -0.368580839577592 53 36 25
-0.10154815935854024 0.05852227381598939 -0.3699923683432626 66 50 33
-0.10141545884911551 0.059449542589001494 -0.37134644440778297 66 53 35
-0.10138518356603014 0.0595636252122564 -0.3730009529250018 66 52 37
-0.1013170198894813 0.05997845664389728 -0.3745451433506812 49 28 17
-0.10126642152910036 0.06025373520503792 -0.37614218542275646 61 36 20
-0.10126568801880124 0.06013285825089991 -0.37788911779413553 106 85 55
-0.1012389301369511 0.060218535484804256 -0.37956056477346173 135 117 87
-0.10124604461964397 0.06003497260513105 -0.38133573828188827 91 75 45
-0.10125298568592173 0.05985259198702855 -0.38311308880902073 90 72 44
-0.10124849773805104 0.05976083912945024 -0.3848584452532999 92 72 45
-0.10118852173790657 0.060109915397807134 -0.3864370138842703 96 77 50
-0.10127462364765101 0.05929779762892046 -0.38846387305800645 92 75 47
-0.10117082712460536 0.05999495576840218 -0.3899114653530086 90 75 46
-0.10116550568119427 0.05990919328695177 -0.3916630327551598 95 80 51
-0.10127358629655023 0.05892153013660888 -0.39376884797063594 88 73 44
-0.10119339608735782 0.05943070778555616 -0.39529344761598595 89 72 44
-0.10113213691248983 0.05978928775007976 -0.3968776926687271 79 62 34
-0.10112822861866377 0.05969160344579595 -0.3986431014076184 91 76 47
-0.1012643516304374 0.05847972351572703 -0.4008529730650727 89 74 46
-0.10088229256494562 0.06139028961797306 -0.40142647209587257 83 69 43
-0.10092367421802464 0.06093191061039953 -0.4033402351196332 81 67 43
-0.10098505808227658 0.060314077646773226 -0.4053216429091687 80 67 46
-0.10103971316961888 0.05974949407846604 -0.40728569506362533 68 53 35
-0.10108953375343512 0.05922309993361864 -0.40923823413553573 62 46 30
-0.1010358376087034 0.05952055536138065 -0.41085956197937595 54 38 23
-0.10099472589306749 0.0597177263589133 -0.41252294714381144 46 31 17
-0.10095983934089653 0.059865216521724274 -0.41420814387860505 37 25 14
-0.10097454461509844 0.05961762020344574 -0.416057595931444 36 27 16
-0.10097643066765033 0.05947191449887115 -0.41786786236699636 53 42 28
-0.10102487831331142 0.05895509021595206 -0.4198347393370838 68 53 37
-0.10096416553089534 0.059307695115935186 -0.4214431867705127 66 51 33
-0.1009941986029983 0.058937138440716616 -0.423355104628744 68 53 33
-0.10106621350597943 0.05823176437075593 -0.425411014094216 61 46 26
-0.10109796244410808 0.057846986976051326 -0.4273362190939776 50 36 22
-0.1011371912711435 0.05740232934595475 -0.42929019797863166 35 24 13
-0.101275690379906 0.056165987061446376 -0.431584315669407 27 20 13
-0.10134963244786464 0.05544390729204181 -0.43366527825744683 26 20 14
-0.10140805331425666 0.05484525617676368 -0.43569794024235425 28 22 16
-0.10126331650975919 0.055866540855300184 -0.4370380267756369 23 18 14
-0.10146887294789131 0.05409386834893244 -0.4395832405418928 25 21 18
-0.10137680857309443 0.054694807487276634 -0.4411076785445908 24 20 16
-0.10123314694222472 0.05570739748912969 -0.44245310731104315 22 17 14
-0.10137338420146338 0.054454751235613344 -0.44478689408841365 23 18 14
-0.10136002443698004 0.05442738567047292 -0.44658973147222075 25 20 17
-0.10127659016611279 0.054959141786650206 -0.44814867595627395 28 23 20
-0.10180438687420303 0.05061177971550543 -0.45186441115213677 31 26 23
-0.10166329758775336 0.0516031422278045 -0.45322849575043433 27 22 19
-0.10173669009812208 0.05088207704021808 -0.45535407238169534 27 24 19
-0.10180943696859321 0.050165818646668914 -0.457482160978151 29 26 21
-0.10182793221654342 0.04988249126869687 -0.4594206066334036 30 27 22
-0.1018144840573663 0.04985407377391596 -0.4612473946515676 36 32 27
-0.10155975182552063 0.051752987261089456 -0.46220492460868995 33 28 22
-0.10173318380442907 0.05023138193718388 -0.4647108411763911 27 22 18
-0.10136864456314135 0.05300792119094752 -0.4652657583907042 38 33 30
-0.10145389547829019 0.052190461540667865 -0.4674571354211156 40 35 31
-0.10131066367213909 0.053198804583979575 -0.4688153443418007 42 36 30
-0.10126147404811173 0.053455498492526565 -0.470518677980859 37 30 24
-0.10110840897557394 0.054542545250373387 -0.47183928746301274 69 61 54
-0.10095188182470981 0.05565738785941515 -0.4731454718921304 97 85 78
-0.10083444799639621 0.05645973118514103 -0.474595660779109 69 55 43
-0.10072308415500085 0.057213568328022796 -0.4760679976956238 67 55 44
-0.10051979415867698 0.05870273768187473 -0.4771947504646158 54 47 40
-0.10043352665706488 0.0592559583011765 -0.47875959539914476 37 33 28
-0.10022769792900847 0.06076575732516923 -0.4798723597556308 55 50 45
-0.09999784411661579 0.06246803039265601 -0.4808907532711189 90 82 73
-0.09982104073883918 0.06374601541207393 -0.4821076030241742 80 71 62
-0.09964767732006534 0.0649966325474873 -0.4833353292241208 77 68 59
-0.09954895105071082 0.06564992846876067 -0.4848475997803023 61 52 44
-0.09929088485621525 0.0675789313625239 -0.4857453766135672 35 27 22
-0.09923739923381113 0.06787014740843587 -0.48743038229873314 31 23 20
-0.09907490336130785 0.06903425640129764 -0.48869312245978924 34 26 22
-0.09894024774378281 0.0699755204807017 -0.4900625426548332 63 56 50
-0.09873354948700158 0.0714939538223572 -0.49114886229536897 95 90 86
-0.098891034586197 0.07009497777085512 -0.4936629198560488 82 76 71
-0.09864115962496717 0.07195944266791658 -0.49457789266834773 44 37 31
-0.0984677737644379 0.07321127939969956 -0.4957911763196669 53 45 39
-0.09832042603447227 0.07425459136052891 -0.49710568135194105 87 79 74
-0.0983069259376482 0.07422512566413156 -0.4989524797392244 34 30 25
-0.09822100809064356 0.07477603832520607 -0.5005118887718807 32 33 27
-0.09818970833391051 0.07488900695987886 -0.5022910543111944 36 33 30
-0.09814823566547626 0.07508340993783096 -0.5040311537322303 38 34 31
-0.0980576881773933 0.0756712725767167 -0.505574307796741 28 24 21
-0.09814303921937789 0.07484822703935597 -0.5078321169266226 25 21 18
-0.09804230063642341 0.07551762524517164 -0.5093367470562642 36 32 28
-0.09793517113350537 0.07623830592763829 -0.5108151360761239 26 22 19
-0.09784948643642366 0.07678692773501618 -0.5123813004031268 24 20 16
-0.0977157305362155 0.07772131318614993 -0.5137497080984911 17 15 13
-0.09181308666458624 0.12253527248053572 -0.5247221856102817 91 86 78
-0.09148204475443018 0.12506262289037196 -0.5251440283049666 103 97 88
-0.09094136438540856 0.1292777627552764 -0.5246278774777487 106 99 90
-0.0905774030982842 0.13207139009492536 -0.5248852467204339 87 79 69
-0.09027543726327884 0.13436651649097564 -0.5254114242137183 97 88 77
-0.09000538766540601 0.13640512656841325 -0.5260743341407352 98 88 74
-0.0897284398387007 0.13849968354093262 -0.5267007249049713 104 93 74
-0.08941731980873127 0.14086987721208882 -0.5271670683306507 88 73 50
-0.0889331236310069 0.14463471791930987 -0.5268421816869443 82 66 38
-0.08883639549558364 0.14527888508799508 -0.528267336504434 97 82 52
-0.08898255085184581 0.14396604682077463 -0.5308007944455404 95 78 47
-0.08886508068758947 0.14477710772439267 -0.5321345142103157 87 69 36
-0.08862434964815387 0.14658166766173952 -0.5329011031591235 79 59 30
-0.08872571419981864 0.1456289926722688 -0.5352403005613616 79 63 36
-0.08871995511508113 0.14553950215170824 -0.5370900153742892 77 61 34
-0.08873178573620123 0.14530798566230063 -0.5390241210282473 127 112 76
-0.08867728141133437 0.14561117037909405 -0.5406525637589267 146 130 86
-0.08850773836568557 0.14684209695981698 -0.5417446038799655 143 124 85
-0.08849031540260514 0.14684611909569711 -0.5435475514996898 134 114 79
-0.08853601052364181 0.14634075258970192 -0.5456498616853553 118 98 65
-0.08856800624843453 0.14594560533223622 -0.5476918970223326 131 112 75
-0.08860182750547156 0.14553543829308924 -0.5497465525717949 159 141 98
-0.08864393815700719 0.1450580739787843 -0.5518446444234445 158 141 99
-0.08864504972535953 0.14491135236582445 -0.5537515480218996 132 114 78
-0.08879568106184957 0.14355727745224026 -0.556376828517008 116 99 69
-0.08896043029346785 0.14208864191102882 -0.5590776755824011 123 108 80
-0.08915326868613416 0.14039256727741528 -0.5619220743984554 82 68 46
-0.0901048179181112 0.1325678073229215 -0.5684419900672084 39 27 16
-0.09496391391138505 0.0930288730569046 -0.5959616606505294 29 20 13
-0.10016507295999577 0.050701996503284774 -0.6254813212482296 37 27 20
-0.0999604388975675 0.05220281965841786 -0.6265905636855127 26 18 10
-0.10010274275962061 0.05089927549685391 -0.6294065489271016 25 18 12
-0.09995174730591176 0.05196649573662601 -0.6307800987506151 27 18 12
-0.09975822199083106 0.05337773364443038 -0.6319411057345362 31 21 15
-0.09965784614691661 0.05403584624181293 -0.6335628395403957 41 32 25
-0.09952428954492205 0.05496233701493858 -0.6350189734744555 49 39 33
-0.0992739361174755 0.056833757237881394 -0.635888965972655 54 47 38
-0.09907170987581615 0.05831613065912178 -0.636996067103158 57 50 42
-0.098869035775825 0.05980236253671736 -0.6380976749099952 52 45 38
-0.09873578478137372 0.060726967675682864 -0.6395472412268991 68 61 55
-0.09855261216325512 0.062055734916330874 -0.6407424433078703 69 65 55
-0.09824191958549208 0.06441705427188668 -0.641285700008357 69 65 55
-0.09810291284441916 0.06538874931143279 -0.642699150499445 59 55 50
-0.09792773406509428 0.06665345439696133 -0.6439260353036752 48 44 36
-0.09760138239294679 0.06914272174004432 -0.6443733113553022 45 41 32
-0.09735736979804659 0.0709655398024445 -0.645237886280249 50 46 36
-0.09674507678704622 0.07577237967511397 -0.6441921729364656 50 46 35
-0.09632632024327961 0.07901224476553664 -0.644134189892278 55 51 40
-0.09588052501172094 0.08247199478824807 -0.6439248873901902 60 56 45
-0.09529652712668071 0.08705274292026932 -0.6429821559193278 66 60 50
-0.09498274716143337 0.08944414071571405 -0.643439509209403 72 65 57
-0.09455208191449674 0.09278372109728536 -0.6432752473992093 69 62 53
-0.09414084051708851 0.09596659363751112 -0.6432024132874915 74 67 57
-0.09395787278319015 0.09729889588953544 -0.6443269604155131 73 67 56
-0.09333766076958938 0.10217802605283383 -0.6431279934036386 71 65 53
-0.09308309640420698 0.10409209146638185 -0.6438584470498154 73 67 55
-0.09282700441616307 0.10601892829113027 -0.6445755415191328 70 64 52
-0.09244496874429023 0.10896817590526889 -0.6446125520666438 70 64 52
-0.09186690490958616 0.11350911614923609 -0.6435863899050337 84 76 65
-0.09174546997235611 0.11434458027289998 -0.6450061408730186 79 69 57
-0.09148173567666981 0.11633537702967739 -0.6456554666694939 72 63 48
-0.09139217640700141 0.11691229930932448 -0.6472442396554112 76 67 52
-0.09098388484168154 0.12007765590606806 -0.647098558119525 79 67 53
-0.09066652127612651 0.12250522712964085 -0.6474387975270242 87 73 58
-0.09043102802767702 0.12426825895692992 -0.6482199718154684 102 89 72
-0.09035575832195401 0.12472984463316891 -0.6498767120443953 86 73 50
-0.0902553606289114 0.12539556411301642 -0.6513957644512902 131 113 80
-0.09008990216742836 0.1265900556491969 -0.6525550910872734 185 163 124
-0.08979037194521244 0.1288745190647737 -0.6529686676580115 181 161 125
-0.08949866798983955 0.13109585723531408 -0.6534188675980648 180 162 129
-0.08922784149223158 0.1331479227342437 -0.6539788975619627 143 127 93
-0.08884683631826994 0.13609642120157966 -0.6539163288276821 189 173 135
-0.08869074904910618 0.1372162553013075 -0.6551066850886597 168 149 111
-0.08854752512847655 0.1382315954100773 -0.6563674593174621 174 155 115
-0.08834359979161291 0.1397409176405748 -0.657283774808103 223 205 163
-0.0881418545919352 0.14123276666974718 -0.6582087546426311 193 177 134
-0.08794457036577108 0.1426885722677071 -0.6591554661221775 197 180 137
-0.0878821380857834 0.1430469629195336 -0.6608674573915103 200 183 145
-0.08766167687971359 0.14469178742594666 -0.6616770301046664 160 141 111
-0.08691430156818669 0.15062722541716259 -0.6594601288571602 79 61 37
-0.08682025001839243 0.15124391293176737 -0.6609791306056099 65 47 27
-0.08666896751799724 0.15232673135497565 -0.6621679682757535 77 60 41
-0.08702488564246795 0.149277969444829 -0.6662906459779994 86 69 49
-0.08690541343562264 0.1501012489162692 -0.6676692439213713 114 97 78
-0.08681830348993948 0.1506608761332606 -0.6692355084522964 73 57 36
-0.08671383878956732 0.15136191836361937 -0.670700754529562 107 89 67
-0.08664849588506675 0.151744088943586 -0.6723949375532907 73 56 30
-0.0865393840335408 0.15248300502871365 -0.6738330424285252 94 77 49
-0.08659890197609868 0.15184697984651904 -0.6762646255186053 98 80 50
-0.08643236873392657 0.15305401698206433 -0.6773654065314316 101 81 51
-0.08649188190442426 0.15241751576241377 -0.6798040702814765 101 81 49
-0.08650394149689006 0.15216772041088375 -0.6819660892825135 104 88 58
-0.08651602492551559 0.15191744816459551 -0.6841321491967838 105 87 56
-0.08650147006652648 0.15188426755596687 -0.6861427408272434 109 93 60
-0.08655312334633754 0.15131051199708745 -0.6885536079065643 125 109 75
-0.08655598697038754 0.15113463103316388 -0.6906761641894206 101 85 53
-0.08659232418691022 0.15068520579313371 -0.6930044016135049 89 73 46
-0.08677631992955136 0.14902973489356294 -0.6962314990913616 62 48 30
-0.08685779549746103 0.14821078441768343 -0.698846165520245 47 37 25
-0.0869930246485741 0.14695230276545612 -0.7017947140921377 42 34 23
-0.08695294673018877 0.14712535616855119 -0.7036807663558479 32 23 18
-0.08689515895561079 0.14744295799736964 -0.7054604217927215 16 12 9
-0.08692262397473768 0.14706376862946308 -0.7077654419081555 20 16 10
-0.08681952987589947 0.14775134651191657 -0.7092703621914694 47 39 29
-0.0866583163792112 0.14891404006745282 -0.7104158538099867 60 50 34
-0.0865303937103827 0.14980471527752723 -0.7117654564361132 70 54 36
-0.08631992932705501 0.1513704332012815 -0.7126007438989783 93 77 54
-0.08610526890562219 0.1529707653622482 -0.7134057694192826 106 91 65
-0.0859113127519197 0.15440204693923354 -0.7143360329082739 109 93 68
-0.08566843489908998 0.15623382286778575 -0.7149559050109509 121 105 80
-0.08537180404476401 0.15850582164572935 -0.7152322844666115 110 93 70
-0.0851196870855067 0.16041405241899054 -0.7157822246238746 99 83 56
-0.08487741536066162 0.1622421094551961 -0.7163887810798873 107 91 61
-0.08473900628092634 0.16322027341636205 -0.7176491776263149 122 106 75
-0.08464321781510264 0.16384957241420933 -0.7191793528876336 112 97 71
-0.08478763565533617 0.16251175430923165 -0.7222429915345675 94 81 61
-0.08476354499078398 0.1625534718025951 -0.7242367901501525 106 90 66
-0.08498750792180222 0.16056294721774578 -0.727826039086257 116 102 73
-0.08509780589990577 0.1595028452199704 -0.7306953413114169 90 74 47
-0.08525611313281857 0.15804876036238497 -0.7338824732571468 115 96 60
-0.0854931188587186 0.1559489669692583 -0.7375889146963339 145 125 86
-0.08592121769043724 0.1522818035149034 -0.7425491716907253 92 74 44
-0.08626118670372847 0.14933576010721356 -0.7469550939459128 82 68 44
-0.08637747896775115 0.1482226890275311 -0.7499162288036277 75 63 43
-0.0868026526303169 0.14457575476353696 -0.7549092464634283 86 77 57
-0.0872879422893002 0.1404342663035725 -0.7603170658328168 81 72 53
-0.08764820471734941 0.1373169216438156 -0.7649231210965239 58 49 37
-0.08800566518513903 0.13422130502172933 -0.7695281031911059 42 34 27
-0.08803663930282579 0.1338038775087676 -0.7719866872846216 21 14 8
-0.08821531295291357 0.13217372367143065 -0.7754319830641422 18 11 8
-0.08824301980010274 0.13178218582335213 -0.777881676991426 20 14 10
-0.08789144067188648 0.1345046279689006 -0.7778009682228051 30 20 12
-0.08773287771697227 0.13564262664957022 -0.7790046413111906 41 31 16
-0.08762609233156518 0.13635549061840568 -0.7805542326966923 52 40 23
-0.0875193154735869 0.13706829830041123 -0.782103691510607 62 49 33
-0.08743008941203337 0.13763691194664018 -0.7837716214329598 70 57 41
-0.0873717002140746 0.13795207358335154 -0.7856491160284288 53 40 24
-0.08739557087032039 0.13759098896060093 -0.788087606051427 57 44 28
-0.08717849035532987 0.13921035940051216 -0.7888879572061203 60 44 29
-0.08686137734827666 0.14165253672676192 -0.7889998347317204 51 36 22
-0.08652459782885918 0.1442570463292311 -0.7889685243426414 50 38 23
-0.08635587906246142 0.1454799192342051 -0.7900838201661357 54 41 26
-0.0863816810011423 0.14510277844905534 -0.7925379573381169 53 40 24
-0.08629799692391237 0.1456261079217167 -0.7942398768621408 69 56 35
-0.08616751079439065 0.14653453081209786 -0.795617914351373 84 72 47
-0.08590063127161492 0.14856563775322504 -0.796046258499631 92 80 53
-0.08561262956655025 0.15077109148016019 -0.7963208294278329 99 88 62
-0.08586526608824961 0.14852575432131232 -0.8003691774497338 108 95 76
-0.08546262319704415 0.15167555589959902 -0.799835698091968 82 69 52
-0.08530316081651712 0.15282330732212088 -0.8010006758083805 69 58 35
-0.08487965238114893 0.15614636322453224 -0.8003011294426438 91 80 57
-0.08492084392505447 0.15564160584526962 -0.8028754182918298 49 37 22
-0.08490281212705783 0.15562447666479762 -0.8050353002281851 36 24 13
-0.0847719069341277 0.15653741383928635 -0.8063957192817974 54 42 27
-0.08464849150169788 0.15738869503384725 -0.8078083731545311 66 54 40
-0.08440703890074987 0.15921324385691502 -0.8083759857168494 91 78 59
-0.08443090542309074 0.15885028795903747 -0.8108407493997449 126 112 72
-0.08404832125113976 0.16183928511218254 -0.8103875302499188 163 147 102
-0.08371156760217667 0.16445103022249355 -0.8102535750866587 133 117 84
-0.08357602262287697 0.1654033528433442 -0.8115652000302943 88 75 49
-0.08375662205857412 0.16374691561457377 -0.8151679148323105 76 59 38
-0.08377575953910188 0.1634222989149522 -0.8176078484212257 79 60 37
-0.08370079694840483 0.16387413159280692 -0.8193664681507333 84 63 39
-0.08359829269695515 0.16455328584990175 -0.820924757620238 85 65 39
-0.08351523230117441 0.16507187827865752 -0.8226255445515971 90 68 44
-0.08343563074105684 0.16556185036616902 -0.8243524843999865 90 70 47
-0.08336635154673047 0.16596648797744717 -0.8261563892146756 98 79 50
-0.0834689779815189 0.16495068857844492 -0.8292324081518492 117 100 64
-0.08352340050944909 0.16433263816374127 -0.8319593696654984 84 71 43
-0.08332310462883684 0.16581945093273448 -0.8327992784328672 63 52 26
-0.08316135594081679 0.16698789523667426 -0.8339224695240545 84 68 35
-0.08292246420903927 0.1687943563300741 -0.8344666179920666 147 126 79
-0.08291773873645414 0.16866473384697273 -0.83676009587242 143 123 84
-0.08276321788064335 0.1697738150050776 -0.837931808880321 133 117 79
-0.08273272887421956 0.16985697640572417 -0.840035978209259 149 132 86
-0.08257830999258581 0.17096534686962134 -0.8412066248744975 150 132 86
-0.08266683974418428 0.1700633101676017 -0.8442158299328382 150 130 85
-0.0826073409655634 0.17038596497013203 -0.8461082391226279 155 134 89
-0.08251824916034241 0.17095348565920396 -0.8477769363185019 149 131 84
-0.0824606869100888 0.1712598992914891 -0.8496869870929029 143 127 81
-0.08239304927528127 0.17164962240540202 -0.8515216826872412 137 124 79
-0.08232537357265089 0.17203955919755637 -0.8533574891004739 133 120 80
-0.08227843295843745 0.17225761029853684 -0.8553543841794518 98 89 62
-0.08226384804189323 0.17220739065369253 -0.8576034036205306 62 60 46
-0.08236151142993874 0.17122662525334054 -0.8607251811436291 26 26 20
-0.08249618824692102 0.16993844236744288 -0.8641426676789086 44 41 33
-0.08296230890202022 0.16590162071479936 -0.8701502950348209 83 79 69
-0.10982403215575225 -0.010121422105124622 -0.26048361167606693 179 179 181
-0.1098450674297674 -0.01041941567308835 -0.26220844249369835 179 179 181
-0.11014844836329171 -0.01296536114581455 -0.2644982446104946 171 171 169
-0.1096639463781091 -0.0092390351678458 -0.2652194582202674 141 134 121
-0.10971889531189373 -0.009807522147594519 -0.2670183768677479 142 130 110
-0.108727507487827 -0.0020435521320516514 -0.266699914423531 141 129 104
-0.10888361826138333 -0.003417345695734611 -0.2686997898135366 131 116 89
-0.10831166772559768 0.0010078312774855075 -0.26921234695754037 124 108 81
-0.1079501261792412 0.0037576703193032135 -0.2701475337225279 135 115 85
-0.10721056936433097 0.009519833441510098 -0.2702917713364084 159 134 98
-0.10670172959973831 0.013444758996427664 -0.2709020199033746 174 153 107
-0.10635467333946065 0.016081154041705112 -0.2718419074904347 182 163 116
-0.10615853629578227 0.017515154656143048 -0.27309436375819013 148 131 95
-0.10596288815259598 0.018945450038215322 -0.27434538415302206 91 77 55
-0.10592696873294045 0.01910255102541286 -0.27593512701278144 47 33 20
-0.10579454977157186 0.020028944458971673 -0.27731898684322237 38 25 16
-0.1057844013190993 0.01998041648447639 -0.2789660759033372 35 22 14
-0.10564439250680649 0.02096736777182648 -0.28033307597573487 40 26 17
-0.10550404116577279 0.021957137831194906 -0.281698208885133 86 69 53
-0.105188905682119 0.024341234416314986 -0.282678179228852 142 125 101
-0.10493267959238498 0.02625578008621504 -0.2837828844470372 164 146 117
-0.104827488409237 0.026965553914179097 -0.28521916601895325 172 151 116
-0.10458862458714731 0.028742027289279465 -0.28635653852225484 193 170 131
-0.10456207726970818 0.028824335876232787 -0.2879672849255813 199 175 133
-0.10441689396932907 0.02985343150410788 -0.289311726363119 181 157 115
-0.10402141043654925 0.03288068497155984 -0.2900864445519198 152 131 87
-0.10398898586544947 0.03300999578492024 -0.29168273231877323 143 120 80
-0.10370321326013462 0.0351620647208464 -0.29269888432893687 148 123 91
-0.10349820000822953 0.03666959674023752 -0.29389668405113456 127 103 72
-0.1034122639103398 0.0372263339140239 -0.2953680577754716 152 129 94
-0.10323590915352471 0.038505272378080505 -0.296628658752785 167 145 101
-0.10304242772367003 0.039921186285706095 -0.29784702182933626 181 160 116
-0.1028048556841824 0.04168955140404301 -0.2989589174352853 161 142 108
-0.1025958279424183 0.04323011659371817 -0.30013487593009497 109 89 63
-0.10244432479296516 0.044311207890658 -0.30144502534361334 130 108 74
-0.1024411065991716 0.04420727274746508 -0.3031089538165301 131 111 77
-0.10246162571772122 0.04391342331471683 -0.30483230495216757 95 76 50
-0.10245407911398528 0.043843716807452845 -0.3064905747116092 135 119 85
-0.10242416852172447 0.04395264824423868 -0.30809658370666276 117 102 76
-0.10217161455746955 0.04584175999689653 -0.3091596122969259 89 74 53
-0.1021114659863595 0.04619247997970967 -0.31069167091934113 104 88 67
-0.10182084534115476 0.0483864909487801 -0.3116550161817051 129 111 84
-0.10157580511570963 0.05021628439744867 -0.31272658371844164 185 170 135
-0.1015028820977171 0.050669414675964156 -0.31422400470016515 164 144 111
-0.10137211491256506 0.051585323650053944 -0.31557679099611147 147 125 95
-0.10113459347974 0.05335556620423462 -0.3166593875826879 132 113 89
-0.10087779858373415 0.055280341419583365 -0.31768945388962544 93 77 61
-0.10069420355251762 0.05661954253693985 -0.31890181682994706 90 74 57
-0.10055269954636759 0.05762198146065893 -0.3202196253576934 94 79 56
-0.10058705028443456 0.057216611892309296 -0.3219886636046285 98 83 59
-0.1005819101137288 0.057127196037573644 -0.32365884028659153 92 79 58
-0.10052490483639268 0.05745294442700315 -0.32519648757807 67 58 40
-0.10046784879483246 0.057779027894839075 -0.32673492407505295 47 36 24
-0.10045587905380146 0.05774389636378213 -0.3283926039401938 48 34 22
-0.10038827848185763 0.058154264296030905 -0.329905659719508 92 74 53
-0.10034924139745205 0.05833572939741388 -0.3314950665480718 178 161 123
-0.10031918394577118 0.058445132126475646 -0.33310978037258204 237 219 181
-0.10018692405186298 0.059373464085304486 -0.33445263717666257 156 138 106
-0.10018539753694852 0.05925403937839473 -0.33614600617133733 65 48 26
-0.10005939172714669 0.06013226415464222 -0.33750542610549206 58 42 24
-0.09993354516760443 0.06100927838533149 -0.3388644251949743 61 46 28
-0.09984752417511987 0.061567034154585226 -0.3403312107858145 61 45 29
-0.09967954769535203 0.06278198378021731 -0.34157355307813614 69 53 37
-0.0995605378114363 0.06360436793953685 -0.3429487915305119 99 84 64
-0.09958780168270537 0.06325352663361962 -0.3447280843260356 120 106 80
-0.0994938503829535 0.06387484458136114 -0.346173542104943 117 101 76
-0.09941780011427462 0.06435254171010055 -0.34766897801246904 75 60 39
-0.09937318875295262 0.06457793333297705 -0.34925308681046424 69 53 37
-0.09937677410856705 0.06441643890975822 -0.35097435466627463 56 41 28
-0.09928716800130451 0.06500272013364983 -0.35243420060228126 60 48 31
-0.09926152146216707 0.06507557648947342 -0.35407615169856554 82 72 48
-0.09946224365463745 0.06333095162610185 -0.3563670482312284 94 81 53
-0.09960035852384533 0.06208841518882392 -0.3584858978780991 92 77 46
-0.0996584126216892 0.06148831487354427 -0.36037987404215405 114 100 72
-0.09976471152264262 0.06050043333817259 -0.36241771084270963 76 65 45
-0.09959003582275798 0.06176902604255456 -0.3636427042903763 47 37 25
-0.0998033717892661 0.05992074034334437 -0.36600053296209795 45 32 22
-0.09985077753238233 0.05940497226164196 -0.36787896226422445 54 38 27
-0.09999300161469653 0.058127004252193776 -0.37004104170862717 64 51 36
-0.09994089801338393 0.058410257341603225 -0.37163323056666636 37 23 12
-0.09987135933544132 0.05883355755398845 -0.3731746190209245 34 21 13
-0.09974467030620446 0.05971621235043423 -0.37454568808817273 40 24 13
-0.09968950098475673 0.06002394491764067 -0.3761308254121077 56 35 20
-0.09968773725557789 0.0599021810407179 -0.37787822823459183 88 68 43
-0.09965314103392835 0.06004425229264283 -0.37952857005687657 94 75 50
-0.09965176843676564 0.05991899021158387 -0.38128170804230643 84 67 39
-0.09967468363952924 0.059598168006182214 -0.3831116541317467 93 76 48
-0.0997124108857168 0.059157939653975075 -0.38499028275586905 96 79 51
-0.09967077331013183 0.05935599199332088 -0.3866275672445517 95 78 50
-0.09976307095015649 0.05847616800824282 -0.3886814337270178 96 80 51
-0.09974033012839086 0.05852177576059921 -0.3903822423484323 92 77 48
-0.09972079949295569 0.058541392610653095 -0.3920950488443416 97 82 53
-0.09969912464632272 0.05857811134531643 -0.3938031739470882 92 76 48
-0.09963142380942018 0.05898523614898844 -0.3953681344731948 103 86 58
-0.09957941291718551 0.05926596466906019 -0.3969835412853068 98 81 53
-0.09955338562450008 0.059337349619005705 -0.3986827852103948 84 69 40
-0.09967371848686554 0.058229758776089255 -0.4008515257458038 90 75 47
-0.09965894178131811 0.05821006702534598 -0.4025926584787058 94 78 52
-0.09969356274704536 0.057792234940093265 -0.4044951764734775 83 68 44
-0.09971249876368658 0.05750050716271561 -0.406350509792572 78 63 41
-0.09971809337885079 0.05731604766569298 -0.40816563505961456 69 54 34
-0.09964802298477776 0.0577412039413063 -0.40973660981413684 62 46 29
-0.09957953891160508 0.058153518560271705 -0.4113134900478792 55 39 24
-0.09957417604112094 0.05805690608731709 -0.41309886617817637 55 40 27
-0.09950822281118273 0.058448630397270676 -0.41468648979415135 33 25 15
-0.09955007653382877 0.057970943896660396 -0.41663273908610343 17 15 10
-0.0995113992743199 0.058142443173095235 -0.4183144183180992 18 10 6
-0.09947674374852092 0.05828137946787783 -0.4200111476128446 59 45 32
-0.0994698352396156 0.05819634395997207 -0.4218028291560545 81 65 47
-0.09947660203192984 0.058000780277167735 -0.4236431417458974 77 62 41
-0.09953984068938324 0.057349304474450816 -0.4256776788973695 70 54 34
-0.09951737517772892 0.05738915020093781 -0.4274250671259663 63 46 30
-0.09955595973339004 0.056936070751037196 -0.42938309666974506 55 40 28
-0.09962604564123925 0.056228400836931175 -0.4314529738264004 43 32 24
-0.09971264370653138 0.055387054618887585 -0.4335844033994587 30 22 16
-0.09962244199948762 0.05597292395072452 -0.43510950587937486 28 21 16
-0.09967175817776744 0.055432053856597635 -0.4371192903783633 27 22 18
-0.09998538715938955 0.05275602501459391 -0.44005479324076036 29 25 22
-0.09990753819948786 0.05324147062818191 -0.4416313640016953 31 26 22
-0.09978540656053617 0.054084639802726264 -0.4430528229825082 26 21 17
-0.09963013269915216 0.05519566093046911 -0.4443566063203419 27 22 18
-0.09960899066679853 0.055222845924714645 -0.44613402193701923 28 23 20
-0.09953618509801991 0.05566743091391868 -0.44772979521845385 31 26 23
-0.10020227700601626 0.05013905431795003 -0.4519654905808626 33 28 25
-0.09999437749724718 0.0516749018797002 -0.4530887182010708 34 29 26
-0.09998935247084959 0.051570600451566556 -0.45493922366480066 33 29 25
-0.10010057691079106 0.05052600033130342 -0.45721257931646897 39 36 31
-0.09998853289668684 0.05128672546045002 -0.4586816774593483 34 31 26
-0.10009511040491839 0.05027903420897317 -0.4609468771431324 33 29 24
-0.09998043084395072 0.05106090129995808 -0.4624086577483695 35 30 24
-0.0999057794989254 0.05151892482885065 -0.4640169437358594 32 27 23
-0.0998772367775221 0.051603765454976885 -0.4657958787720328 36 31 28
-0.09984343861662169 0.05173098590812869 -0.46755736669221515 43 38 33
-0.09985740545038038 0.051471420575449206 -0.4694981731151151 49 43 36
-0.0999637900358047 0.05046340889041065 -0.47178692145042483 43 36 28
-0.09975886960228103 0.051975548121480974 -0.47291597895627463 61 54 46
-0.09959149799357772 0.05318385540223733 -0.4741830809692443 93 85 77
-0.09904201070946456 0.05748713794132401 -0.4740063211719723 66 56 45
-0.09896049432435372 0.05800073584757831 -0.47558904780931155 47 38 32
-0.09882360777357146 0.05896287429197944 -0.4769617066614075 43 36 31
-0.09869527001229612 0.059855834068717945 -0.478365856874769 53 48 45
-0.09851904646473154 0.06113691486436906 -0.47958563105586705 67 61 57
-0.09828699245375773 0.0628706702518315 -0.4805883657678392 81 72 64
-0.09811579960350185 0.06411139259792503 -0.4818221456017015 72 63 53
-0.09795627706425619 0.0652576700845574 -0.48309899502751197 80 71 62
-0.09785331792002262 0.06594545889592056 -0.4845940759032367 64 55 46
-0.09765814017575032 0.06738109675833943 -0.4857288715372057 37 29 23
-0.0975510580426038 0.06810245559881642 -0.4872061097701441 30 22 19
-0.09738942922333739 0.06926630183337847 -0.48846844088556435 35 27 23
-0.09724199554701961 0.07031513265491902 -0.48978493529695777 77 70 64
-0.09708789720699984 0.07141815546382985 -0.49107352581046326 80 75 72
-0.09705483590175822 0.07153907769868494 -0.49284205265260655 60 53 50
-0.09682590249953514 0.07324960508465186 -0.49383017932710405 42 35 30
-0.0966902467819475 0.0742032605753721 -0.4951883266534785 65 59 54
-0.09662099834671277 0.07461787110342598 -0.4968125377132238 44 39 35
-0.09657362301160384 0.07485481264093156 -0.4985259239940754 61 57 53
-0.09648260934114533 0.07544602156037251 -0.5000639065223706 44 39 36
-0.09647781895544336 0.07533690394067914 -0.5019528903738629 34 30 27
-0.09639608930449736 0.07585256701181217 -0.5035304559275369 36 32 29
-0.09633048376718034 0.07623719482487315 -0.5051745791479508 27 23 20
-0.09631975620468106 0.0761758335824898 -0.5070454123471375 21 17 13
-0.09630902639963568 0.07611428791052231 -0.5089188490824218 31 28 23
-0.09625979735556123 0.07636545750713504 -0.5106353673074637 33 30 25
-0.0963525007089004 0.07546273349904101 -0.5129436466183028 26 23 18
-0.09627434572189579 0.0759486849371124 -0.5145444969366194 21 19 17
-0.09604194262501355 0.07768884870641442 -0.5154997440582016 11 10 8
-0.09601918352499317 0.07772437643372604 -0.5173323528680793 11 10 8
-0.09188770660628362 0.10912700400687207 -0.5282880525180889 92 87 83
-0.09108689665961879 0.11550667753040998 -0.5266358250229809 104 99 94
-0.09053794545452336 0.1198346726686624 -0.5260864933353854 97 92 87
-0.09012766187279496 0.12303305340866678 -0.5261444876992083 96 92 84
-0.08971253975654044 0.1262716598150696 -0.5261708475209266 108 103 95
-0.08929654837134648 0.1295181357691786 -0.5261832366291088 101 93 85
-0.08895495163417937 0.13215850001680385 -0.5265224583809813 98 89 79
-0.0886354385930619 0.1346192871945715 -0.5269542598747093 93 85 72
-0.08835732529968672 0.1367427946654273 -0.5275677550375404 101 91 74
-0.08806382564297137 0.1389923282783278 -0.5281050211767779 103 90 68
-0.08778913452573077 0.1410888241106244 -0.5287223380392079 97 82 54
-0.08755445439807961 0.14285911961074998 -0.5295182796307027 100 86 56
-0.08755435941499384 0.142714347113436 -0.5313943733858306 99 83 52
-0.08750866455041649 0.1429417304881911 -0.5330618554709874 93 75 42
-0.08701241474020174 0.14684894169506724 -0.5326333361631107 75 55 27
-0.08720549996246862 0.14512609640340066 -0.5354120789977178 84 68 39
-0.08702827857585858 0.1464279688508473 -0.5364642197330408 68 53 27
-0.08709297852788171 0.14575323997039452 -0.5386514792064611 110 95 65
-0.08706832451416528 0.1458083680730392 -0.5404221025365831 146 131 90
-0.08696331711059853 0.1465201165413813 -0.5418144282230207 133 116 74
-0.08695651829944093 0.14642903746164604 -0.5436729879037834 120 102 65
-0.08704680996077047 0.145543905809202 -0.5459971837124561 114 95 63
-0.08711536960241904 0.14483602992338868 -0.5482233324461089 124 105 70
-0.08715017873691448 0.1444037865668176 -0.550292714321192 152 135 95
-0.0872215948012847 0.14367177670254122 -0.5525425255254691 142 125 89
-0.08715574612306595 0.14406235266663503 -0.5541344316756487 101 84 57
-0.08735192811656867 0.14230878621181614 -0.5569975740817881 99 82 54
-0.08751544453850936 0.1408218181934331 -0.559711228209349 112 98 69
-0.08772657490989816 0.1389444790563402 -0.5626656285271916 89 76 55
-0.08859309378763992 0.13170115935010393 -0.5688392509043866 35 24 15
-0.093367445645066 0.09230240753465369 -0.5962723584684615 28 21 14
-0.09831661916148271 0.0514464231231751 -0.6248978928132435 29 20 13
-0.09821489999578334 0.052115368325481276 -0.6265111203472631 20 13 6
-0.09850613026897971 0.0495645136018697 -0.6300871594237609 23 16 11
-0.09832628634448197 0.050873197061269665 -0.6313154404525627 23 15 11
-0.09803894546286707 0.05306317146104245 -0.6320007262647169 19 11 6
-0.097883171706764 0.0541750616045934 -0.6333436190138343 36 29 21
-0.09773104695661071 0.055257167794281664 -0.634703246558308 52 44 36
-0.09754366631276183 0.05662850895548585 -0.6358822471493439 60 53 45
-0.09715034765753695 0.05968908918589566 -0.6360093963924331 58 51 44
-0.09703056323530804 0.060506644152414746 -0.6375248529486481 54 47 41
-0.09695595743190778 0.0609535886291005 -0.6392713960993724 57 51 44
-0.09682116883021823 0.06189428844667266 -0.6407093056243972 74 70 59
-0.09655202603549945 0.06393768509740175 -0.6414527947516651 69 65 55
-0.09639224986390683 0.06508382371962207 -0.6427569621888725 50 45 40
-0.09616708756530168 0.06676688916510898 -0.643719597312207 46 42 34
-0.0957345494655027 0.0701529675566486 -0.6435975072165504 48 44 35
-0.09547169417731005 0.07214647472430247 -0.6443513887933439 49 45 36
-0.09494511563999443 0.07630643353687772 -0.6437167589659583 54 50 39
-0.09449576163082567 0.07983313415311771 -0.6434741356552276 60 56 45
-0.09405481579289884 0.08329166397065108 -0.6432641623572677 57 53 42
-0.09369413654938927 0.08609151647012464 -0.6434677425427184 65 59 49
-0.09335171005328537 0.08874203964105537 -0.6437595003327529 70 63 55
-0.09289538999512773 0.09232938438740332 -0.6434361203462264 73 66 58
-0.09255604144582455 0.0949560247647328 -0.6437260061025439 77 70 60
-0.09204046512645579 0.0990323240076933 -0.6430626348531638 69 62 52
-0.09164374531255008 0.10213226898813293 -0.6430245798909128 70 64 52
-0.0912808075576115 0.10495513793803615 -0.643158727036014 77 71 59
-0.09086122930724204 0.10824465498388125 -0.6429772043527759 69 63 51
-0.09046769129480373 0.11132076881736189 -0.6429261586934681 64 57 45
-0.09042595055534654 0.11150268693495383 -0.6447818429669735 86 78 66
-0.09009907499924062 0.11403123782932265 -0.6450809994438745 72 63 50
-0.08985133177060117 0.11590899680280653 -0.6458062059292851 72 63 49
-0.08952280601421068 0.11845224547098224 -0.6460819555860547 67 58 43
-0.08922774063867053 0.12072058124936472 -0.6465343945813402 71 59 45
-0.08910927144881572 0.12153503328122839 -0.6479574810639624 80 67 51
-0.08888771647582569 0.1231986710262202 -0.6488075241432293 91 76 59
-0.08877331429794087 0.12397986274529241 -0.6502500941153379 103 86 59
-0.0886727458482423 0.12464710970396436 -0.6517693993521194 130 112 75
-0.088413427667455 0.12662264881863264 -0.6523989371696531 178 160 118
-0.08809172411246535 0.1291128372713305 -0.6526721430371233 165 148 108
-0.08781652275323037 0.13122027186053448 -0.6531997828212693 178 162 127
-0.08739558557188411 0.13452981614628987 -0.6528968254279445 144 126 94
-0.08722665266755272 0.13576205650297432 -0.6540125029171858 181 162 129
-0.08708057510266001 0.13680598047458742 -0.6552557705065397 180 158 123
-0.08696613017439025 0.1375890880769657 -0.6566779419835819 184 162 122
-0.08680281150887174 0.1387754845115799 -0.6578196162169043 178 159 120
-0.08660801700574305 0.14022180179763682 -0.6587781508175833 202 182 142
-0.08642447388994717 0.14157552293863432 -0.6597980836959291 196 175 134
-0.08632770926856964 0.1422131394787784 -0.6613165616165826 195 180 138
-0.0860892020915312 0.14402100864007072 -0.6620132564402974 173 154 117
-0.08523965636560223 0.15087496317680224 -0.6591513530777828 128 109 79
-0.08514233545400116 0.15151840331544614 -0.6606507376971731 83 63 38
-0.08505961295201206 0.15204125742087482 -0.662235518848091 61 44 20
-0.08499392319214083 0.15242335306542248 -0.6639207658554658 64 48 27
-0.08527788592924626 0.14991614569051748 -0.6676655298000292 89 74 55
-0.0852039933339627 0.15036537554869822 -0.6693108246673988 61 47 28
-0.0851553786385911 0.1506055966018241 -0.6711066679907324 79 62 40
-0.08503034238160914 0.15147748143959172 -0.672450244179915 83 66 38
-0.08497568121625595 0.15176753505638937 -0.6742121690041718 94 77 47
-0.08499861763779985 0.15141573169243627 -0.6764394157001844 99 81 51
-0.08513623168795283 0.15011503795631875 -0.6793584867541455 113 94 62
-0.0850496052883021 0.15066880062491655 -0.6809376880638266 124 105 69
-0.08493830694396162 0.151426675838352 -0.6823684794664178 96 80 49
-0.084864998554109 0.1518701966865474 -0.6840285806429894 106 89 56
-0.08485533754026152 0.15178683318096317 -0.6860757400497766 114 98 65
-0.08490532759810657 0.15120939883895146 -0.6884891180741636 117 100 70
-0.08491333049454254 0.1509791981069364 -0.6906515901426369 112 95 68
-0.08506865782999534 0.14952865160486883 -0.6937198833271883 90 74 50
-0.08507966196959772 0.14927278320840706 -0.69591121556658 71 58 39
-0.08513954681082883 0.14861166738369744 -0.6984075960328568 49 39 26
-0.08528646293544388 0.14722899297267522 -0.701447396335489 43 35 25
-0.08521261692032724 0.1476750862769049 -0.7031284421925267 31 22 17
-0.08517631401889955 0.14780993405461726 -0.7050436896916725 17 12 9
-0.08514653419486656 0.14789052825132148 -0.7070018856207135 22 17 11
