ply
format ascii 1.0
element vertex 855
property float x
property float y
property float z
property float nx
property float ny
property float nz
property uchar diffuse_red
property uchar diffuse_green
property uchar diffuse_blue
property uchar class
property uchar detection
end_header
-0.1668 0.0292 -0.4008 -0.598 0.695 0.401 68 46 30 0 0
-0.1777 0.0294 -0.4042 -0.651 0.307 0.694 86 69 45 0 0
-0.1787 0.0295 -0.4054 -0.798 0.191 0.572 69 52 25 0 0
-0.1832 0.0298 -0.4098 -0.789 0.418 0.450 128 106 75 0 0
-0.1844 0.0298 -0.4109 -0.684 0.265 0.680 101 85 57 0 0
-0.1927 0.0307 -0.4248 -0.900 0.156 0.407 140 123 99 0 0
-0.1957 0.0309 -0.4282 -0.720 -0.078 0.690 108 86 53 0 0
-0.1963 0.0310 -0.4296 -0.967 -0.012 0.253 170 153 125 0 0
-0.2055 0.0317 -0.4414 -0.801 0.125 0.586 83 70 49 0 0
-0.2063 0.0317 -0.4426 -0.801 0.125 0.586 75 62 44 0 0
-0.2078 0.0332 -0.4679 -0.909 0.256 0.327 58 42 31 0 0
-0.2080 0.0333 -0.4694 -0.979 0.062 0.192 80 64 50 0 0
-0.2123 0.0337 -0.4771 -0.882 -0.388 0.269 127 113 91 0 0
-0.2113 0.0351 -0.5010 -0.678 -0.605 0.417 44 37 28 0 0
-0.2149 0.0362 -0.5194 -0.983 0.085 0.163 48 41 30 0 0
-0.2153 0.0363 -0.5209 -0.957 -0.093 0.274 21 14 5 0 0
-0.2103 0.0375 -0.5427 -0.723 0.083 0.686 24 12 3 0 0
-0.2147 0.0383 -0.5558 -0.824 -0.004 0.566 77 61 39 0 0
-0.2112 0.0399 -0.5829 -0.981 0.063 0.184 116 100 74 0 0
-0.1630 0.0441 -0.6578 -0.174 0.563 0.808 48 44 38 0 0
-0.1680 0.0440 -0.6564 -0.054 0.336 0.940 50 44 37 0 0
-0.1745 0.0440 -0.6558 -0.727 0.448 0.520 69 60 50 0 0
-0.1758 0.0440 -0.6568 -0.627 0.555 0.547 102 93 77 0 0
-0.1833 0.0461 -0.6926 -0.842 -0.301 0.447 88 78 67 0 0
-0.1917 0.0479 -0.7222 -0.891 0.120 0.439 88 76 58 0 0
-0.1938 0.0491 -0.7428 -0.898 0.438 -0.048 74 66 46 0 0
-0.1907 0.0525 -0.8016 -0.895 0.445 -0.001 94 77 46 0 0
-0.1960 0.0546 -0.8379 -0.947 0.320 0.009 134 117 82 0 0
-0.1960 0.0547 -0.8402 -0.947 0.320 0.009 131 114 82 0 0
0.0005 0.0205 -0.2302 -0.823 -0.241 0.515 68 54 30 0 0
0.0007 0.0216 -0.2495 -0.870 0.470 0.148 55 42 26 0 0
0.0006 0.0217 -0.2511 -0.755 0.598 0.270 65 52 34 0 0
-0.0699 0.0227 -0.2659 -0.157 0.554 0.818 68 56 41 0 0
-0.0774 0.0226 -0.2655 -0.383 0.917 0.116 120 107 88 0 0
-0.1117 0.0238 -0.2839 -0.353 0.467 0.811 58 46 30 0 0
-0.1133 0.0238 -0.2850 -0.451 0.435 0.779 45 34 20 0 0
-0.1154 0.0239 -0.2859 -0.437 0.726 0.531 73 60 42 0 0
-0.1167 0.0240 -0.2871 -0.437 0.726 0.531 91 76 54 0 0
-0.1202 0.0241 -0.2891 -0.546 0.664 0.511 88 76 57 0 0
-0.1213 0.0242 -0.2903 -0.546 0.664 0.511 105 95 78 0 0
-0.1551 0.0294 -0.3783 -0.852 0.401 0.337 95 79 53 0 0
-0.1611 0.0307 -0.4015 -0.081 0.897 0.434 75 54 29 0 0
-0.1781 0.0308 -0.4024 -0.319 -0.221 0.922 85 67 45 0 0
-0.1771 0.0309 -0.4044 -0.681 0.399 0.614 85 66 42 0 0
-0.1810 0.0311 -0.4075 -0.711 0.076 0.699 159 140 108 0 0
-0.1821 0.0312 -0.4086 -0.711 0.076 0.699 118 100 71 0 0
-0.1833 0.0312 -0.4097 -0.774 -0.009 0.633 150 133 100 0 0
-0.1844 0.0313 -0.4108 -0.749 0.072 0.659 88 71 41 0 0
-0.2069 0.0335 -0.4470 -0.898 0.199 0.393 100 85 68 0 0
-0.2076 0.0347 -0.4679 -0.976 0.126 0.178 65 48 37 0 0
-0.2126 0.0352 -0.4769 -0.902 -0.172 0.395 138 122 95 0 0
-0.2152 0.0368 -0.5039 -0.875 -0.130 0.467 57 48 32 0 0
-0.2159 0.0369 -0.5052 -0.937 -0.114 0.330 67 58 40 0 0
-0.2163 0.0369 -0.5066 -0.968 -0.059 0.245 66 57 38 0 0
-0.2167 0.0370 -0.5081 -0.968 -0.059 0.245 63 55 36 0 0
-0.2153 0.0377 -0.5191 -0.977 -0.213 0.007 67 59 49 0 0
-0.2157 0.0379 -0.5222 -0.920 0.037 0.390 24 17 8 0 0
-0.2108 0.0414 -0.5831 -0.936 0.231 0.266 95 80 53 0 0
-0.1615 0.0457 -0.6588 -0.073 0.539 0.839 55 48 41 0 0
-0.1649 0.0457 -0.6584 -0.130 0.563 0.816 56 49 41 0 0
-0.1703 0.0457 -0.6585 -0.317 0.500 0.806 86 76 60 0 0
-0.1825 0.0478 -0.6931 -0.837 0.277 0.472 106 96 82 0 0
-0.1911 0.0494 -0.7205 -0.935 0.090 0.344 73 62 44 0 0
-0.1946 0.0501 -0.7319 -0.831 0.553 0.054 106 92 65 0 0
-0.1937 0.0505 -0.7387 -0.922 0.358 -0.148 84 75 52 0 0
-0.1933 0.0506 -0.7411 -0.922 0.358 -0.148 69 61 39 0 0
-0.1930 0.0507 -0.7433 -0.872 0.479 -0.101 60 52 31 0 0
-0.1906 0.0554 -0.8231 -0.955 0.162 0.248 102 88 52 0 0
0.0024 0.0224 -0.2354 -0.876 0.463 0.134 76 60 36 0 0
-0.1149 0.0255 -0.2875 -0.443 0.711 0.546 36 30 22 0 0
-0.1167 0.0255 -0.2885 -0.393 0.600 0.697 43 34 29 0 0
-0.1187 0.0256 -0.2894 -0.460 0.691 0.557 64 54 46 0 0
-0.1200 0.0257 -0.2906 -0.460 0.691 0.557 60 50 42 0 0
-0.1203 0.0257 -0.2920 -0.458 0.769 0.447 60 50 41 0 0
-0.1214 0.0258 -0.2932 -0.575 0.775 0.264 69 59 47 0 0
-0.1410 0.0266 -0.3070 -0.522 0.515 0.679 139 123 90 0 0
-0.1559 0.0279 -0.3281 -0.867 0.455 0.205 49 36 24 0 0
-0.1579 0.0280 -0.3304 -0.948 -0.159 0.276 41 30 18 0 0
-0.1596 0.0281 -0.3314 -0.896 0.148 0.419 42 31 19 0 0
-0.1522 0.0290 -0.3478 -0.699 0.714 -0.037 71 59 38 0 0
-0.1591 0.0320 -0.3974 -0.478 -0.793 -0.379 84 58 21 0 0
-0.1799 0.0323 -0.4031 -0.996 0.077 0.041 109 86 60 0 0
-0.1790 0.0324 -0.4051 -0.880 0.168 0.443 94 68 45 0 0
-0.1927 0.0338 -0.4278 -0.896 0.268 0.354 130 115 82 0 0
-0.2040 0.0346 -0.4419 -0.821 0.348 0.453 88 73 50 0 0
-0.2077 0.0351 -0.4498 -0.918 0.186 0.349 62 48 36 0 0
-0.2071 0.0363 -0.4697 -0.900 -0.172 0.401 87 70 54 0 0
-0.2128 0.0367 -0.4767 -0.902 -0.172 0.395 126 112 88 0 0
-0.2153 0.0383 -0.5037 -0.875 -0.130 0.467 115 103 79 0 0
-0.2162 0.0416 -0.5600 -0.988 -0.122 -0.097 133 115 86 0 0
-0.1621 0.0475 -0.6602 -0.136 0.799 0.586 64 57 47 0 0
-0.1702 0.0476 -0.6624 -0.442 0.831 0.338 97 85 66 0 0
-0.1719 0.0477 -0.6632 -0.659 0.660 0.362 96 84 66 0 0
-0.1810 0.0491 -0.6881 -0.765 0.616 0.186 77 67 52 0 0
-0.1819 0.0492 -0.6894 -0.774 0.585 0.243 56 47 36 0 0
-0.1823 0.0493 -0.6911 -0.774 0.585 0.243 70 62 50 0 0
-0.1822 0.0494 -0.6931 -0.595 0.329 0.733 95 88 70 0 0
-0.1842 0.0496 -0.6957 -0.433 0.610 0.664 72 64 53 0 0
-0.1845 0.0497 -0.6974 -0.701 0.623 0.348 58 49 40 0 0
-0.1909 0.0512 -0.7225 -0.873 0.045 0.486 65 52 35 0 0
-0.1920 0.0522 -0.7399 -0.968 -0.127 -0.218 88 76 52 0 0
-0.1915 0.0523 -0.7423 -0.959 0.036 -0.282 78 68 45 0 0
-0.1917 0.0524 -0.7442 -0.976 0.120 -0.180 86 75 55 0 0
-0.1908 0.0526 -0.7470 -0.899 0.438 -0.000 79 69 50 0 0
-0.1904 0.0570 -0.8209 -0.968 -0.023 0.250 92 81 43 0 0
0.0039 0.0237 -0.2308 -0.908 0.344 0.241 95 77 52 0 0
-0.1193 0.0273 -0.2938 -0.475 0.820 0.320 41 36 30 0 0
-0.1239 0.0276 -0.2985 -0.341 0.794 0.503 123 113 98 0 0
-0.1509 0.0305 -0.3482 -0.882 0.456 -0.116 75 65 45 0 0
-0.1524 0.0319 -0.3712 -0.731 0.180 0.658 34 24 12 0 0
-0.1732 0.0337 -0.4010 -0.179 0.463 0.868 100 77 40 0 0
-0.1795 0.0338 -0.4032 -0.991 0.129 0.015 128 103 67 0 0
-0.1819 0.0342 -0.4101 -0.769 0.257 0.585 115 102 64 0 0
-0.1835 0.0344 -0.4142 -0.890 0.456 0.030 125 104 69 0 0
-0.2090 0.0372 -0.4605 -0.970 0.244 0.011 72 52 31 0 0
-0.2090 0.0373 -0.4621 -0.983 0.178 0.048 103 88 68 0 0
-0.2072 0.0377 -0.4696 -0.861 -0.041 0.506 49 32 19 0 0
-0.2078 0.0379 -0.4726 -0.843 0.196 0.500 112 95 75 0 0
-0.2127 0.0381 -0.4767 -0.881 0.328 0.342 99 87 69 0 0
-0.2149 0.0396 -0.5022 -0.960 -0.039 0.279 111 98 73 0 0
-0.2150 0.0397 -0.5037 -0.913 -0.074 0.402 108 95 68 0 0
-0.2169 0.0403 -0.5129 -0.994 0.095 -0.053 116 103 76 0 0
-0.2148 0.0409 -0.5225 -0.910 0.359 0.208 61 51 35 0 0
-0.2099 0.0445 -0.5834 -0.949 0.269 0.162 105 91 66 0 0
-0.1781 0.0515 -0.7001 -0.661 0.745 -0.087 55 46 35 0 0
-0.1922 0.0533 -0.7315 -0.865 0.364 0.344 111 97 68 0 0
-0.1918 0.0537 -0.7380 -0.938 0.324 -0.124 89 77 53 0 0
-0.1923 0.0538 -0.7396 -0.968 -0.127 -0.218 91 80 54 0 0
-0.1907 0.0541 -0.7449 -0.970 0.102 -0.221 87 74 53 0 0
-0.1901 0.0543 -0.7474 -0.970 0.102 -0.221 82 69 51 0 0
-0.1915 0.0587 -0.8220 -0.864 0.165 0.476 102 87 51 0 0
-0.1924 0.0588 -0.8234 -0.886 0.095 0.454 118 101 63 0 0
-0.1913 0.0602 -0.8462 -0.904 0.425 0.037 87 77 48 0 0
-0.1960 0.0608 -0.8572 -0.788 0.485 0.379 58 53 36 0 0
0.0044 0.0253 -0.2308 -0.947 0.271 0.173 85 67 41 0 0
0.0057 0.0270 -0.2585 -0.811 0.398 0.430 63 52 34 0 0
0.0053 0.0271 -0.2601 -0.996 0.063 0.068 63 52 35 0 0
-0.0791 0.0278 -0.2757 -0.883 0.466 0.053 83 75 56 0 0
-0.0814 0.0281 -0.2797 -0.543 0.461 0.702 54 45 31 0 0
-0.0830 0.0281 -0.2809 -0.413 0.316 0.854 61 52 39 0 0
-0.1266 0.0293 -0.3022 -0.313 0.819 0.481 91 80 58 0 0
-0.1504 0.0319 -0.3468 -0.880 0.468 -0.088 104 92 70 0 0
-0.1501 0.0320 -0.3484 -0.882 0.456 -0.116 71 59 41 0 0
-0.1658 0.0344 -0.3881 -0.975 0.068 -0.211 87 65 31 0 0
-0.1823 0.0359 -0.4147 -0.803 0.517 0.296 164 139 95 0 0
-0.1945 0.0369 -0.4317 -0.896 0.120 0.428 116 99 66 0 0
-0.2003 0.0372 -0.4370 -0.818 0.076 0.570 108 90 68 0 0
-0.2086 0.0387 -0.4622 -0.948 0.259 0.186 99 83 63 0 0
-0.2091 0.0395 -0.4751 -0.842 0.166 0.513 73 57 38 0 0
-0.2125 0.0396 -0.4766 -0.968 0.095 0.231 97 82 66 0 0
-0.2149 0.0411 -0.5020 -0.960 -0.039 0.279 91 77 54 0 0
-0.2152 0.0412 -0.5036 -0.931 0.054 0.361 95 81 57 0 0
-0.2141 0.0424 -0.5228 -0.924 0.383 -0.003 52 42 30 0 0
-0.2139 0.0434 -0.5402 -0.883 -0.096 0.460 145 130 107 0 0
-0.2159 0.0440 -0.5495 -0.944 0.116 0.310 102 83 55 0 0
-0.1710 0.0515 -0.6734 -0.491 0.802 0.340 73 63 45 0 0
-0.1920 0.0550 -0.7316 -0.911 0.083 0.404 138 121 92 0 0
-0.1712 0.0587 -0.7920 -0.949 0.048 0.311 144 123 88 0 0
-0.1785 0.0592 -0.8009 -0.787 -0.235 0.570 55 34 10 0 0
-0.1849 0.0596 -0.8083 -0.925 0.280 0.256 81 67 38 0 0
-0.1911 0.0603 -0.8201 -0.938 -0.036 0.346 96 84 46 0 0
-0.1915 0.0604 -0.8219 -0.879 0.048 0.475 116 102 62 0 0
-0.1922 0.0605 -0.8234 -0.931 0.100 0.350 129 112 71 0 0
-0.1951 0.0626 -0.8580 -0.932 0.333 0.145 59 55 37 0 0
-0.1955 0.0627 -0.8598 -0.768 0.420 0.483 77 71 56 0 0
0.0056 0.0274 -0.2390 -0.891 -0.002 0.455 78 62 39 0 0
0.0056 0.0275 -0.2406 -0.989 0.015 0.150 77 62 39 0 0
0.0066 0.0287 -0.2603 -0.921 0.225 0.319 50 38 25 0 0
-0.0749 0.0294 -0.2767 -0.483 -0.839 0.249 83 76 58 0 0
-0.1507 0.0334 -0.3466 -0.853 0.449 -0.267 103 92 69 0 0
-0.1507 0.0335 -0.3481 -0.787 0.578 -0.214 69 56 38 0 0
-0.1456 0.0342 -0.3594 -0.959 -0.064 0.276 37 28 19 0 0
-0.1517 0.0348 -0.3698 -0.739 0.217 0.638 65 54 38 0 0
-0.1654 0.0358 -0.3866 -0.961 0.207 0.182 78 58 27 0 0
-0.1862 0.0374 -0.4145 -0.555 0.516 0.653 126 103 69 0 0
-0.1939 0.0383 -0.4303 -0.830 0.109 0.547 100 81 52 0 0
-0.1954 0.0386 -0.4344 -0.832 -0.065 0.551 93 74 44 0 0
-0.2038 0.0392 -0.4449 -0.827 0.349 0.440 41 26 14 0 0
-0.2126 0.0412 -0.4781 -0.979 -0.025 0.203 60 45 32 0 0
-0.2144 0.0414 -0.4822 -0.933 -0.058 0.355 79 65 48 0 0
-0.2159 0.0415 -0.4847 -0.954 0.087 0.286 74 51 32 0 0
-0.2133 0.0439 -0.5233 -0.965 0.258 0.053 38 30 18 0 0
-0.2151 0.0453 -0.5464 -0.986 -0.160 -0.042 68 55 32 0 0
-0.2147 0.0464 -0.5641 -0.975 0.151 0.164 115 103 77 0 0
-0.1458 0.0523 -0.6572 -0.454 0.780 0.432 54 47 43 0 0
-0.1855 0.0557 -0.7163 -0.931 0.015 0.364 62 53 37 0 0
-0.1916 0.0566 -0.7318 -0.861 0.288 0.419 126 109 82 0 0
-0.1919 0.0567 -0.7335 -0.939 0.300 0.170 105 90 66 0 0
-0.1705 0.0591 -0.7712 -0.754 0.542 -0.372 68 57 39 0 0
-0.1759 0.0604 -0.7922 -0.981 0.003 -0.192 97 81 51 0 0
-0.1901 0.0621 -0.8209 -0.967 0.012 0.255 114 100 58 0 0
-0.1914 0.0621 -0.8219 -0.879 0.048 0.475 127 112 69 0 0
-0.1868 0.0649 -0.8676 -0.903 0.222 0.368 84 78 63 0 0
-0.1913 0.0652 -0.8725 -0.677 0.157 0.719 159 158 156 0 0
0.0061 0.0290 -0.2390 -0.880 -0.206 0.428 63 46 25 0 0
0.0060 0.0292 -0.2422 -0.985 0.146 0.094 64 48 25 0 0
0.0060 0.0293 -0.2438 -0.835 0.453 0.311 76 61 38 0 0
-0.1436 0.0331 -0.3181 -0.654 0.548 0.521 114 101 77 0 0
-0.1452 0.0333 -0.3206 -0.847 0.503 0.170 123 106 78 0 0
-0.1499 0.0349 -0.3468 -0.882 0.399 -0.251 94 84 60 0 0
-0.1492 0.0350 -0.3486 -0.877 0.387 -0.285 70 58 40 0 0
-0.1946 0.0400 -0.4331 -0.918 -0.217 0.332 90 71 44 0 0
-0.1975 0.0402 -0.4366 -0.865 -0.033 0.501 161 144 124 0 0
-0.2136 0.0426 -0.4776 -0.977 0.071 0.203 59 43 30 0 0
-0.2157 0.0430 -0.4847 -0.950 0.150 0.274 74 52 34 0 0
-0.2152 0.0441 -0.5017 -0.929 0.033 0.370 94 81 68 0 0
-0.2118 0.0450 -0.5171 -0.926 0.205 0.317 108 93 73 0 0
-0.2122 0.0451 -0.5186 -0.834 0.540 -0.114 101 88 70 0 0
-0.2145 0.0479 -0.5642 -0.889 0.456 -0.042 108 96 70 0 0
-0.2084 0.0489 -0.5805 -0.910 0.296 0.290 63 48 29 0 0
-0.1439 0.0540 -0.6583 -0.454 0.780 0.432 42 37 33 0 0
-0.1812 0.0570 -0.7093 -0.650 0.548 0.526 69 60 47 0 0
-0.1848 0.0574 -0.7167 -0.852 0.108 0.513 49 41 27 0 0
-0.1911 0.0638 -0.8220 -0.886 0.095 0.454 133 116 72 0 0
-0.1943 0.0660 -0.8584 -0.883 0.200 0.425 70 62 46 0 0
-0.1865 0.0667 -0.8678 -0.903 0.222 0.368 90 86 72 0 0
-0.1873 0.0667 -0.8693 -0.877 0.151 0.456 119 115 108 0 0
-0.1667 0.0391 -0.3923 -0.888 0.074 0.454 92 76 45 0 0
-0.1942 0.0414 -0.4332 -0.902 0.119 0.415 99 84 60 0 0
-0.1959 0.0415 -0.4340 -0.911 -0.001 0.413 156 142 115 0 0
-0.2009 0.0419 -0.4413 -0.852 0.056 0.521 64 50 31 0 0
-0.2031 0.0422 -0.4467 -0.857 0.169 0.487 54 43 29 0 0
-0.2133 0.0441 -0.4776 -0.938 0.149 0.312 79 64 49 0 0
-0.2114 0.0465 -0.5173 -0.970 -0.049 0.238 61 45 31 0 0
-0.2107 0.0467 -0.5194 -0.935 0.245 -0.257 89 75 59 0 0
-0.2131 0.0467 -0.5197 -0.902 0.388 -0.190 105 96 78 0 0
-0.2123 0.0468 -0.5219 -0.901 -0.342 0.266 81 73 53 0 0
-0.2101 0.0471 -0.5266 -0.982 0.114 -0.151 74 63 47 0 0
-0.2116 0.0489 -0.5553 -0.826 0.300 0.477 68 58 52 0 0
-0.2123 0.0490 -0.5566 -0.829 0.006 0.559 71 62 50 0 0
-0.2079 0.0505 -0.5807 -0.966 0.208 0.155 111 96 72 0 0
-0.1446 0.0559 -0.6617 -0.479 0.735 0.479 44 36 28 0 0
-0.1463 0.0559 -0.6625 -0.407 0.581 0.705 40 33 21 0 0
-0.1695 0.0586 -0.7079 -0.932 0.335 -0.139 66 58 48 0 0
-0.1747 0.0584 -0.7061 -0.503 0.089 0.860 64 55 45 0 0
-0.1833 0.0590 -0.7157 -0.825 0.066 0.561 48 40 30 0 0
-0.1842 0.0591 -0.7170 -0.825 0.066 0.561 47 40 28 0 0
-0.1834 0.0650 -0.8134 -0.616 0.310 0.724 135 115 76 0 0
-0.1849 0.0652 -0.8165 -0.787 0.088 0.610 204 184 144 0 0
-0.1861 0.0653 -0.8175 -0.921 0.102 0.377 162 143 109 0 0
-0.1911 0.0655 -0.8218 -0.837 0.207 0.507 134 115 72 0 0
-0.1931 0.0677 -0.8571 -0.771 0.120 0.625 57 52 33 0 0
-0.1861 0.0684 -0.8680 -0.903 0.222 0.368 99 95 84 0 0
0.0368 0.0308 -0.2128 -0.202 0.250 0.947 174 176 174 0 0
0.0083 0.0320 -0.2345 -0.962 0.244 0.124 62 45 28 0 0
-0.1448 0.0363 -0.3221 -0.680 0.621 0.389 28 17 10 0 0
-0.1670 0.0406 -0.3937 -0.777 0.387 0.496 87 70 43 0 0
-0.2160 0.0466 -0.4944 -0.936 -0.108 0.334 136 118 90 0 0
-0.2101 0.0482 -0.5196 -0.784 0.619 0.052 85 70 54 0 0
-0.1432 0.0575 -0.6605 -0.683 0.125 0.719 60 52 42 0 0
-0.1456 0.0575 -0.6609 -0.614 -0.370 0.697 60 51 39 0 0
-0.1600 0.0582 -0.6747 -0.719 0.598 0.354 33 24 14 0 0
-0.1786 0.0603 -0.7091 -0.935 -0.100 0.341 69 60 49 0 0
-0.1793 0.0603 -0.7106 -0.932 -0.018 0.363 36 27 18 0 0
-0.1808 0.0604 -0.7114 -0.687 0.270 0.675 33 25 18 0 0
-0.1887 0.0618 -0.7357 -0.866 0.480 0.137 91 78 59 0 0
-0.1836 0.0667 -0.8132 -0.865 0.101 0.492 144 129 88 0 0
-0.1843 0.0668 -0.8147 -0.903 0.076 0.423 168 148 108 0 0
-0.1860 0.0670 -0.8175 -0.935 -0.102 0.341 126 111 79 0 0
-0.1908 0.0672 -0.8220 -0.746 0.204 0.634 135 119 76 0 0
-0.1856 0.0702 -0.8684 -0.946 0.159 0.281 108 103 94 0 0
-0.3033 0.0686 -0.8571 -0.629 0.419 0.655 205 204 202 0 0
-0.3065 0.0687 -0.8601 -0.794 0.600 0.099 207 206 204 0 0
-0.1447 0.0386 -0.3344 -0.496 0.864 0.089 89 78 62 0 0
-0.1457 0.0388 -0.3387 -0.366 0.899 0.240 103 94 76 0 0
-0.1490 0.0407 -0.3689 -0.922 0.285 0.264 127 108 80 0 0
-0.1676 0.0422 -0.3949 -0.983 0.060 0.176 100 85 55 0 0
-0.1781 0.0429 -0.4080 -0.522 0.113 0.846 122 105 73 0 0
-0.2056 0.0462 -0.4633 -0.787 0.246 0.565 83 70 54 0 0
-0.2045 0.0467 -0.4721 -0.880 -0.134 0.456 132 118 87 0 0
-0.2153 0.0474 -0.4847 -0.812 0.428 0.397 94 76 51 0 0
-0.2158 0.0478 -0.4910 -0.864 0.334 0.377 89 63 33 0 0
-0.2163 0.0479 -0.4924 -0.902 0.202 0.381 93 72 41 0 0
-0.2168 0.0480 -0.4938 -0.902 0.202 0.381 119 101 73 0 0
-0.2100 0.0494 -0.5145 -0.943 0.329 -0.042 68 59 44 0 0
-0.2109 0.0510 -0.5415 -0.712 0.438 0.549 87 76 60 0 0
-0.1580 0.0599 -0.6740 -0.842 0.477 0.253 54 44 34 0 0
-0.1593 0.0599 -0.6751 -0.841 0.286 0.458 45 36 25 0 0
-0.1603 0.0600 -0.6764 -0.787 0.078 0.612 57 47 38 0 0
-0.1653 0.0619 -0.7068 -0.908 0.378 0.183 50 45 39 0 0
-0.1664 0.0619 -0.7080 -0.729 0.506 0.462 45 40 33 0 0
-0.1805 0.0620 -0.7115 -0.881 -0.010 0.474 39 29 20 0 0
-0.1809 0.0621 -0.7133 -0.827 0.249 0.504 48 37 28 0 0
-0.1817 0.0622 -0.7147 -0.867 0.086 0.491 50 40 31 0 0
-0.1856 0.0687 -0.8177 -0.971 -0.124 0.202 102 88 55 0 0
-0.3026 0.0703 -0.8598 -0.608 0.574 0.549 205 204 202 0 0
0.0248 0.0340 -0.2136 -0.568 -0.462 0.681 176 175 172 0 0
0.0112 0.0351 -0.2318 -0.837 0.495 0.233 76 61 37 0 0
-0.1436 0.0402 -0.3363 -0.635 0.770 -0.059 51 43 36 0 0
-0.1434 0.0403 -0.3379 -0.563 0.826 0.010 63 54 46 0 0
-0.1434 0.0404 -0.3394 -0.512 0.823 0.246 56 47 40 0 0
-0.1437 0.0405 -0.3409 -0.392 0.844 0.366 54 45 38 0 0
-0.1435 0.0406 -0.3425 -0.393 0.903 0.174 47 39 30 0 0
-0.1406 0.0414 -0.3545 -0.612 0.785 0.099 41 32 24 0 0
-0.1412 0.0414 -0.3559 -0.902 0.231 -0.365 51 40 33 0 0
-0.1393 0.0419 -0.3629 -0.911 0.357 0.206 72 57 37 0 0
-0.1499 0.0423 -0.3701 -0.854 0.098 0.512 133 115 84 0 0
-0.1558 0.0427 -0.3773 -0.874 0.395 0.284 141 121 89 0 0
-0.1758 0.0444 -0.4074 -0.678 0.291 0.675 116 96 64 0 0
-0.1775 0.0444 -0.4082 -0.483 0.454 0.749 124 106 73 0 0
-0.1788 0.0447 -0.4125 -0.670 0.569 0.477 134 115 83 0 0
-0.1815 0.0448 -0.4145 -0.838 0.027 0.545 126 108 79 0 0
-0.2160 0.0494 -0.4925 -0.887 0.183 0.423 97 78 52 0 0
-0.2090 0.0528 -0.5443 -0.709 0.594 0.381 103 90 71 0 0
-0.1528 0.0612 -0.6676 -0.795 0.085 0.600 51 40 29 0 0
-0.1600 0.0618 -0.6785 -0.784 0.108 0.611 57 49 35 0 0
-0.1621 0.0629 -0.6969 -0.978 0.172 0.118 25 21 20 0 0
-0.1649 0.0636 -0.7069 -0.860 0.379 0.341 60 55 50 0 0
-0.1812 0.0639 -0.7149 -0.953 -0.166 0.255 65 53 43 0 0
-0.1742 0.0692 -0.7973 -0.902 0.088 0.424 74 61 40 0 0
-0.1780 0.0698 -0.8069 -0.895 0.196 0.400 60 45 28 0 0
-0.1857 0.0704 -0.8175 -0.927 -0.184 0.327 104 91 54 0 0
-0.1858 0.0722 -0.8458 -0.793 0.364 0.490 105 88 54 0 0
-0.1866 0.0723 -0.8472 -0.913 0.258 0.316 122 104 69 0 0
-0.1899 0.0727 -0.8553 -0.831 0.328 0.450 86 77 52 0 0
-0.3005 0.0719 -0.8598 -0.279 0.424 0.862 205 204 202 0 0
0.0161 0.0359 -0.2183 -0.888 0.206 0.412 83 70 45 0 0
0.0154 0.0360 -0.2197 -0.888 0.206 0.412 68 53 30 0 0
-0.1070 0.0397 -0.2999 -0.576 0.598 0.558 132 115 89 0 0
-0.1075 0.0398 -0.3013 -0.818 0.569 0.085 159 143 115 0 0
-0.1369 0.0433 -0.3605 -0.957 0.193 0.216 92 77 61 0 0
-0.1387 0.0434 -0.3630 -0.911 0.357 0.206 84 69 49 0 0
-0.1385 0.0435 -0.3647 -0.573 0.376 0.729 94 80 60 0 0
-0.1407 0.0437 -0.3671 -0.833 0.515 0.203 110 97 78 0 0
-0.2044 0.0489 -0.4604 -0.928 0.353 0.122 91 79 55 0 0
-0.2146 0.0508 -0.4915 -0.730 0.191 0.656 79 58 34 0 0
-0.2111 0.0519 -0.5086 -0.899 0.073 -0.432 87 80 68 0 0
-0.1503 0.0627 -0.6653 -0.726 -0.213 0.654 112 98 82 0 0
-0.1627 0.0650 -0.7024 -0.952 0.123 0.279 18 12 10 0 0
-0.1631 0.0651 -0.7041 -0.960 0.045 0.275 48 41 37 0 0
-0.1636 0.0652 -0.7057 -0.960 0.045 0.275 39 33 29 0 0
-0.1641 0.0653 -0.7074 -0.960 0.045 0.275 43 36 32 0 0
-0.1691 0.0652 -0.7077 -0.622 0.355 0.698 62 55 47 0 0
-0.1840 0.0660 -0.7228 -0.973 -0.052 0.223 81 66 51 0 0
-0.1843 0.0661 -0.7245 -0.983 -0.077 0.169 90 78 58 0 0
-0.1781 0.0715 -0.8067 -0.809 -0.057 0.585 80 65 46 0 0
-0.1867 0.0720 -0.8165 -0.822 -0.140 0.552 115 101 63 0 0
-0.1864 0.0722 -0.8189 -0.984 0.037 0.175 119 103 68 0 0
-0.1843 0.0730 -0.8316 -0.962 0.163 0.217 135 116 78 0 0
-0.1847 0.0731 -0.8334 -0.959 0.276 0.065 126 111 75 0 0
0.0188 0.0374 -0.2171 -0.667 0.302 0.681 148 141 127 0 0
0.0175 0.0375 -0.2185 -0.667 0.302 0.681 123 113 96 0 0
0.0156 0.0376 -0.2197 -0.996 -0.010 -0.091 77 64 45 0 0
-0.1056 0.0414 -0.3017 -0.735 0.676 0.058 117 105 82 0 0
-0.1329 0.0424 -0.3227 -1.000 -0.007 -0.003 40 32 20 0 0
-0.1335 0.0424 -0.3240 -0.881 0.184 0.436 35 27 16 0 0
-0.1360 0.0448 -0.3608 -0.776 0.501 0.383 74 61 44 0 0
-0.2025 0.0501 -0.4547 -0.856 0.437 0.276 91 78 62 0 0
-0.2035 0.0502 -0.4575 -0.904 0.384 0.188 142 129 108 0 0
-0.2117 0.0522 -0.4896 -0.880 -0.206 0.429 79 58 36 0 0
-0.2116 0.0532 -0.5048 -0.917 -0.010 0.398 50 44 29 0 0
-0.2017 0.0575 -0.5697 -0.887 0.245 0.391 47 34 22 0 0
-0.1502 0.0644 -0.6652 -0.791 -0.006 0.612 115 103 87 0 0
-0.1614 0.0656 -0.6872 -0.958 -0.163 0.235 32 29 24 0 0
-0.1599 0.0666 -0.7023 -0.876 0.286 0.388 16 12 11 0 0
-0.1603 0.0667 -0.7040 -0.637 0.075 0.768 24 18 16 0 0
-0.1628 0.0669 -0.7062 -0.877 -0.048 0.479 46 38 36 0 0
-0.1638 0.0669 -0.7075 -0.944 -0.086 0.320 34 27 24 0 0
-0.1644 0.0670 -0.7091 -0.944 -0.086 0.320 35 30 25 0 0
-0.1816 0.0672 -0.7144 -0.930 0.166 0.328 49 37 24 0 0
-0.1833 0.0674 -0.7191 -0.950 0.193 0.246 100 86 74 0 0
-0.1838 0.0675 -0.7208 -0.950 0.193 0.246 104 90 74 0 0
-0.1848 0.0679 -0.7260 -0.973 -0.052 0.223 122 102 72 0 0
-0.1853 0.0681 -0.7297 -0.974 0.173 0.145 112 96 72 0 0
-0.1849 0.0683 -0.7320 -0.987 0.080 0.137 95 82 60 0 0
-0.1854 0.0684 -0.7337 -0.980 -0.186 0.075 86 75 56 0 0
-0.1856 0.0685 -0.7356 -0.980 -0.186 0.075 84 71 54 0 0
-0.1763 0.0730 -0.8038 -0.965 0.128 0.230 50 38 24 0 0
-0.1872 0.0737 -0.8160 -0.720 -0.034 0.693 112 98 60 0 0
0.0243 0.0389 -0.2133 -0.481 -0.325 0.814 177 175 176 0 0
0.0207 0.0390 -0.2158 -0.578 0.060 0.814 175 173 174 0 0
0.0186 0.0390 -0.2170 -0.781 0.121 0.613 173 169 168 0 0
0.0175 0.0391 -0.2184 -0.781 0.121 0.613 163 158 152 0 0
0.0174 0.0392 -0.2200 -0.776 0.308 0.550 139 131 119 0 0
0.0155 0.0393 -0.2212 -0.993 -0.107 -0.056 106 94 76 0 0
0.0111 0.0404 -0.2396 -0.841 0.541 0.013 114 98 66 0 0
0.0154 0.0426 -0.2716 -0.881 0.136 0.453 88 76 56 0 0
0.0147 0.0427 -0.2731 -0.926 -0.022 0.376 88 74 55 0 0
0.0145 0.0428 -0.2747 -0.941 -0.079 0.328 64 54 36 0 0
0.0137 0.0429 -0.2762 -0.922 -0.033 0.387 48 40 26 0 0
-0.1038 0.0432 -0.3069 -0.738 0.665 -0.114 109 100 83 0 0
-0.1887 0.0502 -0.4319 -0.733 0.395 0.553 85 70 47 0 0
-0.2023 0.0515 -0.4547 -0.993 -0.009 0.122 72 60 46 0 0
-0.2023 0.0516 -0.4564 -0.856 0.437 0.276 67 55 39 0 0
-0.2019 0.0525 -0.4698 -0.741 0.393 0.544 80 70 44 0 0
-0.2122 0.0539 -0.4926 -0.792 0.590 -0.157 86 73 58 0 0
-0.2125 0.0541 -0.4958 -0.876 0.365 -0.314 101 89 74 0 0
-0.2118 0.0542 -0.4978 -0.880 0.458 -0.128 84 71 54 0 0
-0.2004 0.0590 -0.5686 -0.912 0.194 0.361 41 30 20 0 0
-0.2011 0.0591 -0.5700 -0.899 0.271 0.344 47 33 25 0 0
-0.1500 0.0660 -0.6652 -0.884 0.276 0.377 92 83 68 0 0
-0.1506 0.0661 -0.6668 -0.884 0.276 0.377 77 70 54 0 0
-0.1541 0.0664 -0.6723 -0.890 0.124 0.440 66 58 46 0 0
-0.1548 0.0665 -0.6738 -0.890 0.124 0.440 73 63 51 0 0
-0.1598 0.0684 -0.7042 -0.640 0.159 0.751 35 29 26 0 0
-0.1615 0.0685 -0.7050 -0.798 0.156 0.581 58 51 44 0 0
-0.1629 0.0685 -0.7060 -0.826 -0.065 0.560 52 45 40 0 0
-0.1639 0.0686 -0.7073 -0.944 -0.086 0.320 37 32 28 0 0
-0.1644 0.0687 -0.7089 -0.914 -0.104 0.392 23 18 16 0 0
-0.1834 0.0692 -0.7210 -0.920 0.251 0.302 104 91 72 0 0
-0.1847 0.0696 -0.7280 -0.974 0.173 0.145 132 116 84 0 0
-0.1850 0.0698 -0.7298 -0.974 0.173 0.145 126 110 84 0 0
-0.1848 0.0699 -0.7320 -0.987 0.080 0.137 100 85 62 0 0
-0.1850 0.0700 -0.7339 -0.987 0.080 0.137 79 66 46 0 0
-0.1836 0.0703 -0.7371 -0.968 0.179 -0.177 78 65 49 0 0
-0.1521 0.0738 -0.7851 -0.959 0.112 0.260 42 35 25 0 0
-0.1531 0.0739 -0.7864 -0.751 0.034 0.659 42 35 25 0 0
-0.1758 0.0747 -0.8041 -0.939 0.239 0.247 65 54 38 0 0
-0.1833 0.0763 -0.8300 -0.865 0.288 0.410 129 114 76 0 0
-0.1838 0.0767 -0.8361 -0.938 0.316 0.146 97 89 62 0 0
-0.1828 0.0770 -0.8392 -0.786 0.200 0.584 82 72 50 0 0
-0.1885 0.0781 -0.8583 -0.769 0.228 0.598 73 66 48 0 0
-0.3066 0.0767 -0.8614 -0.968 -0.215 0.132 206 205 203 0 0
0.0181 0.0406 -0.2168 -0.882 0.002 0.471 169 168 172 0 0
0.0173 0.0407 -0.2183 -0.882 0.002 0.471 171 170 169 0 0
0.0178 0.0408 -0.2200 -0.877 0.247 0.412 164 163 156 0 0
0.0172 0.0409 -0.2214 -0.877 0.247 0.412 148 142 130 0 0
0.0158 0.0442 -0.2716 -0.829 0.255 0.498 74 64 45 0 0
0.0151 0.0444 -0.2748 -0.887 0.032 0.462 44 33 19 0 0
0.0142 0.0445 -0.2762 -0.706 0.099 0.702 30 23 11 0 0
-0.1337 0.0455 -0.3253 -0.630 0.531 0.567 84 71 48 0 0
-0.1989 0.0529 -0.4531 -0.871 0.430 0.239 80 66 50 0 0
-0.2006 0.0530 -0.4539 -0.882 0.394 0.258 71 57 46 0 0
-0.2013 0.0530 -0.4551 -0.844 0.536 0.032 74 62 50 0 0
-0.2115 0.0541 -0.4730 -0.850 -0.115 0.514 85 69 44 0 0
-0.2066 0.0547 -0.4822 -0.801 0.024 0.598 91 81 61 0 0
-0.2078 0.0548 -0.4832 -0.885 0.397 0.245 136 124 108 0 0
-0.2080 0.0549 -0.4847 -0.955 0.257 0.147 134 121 104 0 0
-0.2111 0.0552 -0.4898 -0.936 -0.057 0.346 74 60 38 0 0
-0.2106 0.0554 -0.4934 -0.723 0.350 0.596 91 83 72 0 0
-0.2118 0.0556 -0.4961 -0.876 0.365 -0.314 99 87 73 0 0
-0.2120 0.0557 -0.4977 -0.900 0.435 -0.030 99 86 69 0 0
-0.1997 0.0615 -0.5833 -0.776 0.553 0.305 87 78 69 0 0
-0.1995 0.0616 -0.5852 -0.937 0.159 -0.312 84 76 69 0 0
-0.1299 0.0676 -0.6588 -0.548 -0.007 0.837 38 31 23 0 0
-0.1483 0.0676 -0.6643 -0.715 0.581 0.387 65 55 43 0 0
-0.1527 0.0679 -0.6692 -0.847 0.056 0.529 71 61 49 0 0
-0.1546 0.0682 -0.6738 -0.890 0.124 0.440 85 76 65 0 0
-0.1630 0.0702 -0.7059 -0.826 -0.065 0.560 58 52 46 0 0
-0.1640 0.0702 -0.7071 -0.899 -0.144 0.414 59 55 50 0 0
-0.1645 0.0703 -0.7088 -0.857 -0.249 0.450 31 27 23 0 0
-0.1653 0.0704 -0.7102 -0.857 -0.249 0.450 23 19 15 0 0
-0.1825 0.0708 -0.7195 -0.920 0.251 0.302 59 46 29 0 0
-0.1849 0.0715 -0.7318 -0.948 0.247 0.202 83 70 50 0 0
-0.1852 0.0717 -0.7336 -0.947 0.227 0.226 75 62 43 0 0
-0.1518 0.0756 -0.7852 -0.931 0.194 0.310 34 28 21 0 0
-0.1528 0.0756 -0.7865 -0.761 0.095 0.642 32 25 18 0 0
-0.1881 0.0799 -0.8586 -0.893 0.261 0.366 74 69 50 0 0
-0.1885 0.0800 -0.8604 -0.850 0.364 0.380 96 91 77 0 0
-0.3021 0.0783 -0.8618 -0.055 0.257 0.965 205 204 202 0 0
0.0184 0.0425 -0.2200 -0.862 0.287 0.419 173 174 169 0 0
0.0177 0.0426 -0.2215 -0.862 0.287 0.419 168 167 161 0 0
0.0174 0.0427 -0.2230 -0.979 0.183 0.094 157 152 144 0 0
0.0175 0.0428 -0.2246 -0.953 0.286 0.103 118 108 96 0 0
-0.1412 0.0500 -0.3729 -0.682 0.241 0.690 123 106 69 0 0
-0.1419 0.0501 -0.3743 -0.601 0.427 0.675 138 120 79 0 0
-0.1887 0.0534 -0.4350 -0.818 0.245 0.521 32 19 4 0 0
-0.2066 0.0562 -0.4821 -0.947 -0.056 0.317 73 65 46 0 0
-0.2077 0.0565 -0.4865 -0.996 -0.092 0.003 61 50 33 0 0
-0.2073 0.0566 -0.4883 -0.984 0.148 -0.099 81 68 54 0 0
-0.1973 0.0592 -0.5245 -0.920 0.333 -0.207 131 116 86 0 0
-0.1969 0.0593 -0.5265 -0.934 0.236 0.268 142 126 94 0 0
-0.1958 0.0595 -0.5288 -0.579 0.425 0.696 179 160 130 0 0
-0.1969 0.0596 -0.5299 -0.562 0.181 0.807 182 163 133 0 0
-0.1976 0.0601 -0.5383 -0.811 0.581 0.058 109 93 75 0 0
-0.1990 0.0631 -0.5837 -0.828 0.269 0.493 64 60 51 0 0
-0.1992 0.0632 -0.5853 -0.956 0.023 -0.292 42 39 34 0 0
-0.1280 0.0692 -0.6580 -0.641 -0.185 0.745 37 32 26 0 0
-0.1296 0.0693 -0.6589 -0.575 -0.147 0.805 29 24 19 0 0
-0.1663 0.0717 -0.7053 -0.926 0.028 0.377 70 64 59 0 0
-0.1672 0.0718 -0.7067 -0.929 -0.027 0.369 40 36 32 0 0
-0.1679 0.0719 -0.7082 -0.912 -0.031 0.409 22 21 17 0 0
-0.1686 0.0720 -0.7097 -0.912 -0.031 0.409 26 23 19 0 0
-0.1690 0.0722 -0.7134 -0.965 0.104 0.241 69 59 49 0 0
-0.1842 0.0732 -0.7322 -0.899 0.369 0.235 71 58 41 0 0
-0.1846 0.0733 -0.7339 -0.899 0.369 0.235 70 57 40 0 0
-0.1675 0.0752 -0.7577 -0.705 0.608 -0.365 55 42 29 0 0
-0.1837 0.0806 -0.8425 -0.806 0.193 0.559 72 58 31 0 0
-0.1874 0.0816 -0.8591 -0.958 0.112 0.265 77 74 54 0 0
-0.1883 0.0817 -0.8604 -0.786 0.162 0.597 103 99 87 0 0
0.0223 0.0439 -0.2159 -0.755 0.268 0.598 176 176 176 0 0
0.0177 0.0443 -0.2230 -0.980 0.196 0.034 174 171 170 0 0
0.0175 0.0444 -0.2246 -0.994 0.096 0.042 171 166 163 0 0
0.0183 0.0446 -0.2279 -0.934 0.357 0.019 113 104 91 0 0
0.0177 0.0449 -0.2326 -0.867 0.478 0.142 76 60 33 0 0
-0.1361 0.0513 -0.3684 -0.671 0.438 0.598 103 92 74 0 0
-0.1377 0.0513 -0.3694 -0.872 0.097 0.480 95 83 66 0 0
-0.1376 0.0515 -0.3710 -0.892 0.444 0.087 85 71 52 0 0
-0.1406 0.0515 -0.3731 -0.654 0.235 0.719 105 90 56 0 0
-0.1966 0.0609 -0.5265 -0.908 0.285 0.305 124 108 75 0 0
-0.1967 0.0611 -0.5299 -0.736 0.371 0.566 120 101 69 0 0
-0.1973 0.0646 -0.5828 -0.622 0.641 0.450 56 51 44 0 0
-0.1980 0.0647 -0.5842 -0.753 0.487 0.442 41 37 33 0 0
-0.1279 0.0709 -0.6579 -0.544 -0.050 0.838 38 31 24 0 0
-0.1294 0.0709 -0.6589 -0.544 -0.050 0.838 38 32 25 0 0
-0.1589 0.0733 -0.7026 -0.884 -0.268 0.384 50 43 36 0 0
-0.1686 0.0736 -0.7096 -0.912 -0.031 0.409 21 19 16 0 0
0.0190 0.0458 -0.2216 -0.932 0.292 0.217 176 176 176 0 0
0.0186 0.0465 -0.2311 -0.965 0.259 0.037 117 110 96 0 0
0.0186 0.0466 -0.2328 -0.965 0.259 0.037 87 77 59 0 0
-0.1441 0.0544 -0.3942 -0.989 -0.088 0.115 118 103 73 0 0
-0.1842 0.0561 -0.4305 -0.818 0.563 0.117 124 111 86 0 0
-0.1963 0.0630 -0.5353 -0.922 0.387 0.036 70 55 32 0 0
-0.1966 0.0632 -0.5387 -0.897 0.420 0.139 112 97 74 0 0
-0.1269 0.0725 -0.6565 -0.432 0.011 0.902 45 37 30 0 0
-0.1286 0.0725 -0.6573 -0.572 0.002 0.821 47 38 31 0 0
-0.1304 0.0726 -0.6581 -0.534 -0.120 0.837 52 44 36 0 0
-0.1576 0.0735 -0.6793 -0.962 0.014 0.273 37 32 25 0 0
-0.1574 0.0736 -0.6814 -0.846 0.285 0.450 38 32 26 0 0
-0.1582 0.0737 -0.6829 -0.846 0.285 0.450 33 26 23 0 0
-0.1674 0.0752 -0.7083 -0.718 -0.002 0.696 41 38 37 0 0
-0.1685 0.0753 -0.7095 -0.857 -0.239 0.457 26 25 23 0 0
-0.1833 0.0820 -0.8122 -0.835 0.118 0.538 110 94 60 0 0
-0.1853 0.0820 -0.8127 -0.897 0.112 0.427 105 92 59 0 0
0.0181 0.0483 -0.2342 -0.979 0.148 -0.141 131 126 114 0 0
-0.2002 0.0608 -0.4818 -0.818 0.524 0.238 70 64 54 0 0
-0.2012 0.0608 -0.4829 -0.664 0.199 0.721 69 63 51 0 0
-0.2019 0.0609 -0.4842 -0.584 0.566 0.581 77 69 52 0 0
-0.1965 0.0642 -0.5316 -0.932 0.300 -0.204 114 103 82 0 0
-0.1968 0.0646 -0.5367 -0.967 -0.241 -0.083 48 35 16 0 0
-0.1954 0.0648 -0.5392 -0.983 0.137 -0.126 73 58 37 0 0
-0.1959 0.0651 -0.5442 -0.938 0.338 0.069 111 96 73 0 0
-0.1956 0.0668 -0.5692 -0.882 0.446 -0.150 86 76 64 0 0
-0.1264 0.0742 -0.6567 -0.115 -0.624 0.773 50 41 33 0 0
-0.1290 0.0742 -0.6569 -0.298 -0.661 0.689 53 44 37 0 0
-0.1574 0.0761 -0.6933 -0.969 -0.205 -0.137 21 18 16 0 0
-0.1612 0.0768 -0.7047 -0.821 0.076 0.565 74 68 64 0 0
0.0182 0.0501 -0.2374 -0.991 0.046 -0.127 152 146 139 0 0
0.0185 0.0503 -0.2391 -0.944 0.324 -0.068 130 124 114 0 0
0.0258 0.0530 -0.2770 -0.271 0.946 -0.177 165 161 157 0 0
0.0279 0.0532 -0.2791 -0.271 0.946 -0.177 167 163 160 0 0
-0.1982 0.0623 -0.4827 -0.874 0.040 0.484 77 70 60 0 0
-0.1983 0.0625 -0.4844 -0.382 0.277 0.882 75 69 57 0 0
-0.2024 0.0636 -0.5024 -0.670 0.684 0.287 72 63 53 0 0
-0.1938 0.0658 -0.5313 -0.273 0.379 0.884 73 61 48 0 0
-0.1252 0.0758 -0.6554 -0.229 -0.439 0.869 56 47 37 0 0
-0.1274 0.0758 -0.6559 -0.182 -0.412 0.893 52 43 34 0 0
-0.1326 0.0757 -0.6565 -0.472 -0.618 0.629 63 53 44 0 0
-0.1606 0.0782 -0.7009 -0.930 -0.243 0.276 20 16 11 0 0
-0.1606 0.0783 -0.7029 -0.629 -0.521 0.577 37 33 29 0 0
-0.1701 0.0788 -0.7121 -0.794 0.221 0.567 37 28 15 0 0
-0.1744 0.0792 -0.7190 -0.737 0.222 0.638 56 45 33 0 0
-0.1763 0.0792 -0.7196 -0.779 0.271 0.566 62 49 36 0 0
-0.1766 0.0793 -0.7214 -0.889 0.373 0.265 76 63 47 0 0
0.0190 0.0520 -0.2407 -0.984 0.175 -0.040 173 171 172 0 0
0.0190 0.0521 -0.2423 -0.994 0.108 0.003 172 171 172 0 0
0.0311 0.0545 -0.2731 -0.283 0.959 0.004 153 148 142 0 0
0.0327 0.0550 -0.2786 -0.276 0.944 -0.182 167 167 168 0 0
-0.1972 0.0638 -0.4815 -0.715 -0.211 0.666 54 47 38 0 0
-0.1984 0.0638 -0.4825 -0.768 -0.266 0.582 51 44 36 0 0
-0.1264 0.0774 -0.6544 -0.192 -0.397 0.898 66 58 47 0 0
-0.1289 0.0774 -0.6548 -0.189 -0.353 0.916 60 52 41 0 0
-0.1608 0.0800 -0.7027 -0.892 -0.062 0.448 24 23 18 0 0
-0.1613 0.0801 -0.7043 -0.911 -0.032 0.410 38 35 29 0 0
-0.1773 0.0816 -0.7309 -0.957 0.108 0.269 85 72 53 0 0
-0.1821 0.0869 -0.8086 -0.800 -0.286 0.528 116 101 62 0 0
-0.1797 0.0883 -0.8279 -0.829 0.526 0.189 125 110 75 0 0
-0.1756 0.0888 -0.8337 -0.964 0.257 0.075 114 101 69 0 0
0.0198 0.0537 -0.2408 -0.801 0.598 0.022 176 175 177 0 0
0.0197 0.0538 -0.2424 -0.913 0.408 0.014 175 176 177 0 0
0.0192 0.0539 -0.2439 -0.969 0.229 0.089 176 176 177 0 0
0.0247 0.0543 -0.2484 -0.665 0.725 -0.181 174 169 169 0 0
-0.1769 0.0626 -0.4367 -0.714 0.556 0.425 116 104 77 0 0
-0.2004 0.0690 -0.5360 -0.996 -0.049 -0.069 56 46 37 0 0
-0.1269 0.0791 -0.6540 -0.111 -0.023 0.994 71 61 49 0 0
-0.1584 0.0800 -0.6783 -0.998 -0.064 0.001 88 74 49 0 0
-0.1538 0.0815 -0.6975 -0.895 0.443 0.056 12 11 9 0 0
-0.1607 0.0819 -0.7067 -0.424 0.496 0.758 44 40 33 0 0
-0.1596 0.0879 -0.7908 -0.442 0.093 0.892 97 81 54 0 0
-0.1600 0.0880 -0.7926 -0.800 0.216 0.559 83 69 41 0 0
-0.1782 0.0886 -0.8074 -0.889 0.371 0.269 100 84 51 0 0
-0.1790 0.0887 -0.8090 -0.860 0.396 0.321 106 90 55 0 0
-0.1752 0.0903 -0.8317 -0.994 0.098 0.053 114 100 72 0 0
-0.1743 0.0844 -0.7227 -0.837 0.407 0.365 74 61 44 0 0
-0.1750 0.0846 -0.7262 -0.962 0.131 0.238 54 41 26 0 0
-0.1615 0.0896 -0.7912 -0.827 -0.395 0.401 94 77 50 0 0
-0.1626 0.0905 -0.8054 -0.788 0.430 0.440 39 27 12 0 0
-0.1764 0.0912 -0.8197 -0.979 0.202 0.018 127 111 75 0 0
-0.1762 0.0915 -0.8242 -0.909 0.212 0.357 137 120 82 0 0
-0.1769 0.0918 -0.8279 -0.961 -0.084 0.263 106 93 65 0 0
-0.1751 0.0921 -0.8317 -0.994 0.098 0.053 93 82 58 0 0
-0.1765 0.0944 -0.8658 -0.584 0.165 0.795 102 96 84 0 0
-0.1765 0.0658 -0.4400 -0.538 0.647 0.540 79 66 47 0 0
-0.1761 0.0678 -0.4668 -0.965 0.147 -0.218 75 66 47 0 0
-0.1272 0.0824 -0.6536 -0.185 0.685 0.705 71 61 50 0 0
-0.1587 0.0834 -0.6798 -0.996 -0.073 -0.052 131 111 77 0 0
-0.1744 0.0862 -0.7246 -0.864 0.365 0.345 80 70 50 0 0
-0.1748 0.0863 -0.7263 -0.962 0.131 0.238 76 64 45 0 0
-0.1744 0.0865 -0.7287 -0.985 0.161 -0.055 66 55 34 0 0
-0.1744 0.0866 -0.7307 -0.889 0.444 -0.107 71 58 36 0 0
-0.1485 0.0908 -0.7803 -0.978 0.175 0.112 54 44 33 0 0
-0.1620 0.0912 -0.7907 -0.707 0.462 0.535 100 83 56 0 0
-0.1615 0.0916 -0.7954 -0.982 0.134 -0.136 77 54 30 0 0
-0.1744 0.0931 -0.8213 -0.933 0.241 0.268 129 115 78 0 0
-0.1758 0.0933 -0.8244 -0.920 0.323 0.224 130 116 81 0 0
-0.1749 0.0940 -0.8339 -0.996 -0.045 0.073 55 48 33 0 0
-0.1780 0.0962 -0.8665 -0.601 0.190 0.776 134 129 125 0 0
-0.1830 0.0962 -0.8687 0.014 -0.084 0.996 165 162 163 0 0
0.0335 0.0597 -0.2517 -0.452 0.803 0.388 174 174 173 0 0
-0.1363 0.0661 -0.4066 -0.452 0.888 0.082 96 85 72 0 0
-0.1766 0.0692 -0.4664 -0.849 0.463 -0.254 49 42 25 0 0
-0.1530 0.0841 -0.6639 -0.648 0.545 0.533 75 59 38 0 0
-0.1540 0.0841 -0.6651 -0.847 0.104 0.521 69 51 34 0 0
-0.1587 0.0848 -0.6758 -0.994 -0.086 0.075 88 68 41 0 0
-0.1588 0.0849 -0.6776 -0.994 -0.086 0.075 116 97 65 0 0
-0.1497 0.0868 -0.7001 -0.910 0.060 -0.410 19 16 11 0 0
-0.1524 0.0869 -0.7022 -0.988 -0.113 0.102 18 15 12 0 0
-0.1533 0.0872 -0.7076 -0.942 0.246 0.226 15 11 9 0 0
-0.1743 0.0880 -0.7265 -0.960 0.213 0.180 93 81 58 0 0
-0.1739 0.0882 -0.7289 -0.951 0.275 -0.143 84 72 51 0 0
-0.1734 0.0884 -0.7313 -0.889 0.444 -0.107 77 63 40 0 0
-0.1685 0.0895 -0.7454 -0.861 0.334 -0.383 70 59 41 0 0
-0.1628 0.0903 -0.7540 -0.782 0.414 -0.467 68 59 41 0 0
-0.1484 0.0926 -0.7802 -0.777 0.184 0.602 43 36 24 0 0
-0.1451 0.0932 -0.7871 -0.503 0.365 0.783 53 45 33 0 0
-0.1620 0.0928 -0.7884 -0.358 0.211 0.910 120 103 78 0 0
-0.1628 0.0929 -0.7899 -0.694 0.285 0.661 104 84 59 0 0
-0.1624 0.0931 -0.7924 -0.917 0.398 0.043 92 71 42 0 0
-0.1613 0.0935 -0.7976 -0.969 0.238 -0.071 64 44 20 0 0
-0.1740 0.0947 -0.8193 -0.908 0.063 0.414 125 109 74 0 0
-0.1754 0.0948 -0.8224 -0.908 0.063 0.414 124 110 76 0 0
-0.1750 0.0957 -0.8337 -0.996 -0.045 0.073 53 43 27 0 0
-0.1748 0.0958 -0.8360 -0.997 -0.070 -0.022 70 56 36 0 0
-0.1725 0.0980 -0.8647 -0.794 0.550 0.260 69 64 44 0 0
-0.1736 0.0980 -0.8659 -0.782 0.473 0.405 92 86 70 0 0
-0.1755 0.0980 -0.8665 -0.784 0.404 0.471 118 112 102 0 0
-0.1777 0.0980 -0.8667 -0.601 0.190 0.776 139 134 131 0 0
-0.1870 0.0976 -0.8648 0.097 -0.040 0.994 168 164 163 0 0
0.0363 0.0615 -0.2523 -0.403 0.647 0.647 179 176 176 0 0
0.0327 0.0641 -0.2900 -0.392 0.477 0.787 64 56 47 0 0
-0.1445 0.0684 -0.4212 -0.462 0.886 -0.043 112 103 86 0 0
-0.1500 0.0685 -0.4254 -0.362 0.792 0.492 101 90 75 0 0
-0.1509 0.0686 -0.4267 -0.238 0.777 0.583 98 87 71 0 0
-0.1240 0.0860 -0.6555 -0.363 0.806 0.468 82 72 59 0 0
-0.1544 0.0856 -0.6628 -0.537 0.316 0.782 68 52 30 0 0
-0.1592 0.0864 -0.6752 -0.971 0.206 0.120 81 64 36 0 0
-0.1590 0.0865 -0.6774 -0.994 -0.108 0.008 106 87 57 0 0
-0.1589 0.0868 -0.6814 -0.982 -0.184 -0.044 123 105 78 0 0
-0.1740 0.0897 -0.7267 -0.965 0.223 0.137 79 67 44 0 0
-0.1646 0.0946 -0.7905 -0.797 0.459 0.393 85 64 38 0 0
-0.1747 0.0974 -0.8338 -0.984 0.136 0.119 63 49 32 0 0
-0.1750 0.0975 -0.8358 -0.993 0.072 0.099 86 71 43 0 0
-0.1772 0.0984 -0.8492 -0.771 0.068 0.633 103 88 57 0 0
-0.1728 0.0998 -0.8665 -0.782 0.473 0.405 99 92 80 0 0
-0.1746 0.0998 -0.8671 -0.747 0.485 0.455 124 117 110 0 0
0.0385 0.0632 -0.2527 -0.403 0.647 0.647 177 176 176 0 0
0.0369 0.0633 -0.2540 -0.400 0.687 0.607 177 175 176 0 0
0.0473 0.0655 -0.2799 -0.802 -0.595 0.060 50 43 37 0 0
0.0465 0.0656 -0.2814 -0.648 -0.628 0.431 47 40 32 0 0
0.0432 0.0657 -0.2840 -0.302 -0.387 0.871 46 39 29 0 0
0.0379 0.0658 -0.2878 -0.813 0.189 0.551 67 58 49 0 0
0.0335 0.0657 -0.2884 -0.823 -0.426 0.375 62 53 45 0 0
0.0345 0.0659 -0.2904 -0.351 -0.612 0.709 66 57 50 0 0
-0.1784 0.0716 -0.4587 -0.979 -0.086 0.187 17 15 12 0 0
-0.1519 0.0873 -0.6624 -0.872 0.285 0.398 74 58 35 0 0
-0.1550 0.0879 -0.6722 -0.897 -0.165 0.411 84 64 41 0 0
-0.1589 0.0882 -0.6773 -0.990 0.133 0.037 114 96 66 0 0
-0.1549 0.0894 -0.6921 -0.955 -0.249 0.162 78 66 45 0 0
-0.1742 0.0990 -0.8319 -0.928 0.357 0.104 60 50 32 0 0
-0.1744 0.0991 -0.8339 -0.959 0.176 0.220 75 60 38 0 0
-0.1748 0.0993 -0.8358 -0.962 0.097 0.255 96 79 51 0 0
-0.1752 0.0994 -0.8376 -0.962 0.097 0.255 106 87 56 0 0
-0.1717 0.1017 -0.8674 -0.699 0.469 0.541 108 101 92 0 0
-0.1737 0.1016 -0.8678 -0.753 0.468 0.463 130 125 119 0 0
0.0476 0.0671 -0.2782 -0.877 -0.190 -0.442 53 46 38 0 0
0.0450 0.0672 -0.2810 -0.714 -0.444 0.542 51 44 35 0 0
0.0438 0.0673 -0.2824 -0.591 -0.353 0.725 47 40 30 0 0
0.0428 0.0673 -0.2838 -0.416 -0.057 0.908 44 37 27 0 0
0.0402 0.0673 -0.2849 -0.269 -0.196 0.943 44 37 27 0 0
0.0409 0.0675 -0.2868 -0.834 -0.550 0.040 55 47 38 0 0
-0.0596 0.0713 -0.3824 -0.851 0.193 0.488 72 60 39 0 0
-0.0602 0.0714 -0.3838 -0.772 0.239 0.589 122 110 88 0 0
-0.1737 0.0741 -0.4693 -0.848 0.294 -0.441 77 65 46 0 0
-0.1236 0.0892 -0.6535 -0.380 0.249 0.891 87 78 61 0 0
-0.1259 0.0892 -0.6540 -0.850 0.526 0.034 91 79 66 0 0
-0.1265 0.0893 -0.6556 -0.758 0.131 0.639 88 76 62 0 0
-0.1504 0.0891 -0.6634 -0.903 0.106 0.417 72 56 33 0 0
-0.1512 0.0892 -0.6648 -0.955 0.137 0.265 71 54 33 0 0
-0.1523 0.0892 -0.6660 -0.819 0.347 0.457 70 54 34 0 0
-0.1530 0.0893 -0.6675 -0.819 0.347 0.457 68 53 30 0 0
-0.1537 0.0920 -0.7050 -0.919 -0.130 0.373 15 10 9 0 0
-0.1574 0.0922 -0.7084 -0.904 -0.139 0.405 23 18 12 0 0
-0.1741 0.1009 -0.8340 -0.938 0.212 0.275 89 73 46 0 0
-0.1746 0.1010 -0.8358 -0.962 0.097 0.255 104 84 52 0 0
-0.1748 0.1011 -0.8378 -0.970 0.198 0.140 118 96 64 0 0
0.0449 0.0685 -0.2758 -0.793 -0.088 -0.603 60 53 45 0 0
0.0474 0.0687 -0.2781 -0.882 0.051 -0.468 62 55 45 0 0
0.0448 0.0687 -0.2791 -0.855 -0.476 0.206 56 49 39 0 0
0.0446 0.0689 -0.2808 -0.782 -0.270 0.562 53 46 36 0 0
0.0432 0.0689 -0.2822 -0.560 -0.187 0.807 52 45 35 0 0
0.0428 0.0690 -0.2837 -0.416 -0.057 0.908 51 44 34 0 0
0.0344 0.0687 -0.2834 -0.234 -0.646 0.727 51 44 34 0 0
0.0383 0.0690 -0.2860 -0.690 -0.715 0.116 61 53 44 0 0
-0.1503 0.0906 -0.6613 -0.861 0.290 0.417 74 56 33 0 0
-0.1524 0.0910 -0.6678 -0.820 0.407 0.402 74 58 37 0 0
-0.1539 0.0913 -0.6726 -0.833 0.178 0.523 83 65 42 0 0
-0.1559 0.0919 -0.6812 -0.978 0.188 0.091 129 110 76 0 0
-0.1552 0.0924 -0.6877 -0.999 -0.022 0.036 120 100 73 0 0
-0.1555 0.0925 -0.6895 -0.990 -0.109 0.086 124 107 77 0 0
-0.1560 0.0926 -0.6911 -0.903 -0.295 0.313 93 81 57 0 0
-0.1529 0.0932 -0.6974 -0.962 -0.223 -0.158 26 22 17 0 0
-0.1554 0.0936 -0.7037 -0.848 0.177 0.499 33 28 26 0 0
-0.1567 0.0937 -0.7067 -0.848 0.009 0.530 21 16 12 0 0
-0.1356 0.1005 -0.7877 -0.066 0.080 0.995 52 40 25 0 0
-0.1616 0.1004 -0.7990 -0.910 0.236 0.342 76 63 45 0 0
-0.1617 0.1006 -0.8010 -0.637 0.028 0.770 77 64 45 0 0
-0.1729 0.1026 -0.8328 -0.928 0.357 0.104 85 70 42 0 0
-0.1739 0.1026 -0.8341 -0.939 0.281 0.200 111 94 60 0 0
-0.1743 0.1028 -0.8360 -0.952 0.242 0.185 118 98 63 0 0
-0.1777 0.1037 -0.8506 -0.691 0.392 0.607 105 93 65 0 0
-0.1694 0.1052 -0.8670 -0.578 0.273 0.769 95 89 74 0 0
0.0308 0.0687 -0.2623 -0.696 0.269 0.666 121 114 95 0 0
0.0444 0.0706 -0.2824 -0.300 -0.627 0.719 51 44 34 0 0
-0.1738 0.0771 -0.4690 -0.790 -0.474 -0.390 99 87 66 0 0
-0.1197 0.0926 -0.6519 -0.309 -0.232 0.922 81 69 55 0 0
-0.1503 0.0925 -0.6651 -0.876 0.352 0.331 70 55 33 0 0
-0.1519 0.0927 -0.6680 -0.819 0.347 0.457 68 51 33 0 0
-0.1526 0.0928 -0.6695 -0.834 0.318 0.451 77 59 37 0 0
-0.1556 0.0936 -0.6813 -0.978 0.188 0.091 119 100 65 0 0
-0.1551 0.0939 -0.6857 -0.978 -0.127 0.163 101 84 59 0 0
-0.1554 0.0940 -0.6874 -0.978 -0.127 0.163 105 89 63 0 0
-0.1572 0.0951 -0.7022 -0.972 -0.092 0.216 50 42 38 0 0
-0.1416 0.1020 -0.7871 -0.417 -0.623 0.662 36 27 18 0 0
-0.1723 0.1042 -0.8310 -0.945 0.177 0.275 78 62 36 0 0
-0.1728 0.1043 -0.8328 -0.947 0.168 0.275 105 88 54 0 0
-0.1733 0.1044 -0.8345 -0.947 0.168 0.275 124 105 69 0 0
-0.1739 0.1045 -0.8362 -0.952 0.242 0.185 125 106 72 0 0
-0.1731 0.1057 -0.8523 -0.862 0.421 0.283 110 95 63 0 0
-0.1733 0.1059 -0.8543 -0.881 0.423 0.211 100 88 61 0 0
-0.1740 0.1060 -0.8560 -0.881 0.378 0.283 78 70 48 0 0
0.0399 0.0716 -0.2744 -0.911 -0.344 0.229 50 42 34 0 0
0.0407 0.0717 -0.2763 -0.712 -0.615 0.339 53 46 36 0 0
0.0410 0.0719 -0.2780 -0.735 -0.677 -0.034 47 40 30 0 0
0.0413 0.0720 -0.2798 -0.736 -0.591 -0.330 48 41 31 0 0
0.0428 0.0722 -0.2819 -0.748 -0.624 -0.226 47 40 30 0 0
0.0411 0.0723 -0.2832 -0.643 -0.738 0.204 47 40 30 0 0
0.0225 0.0720 -0.2887 -0.767 0.203 0.609 110 96 76 0 0
0.0212 0.0730 -0.3019 -0.929 0.367 0.033 72 59 42 0 0
0.0210 0.0731 -0.3035 -0.905 0.396 0.157 55 42 25 0 0
-0.0569 0.0764 -0.3848 -0.602 0.334 0.725 140 124 99 0 0
-0.0586 0.0764 -0.3858 -0.390 0.287 0.875 98 82 58 0 0
-0.1186 0.0944 -0.6525 -0.198 0.039 0.979 89 77 62 0 0
-0.1222 0.0942 -0.6521 -0.176 -0.277 0.945 91 80 62 0 0
-0.1233 0.0943 -0.6533 -0.392 -0.553 0.735 93 83 64 0 0
-0.1441 0.0941 -0.6613 -0.928 -0.071 0.366 83 67 43 0 0
-0.1494 0.0941 -0.6637 -0.872 0.215 0.439 76 61 38 0 0
-0.1513 0.0944 -0.6683 -0.819 0.347 0.457 67 50 29 0 0
-0.1521 0.0945 -0.6697 -0.819 0.347 0.457 91 72 49 0 0
-0.1549 0.0953 -0.6817 -0.987 -0.055 0.153 118 100 66 0 0
-0.1552 0.0954 -0.6835 -0.987 -0.055 0.153 104 89 56 0 0
-0.1530 0.0965 -0.6971 -0.993 0.115 0.009 27 22 17 0 0
-0.1572 0.0967 -0.7021 -0.887 0.339 0.313 56 47 39 0 0
-0.1575 0.0968 -0.7039 -0.987 -0.080 0.140 77 68 57 0 0
-0.1595 0.0973 -0.7105 -0.876 0.107 0.470 38 27 14 0 0
-0.1603 0.0974 -0.7119 -0.810 0.089 0.579 50 39 26 0 0
-0.1613 0.0974 -0.7132 -0.826 0.147 0.545 70 60 48 0 0
-0.1630 0.0976 -0.7161 -0.863 0.305 0.403 80 70 51 0 0
-0.1378 0.1029 -0.7749 -0.859 0.072 -0.508 73 64 46 0 0
-0.1725 0.1052 -0.8219 -0.837 0.491 0.239 49 38 25 0 0
-0.1728 0.1053 -0.8238 -0.874 0.465 0.139 55 45 30 0 0
-0.1730 0.1055 -0.8258 -0.915 0.400 0.047 60 47 28 0 0
-0.1711 0.1058 -0.8297 -0.916 0.394 0.078 84 69 40 0 0
-0.1713 0.1060 -0.8317 -0.935 0.305 0.179 107 90 56 0 0
-0.1729 0.1077 -0.8546 -0.895 0.414 0.167 99 86 60 0 0
0.0395 0.0732 -0.2742 -0.887 -0.448 -0.112 45 37 29 0 0
0.0381 0.0734 -0.2773 -0.730 -0.557 0.396 49 42 32 0 0
0.0246 0.0737 -0.2874 -0.592 0.280 0.756 100 88 68 0 0
0.0230 0.0737 -0.2887 -0.767 0.203 0.609 99 85 63 0 0
0.0220 0.0738 -0.2902 -0.883 0.363 0.296 111 96 71 0 0
0.0243 0.0753 -0.3094 -0.976 0.202 0.084 85 74 55 0 0
-0.1753 0.0798 -0.4664 -0.823 0.431 -0.369 75 67 52 0 0
-0.1193 0.0960 -0.6519 -0.211 0.610 0.764 93 81 65 0 0
-0.1219 0.0959 -0.6522 -0.052 -0.076 0.996 93 82 64 0 0
-0.1232 0.0960 -0.6533 -0.910 0.339 0.238 92 81 63 0 0
-0.1497 0.0957 -0.6634 -0.941 0.028 0.336 73 58 36 0 0
-0.1503 0.0958 -0.6649 -0.941 0.028 0.336 65 50 29 0 0
-0.1505 0.0960 -0.6667 -0.928 0.149 0.341 65 49 27 0 0
-0.1511 0.0961 -0.6683 -0.928 0.149 0.341 84 67 42 0 0
-0.1517 0.0962 -0.6699 -0.928 0.149 0.341 109 89 63 0 0
-0.1522 0.0963 -0.6715 -0.928 0.149 0.341 104 82 56 0 0
-0.1547 0.0968 -0.6797 -0.982 -0.144 0.124 118 99 68 0 0
-0.1549 0.0969 -0.6816 -0.979 -0.097 0.180 134 114 80 0 0
-0.1552 0.0970 -0.6833 -0.979 -0.097 0.180 132 115 80 0 0
-0.1541 0.0981 -0.6961 -0.991 -0.022 0.134 30 26 17 0 0
-0.1568 0.0984 -0.7022 -0.898 0.235 0.373 70 60 47 0 0
-0.1575 0.0985 -0.7038 -0.898 0.235 0.373 80 70 56 0 0
-0.1602 0.0992 -0.7139 -0.766 0.117 0.633 56 43 28 0 0
-0.1613 0.0992 -0.7152 -0.766 0.117 0.633 75 63 49 0 0
-0.1626 0.0993 -0.7163 -0.901 0.139 0.410 86 73 52 0 0
-0.1579 0.1017 -0.7465 -0.713 0.633 -0.300 80 67 48 0 0
-0.1402 0.1042 -0.7708 -0.860 -0.099 -0.501 65 55 38 0 0
-0.1514 0.1058 -0.7962 -0.888 0.264 0.377 30 22 13 0 0
-0.1611 0.1064 -0.8098 -0.925 0.366 0.101 50 41 30 0 0
-0.1716 0.1070 -0.8226 -0.867 0.415 0.276 48 34 18 0 0
-0.1717 0.1072 -0.8246 -0.870 0.338 0.359 59 44 24 0 0
-0.1725 0.1073 -0.8262 -0.860 0.372 0.349 79 64 36 0 0
-0.1728 0.1074 -0.8281 -0.848 0.257 0.464 114 99 61 0 0
0.0336 0.0748 -0.2761 -0.936 -0.193 0.294 46 39 28 0 0
0.0333 0.0749 -0.2777 -0.940 -0.291 0.179 46 39 29 0 0
0.0267 0.0752 -0.2845 -0.817 0.057 0.574 56 47 33 0 0
0.0250 0.0753 -0.2875 -0.682 0.359 0.637 80 67 42 0 0
0.0242 0.0766 -0.3042 -0.749 0.377 0.545 47 35 19 0 0
0.0254 0.0768 -0.3062 -0.630 0.141 0.763 36 24 8 0 0
0.0236 0.0768 -0.3075 -0.882 0.228 0.413 32 21 6 0 0
0.0241 0.0770 -0.3093 -0.960 -0.008 0.281 44 35 19 0 0
0.0223 0.0771 -0.3122 -0.872 0.060 0.487 121 111 88 0 0
0.0215 0.0772 -0.3137 -0.872 0.060 0.487 64 52 28 0 0
0.0215 0.0773 -0.3154 -0.980 0.193 0.055 72 59 38 0 0
-0.0530 0.0792 -0.3775 -0.907 0.305 0.291 106 96 78 0 0
-0.1748 0.0811 -0.4632 -0.869 0.310 0.384 83 72 56 0 0
-0.1493 0.0976 -0.6655 -0.933 0.172 0.317 64 49 27 0 0
-0.1508 0.0977 -0.6684 -0.948 0.133 0.290 85 68 41 0 0
-0.1530 0.0981 -0.6748 -0.897 0.197 0.397 59 42 23 0 0
-0.1536 0.0982 -0.6764 -0.897 0.197 0.397 68 52 31 0 0
-0.1549 0.0984 -0.6794 -0.982 -0.144 0.124 116 94 63 0 0
-0.1563 0.1001 -0.7025 -0.814 0.300 0.497 62 52 37 0 0
-0.1574 0.1002 -0.7037 -0.774 0.364 0.519 71 60 44 0 0
-0.1596 0.1006 -0.7102 -0.915 -0.120 0.385 67 55 37 0 0
-0.1600 0.1007 -0.7119 -0.784 0.078 0.616 54 42 25 0 0
-0.1612 0.1008 -0.7131 -0.737 0.094 0.669 48 35 19 0 0
-0.1644 0.1009 -0.7168 -0.860 0.372 0.349 135 117 88 0 0
-0.1650 0.1010 -0.7184 -0.860 0.372 0.349 134 114 82 0 0
-0.1636 0.1013 -0.7214 -0.856 0.278 0.435 111 94 64 0 0
-0.1645 0.1018 -0.7290 -0.965 0.234 0.115 92 80 62 0 0
-0.1533 0.1075 -0.7967 -0.956 0.018 0.293 27 20 14 0 0
-0.1706 0.1090 -0.8255 -0.833 0.379 0.403 83 67 38 0 0
0.0314 0.0763 -0.2755 -0.908 -0.275 0.318 50 40 27 0 0
0.0294 0.0763 -0.2767 -0.819 0.197 0.539 41 31 20 0 0
0.0268 0.0785 -0.3065 -0.512 0.597 0.618 41 33 12 0 0
0.0253 0.0786 -0.3078 -0.719 0.529 0.451 43 34 15 0 0
0.0247 0.0787 -0.3094 -0.675 0.528 0.516 54 43 26 0 0
0.0233 0.0789 -0.3124 -0.851 0.362 0.381 93 82 62 0 0
0.0245 0.0791 -0.3145 -0.977 0.028 -0.210 75 63 42 0 0
0.0235 0.0791 -0.3159 -0.993 -0.064 -0.096 72 59 36 0 0
0.0232 0.0793 -0.3175 -0.889 0.058 0.453 61 46 23 0 0
-0.1744 0.0819 -0.4533 -0.584 0.664 0.468 76 67 47 0 0
-0.1753 0.0819 -0.4545 -0.584 0.664 0.468 63 53 34 0 0
-0.1725 0.0828 -0.4643 -0.658 0.749 0.076 80 73 59 0 0
-0.1211 0.0992 -0.6505 -0.497 0.577 0.647 95 82 65 0 0
-0.1488 0.0997 -0.6717 -0.782 0.003 0.624 91 73 45 0 0
-0.1554 0.1003 -0.6830 -0.987 -0.055 0.153 139 120 79 0 0
-0.1543 0.1020 -0.7038 -0.612 0.535 0.582 54 45 32 0 0
-0.1557 0.1020 -0.7048 -0.531 0.471 0.704 72 60 43 0 0
-0.1609 0.1024 -0.7132 -0.951 -0.066 0.302 56 44 28 0 0
-0.1633 0.1030 -0.7215 -0.946 0.124 0.299 100 83 52 0 0
-0.1663 0.1030 -0.7234 -0.893 0.312 0.325 171 152 116 0 0
-0.1639 0.1036 -0.7293 -0.991 0.130 0.045 95 84 64 0 0
-0.1551 0.1093 -0.7993 -0.847 0.216 0.485 36 28 19 0 0
-0.1549 0.1095 -0.8017 -0.808 0.114 0.578 39 29 20 0 0
-0.1572 0.1094 -0.8019 -0.839 -0.071 0.539 43 32 24 0 0
-0.1700 0.1130 -0.8545 -0.820 0.505 0.270 104 93 66 0 0
-0.1705 0.1131 -0.8563 -0.820 0.505 0.270 82 72 50 0 0
-0.1710 0.1132 -0.8581 -0.820 0.505 0.270 72 66 45 0 0
0.0320 0.0780 -0.2756 -0.912 0.300 0.280 69 57 37 0 0
0.0316 0.0781 -0.2771 -0.884 0.354 0.306 61 48 32 0 0
