ply
format ascii 1.0
element vertex 860
property float x
property float y
property float z
property float nx
property float ny
property float nz
property uchar diffuse_red
property uchar diffuse_green
property uchar diffuse_blue
property uchar class
property uchar detection
end_header
0.0533 0.0604 -0.3503 0.803 0.595 0.027 32 21 9 0 0
0.0185 0.0378 -0.6862 0.875 -0.305 0.377 127 113 85 0 0
0.0187 0.0378 -0.6882 0.896 -0.180 0.406 146 130 98 0 0
0.0195 0.0380 -0.6897 0.896 -0.180 0.406 140 124 90 0 0
0.0361 0.0406 -0.7959 0.896 0.385 0.219 152 133 91 0 0
0.0259 0.0348 -0.8685 0.927 -0.104 0.360 116 112 107 0 0
0.0265 0.0350 -0.8702 0.893 -0.253 0.371 132 128 124 0 0
0.0595 0.0623 -0.3100 0.997 0.017 0.072 98 83 55 0 0
0.0585 0.0618 -0.3134 0.992 -0.096 0.085 97 83 54 0 0
0.0586 0.0618 -0.3165 0.998 -0.058 -0.025 99 85 57 0 0
-0.0429 0.0214 -0.4542 0.894 -0.213 0.394 26 21 18 0 0
-0.0422 0.0216 -0.4557 0.894 -0.213 0.394 19 13 13 0 0
-0.0425 0.0214 -0.4578 0.969 0.102 0.223 31 23 21 0 0
-0.0418 0.0217 -0.4593 0.955 0.214 0.204 35 24 21 0 0
-0.0396 0.0224 -0.4602 0.844 -0.156 0.513 35 24 20 0 0
-0.0354 0.0220 -0.5212 0.977 -0.077 0.200 130 115 87 0 0
-0.0356 0.0219 -0.5232 0.911 -0.237 0.337 124 109 77 0 0
-0.0355 0.0218 -0.5251 0.947 -0.111 0.302 132 115 85 0 0
0.0201 0.0363 -0.6917 0.903 -0.412 0.124 127 111 81 0 0
0.0240 0.0321 -0.8707 0.910 -0.376 0.174 124 121 116 0 0
0.0388 0.0376 -0.8621 0.297 -0.146 0.944 151 147 145 0 0
0.0437 0.0568 -0.2576 0.995 -0.015 0.096 216 197 156 0 0
-0.0404 0.0213 -0.4292 0.997 0.080 0.010 78 71 61 0 0
-0.0404 0.0213 -0.4310 0.997 0.080 0.010 70 63 54 0 0
-0.0417 0.0199 -0.4595 0.654 -0.122 0.746 66 55 47 0 0
-0.0408 0.0201 -0.4610 0.899 0.062 0.434 56 44 37 0 0
-0.0405 0.0202 -0.4627 0.722 0.174 0.669 35 26 20 0 0
-0.0382 0.0210 -0.4635 0.841 0.105 0.531 31 24 16 0 0
-0.0375 0.0212 -0.4651 0.637 0.412 0.651 58 49 38 0 0
0.0355 0.0368 -0.7906 0.984 0.076 0.162 148 127 86 0 0
0.0191 0.0284 -0.8685 0.888 -0.361 -0.283 75 70 62 0 0
0.0260 0.0308 -0.8695 0.883 -0.425 0.198 130 127 123 0 0
0.0388 0.0356 -0.8627 0.278 -0.107 0.955 155 151 148 0 0
0.0548 0.0588 -0.2683 0.820 0.241 0.520 132 111 81 0 0
0.0580 0.0591 -0.2920 0.945 0.319 0.077 77 64 39 0 0
0.0578 0.0590 -0.2936 0.524 0.601 0.603 79 66 38 0 0
0.0583 0.0591 -0.2950 0.792 0.493 0.359 85 72 44 0 0
-0.0393 0.0200 -0.4253 0.961 0.217 -0.173 91 80 66 0 0
-0.0402 0.0196 -0.4275 0.886 0.423 -0.191 91 82 70 0 0
-0.0360 0.0187 -0.5007 0.990 0.137 0.025 92 78 51 0 0
-0.0358 0.0187 -0.5026 0.978 -0.068 0.196 118 105 76 0 0
-0.0359 0.0180 -0.5239 0.952 -0.223 0.209 111 95 68 0 0
-0.0053 0.0238 -0.6806 0.420 -0.576 0.701 76 64 47 0 0
0.0304 0.0345 -0.7447 0.983 0.100 0.152 151 133 92 0 0
0.0173 0.0257 -0.8706 0.894 -0.307 -0.326 88 83 76 0 0
0.0259 0.0289 -0.8677 0.767 -0.368 0.525 125 121 117 0 0
0.0314 0.0305 -0.8792 -0.170 0.197 0.965 176 175 172 0 0
0.0247 0.0475 -0.2338 0.982 0.170 0.078 156 138 103 0 0
0.0283 0.0487 -0.2390 0.319 0.837 0.445 140 124 90 0 0
0.0290 0.0489 -0.2403 0.413 0.808 0.420 143 127 95 0 0
0.0334 0.0502 -0.2484 0.972 0.076 0.222 166 150 112 0 0
0.0371 0.0513 -0.2550 0.796 0.464 0.389 182 163 122 0 0
0.0407 0.0526 -0.2556 0.527 0.329 0.784 205 187 144 0 0
0.0513 0.0561 -0.2633 0.836 0.246 0.491 219 204 161 0 0
0.0587 0.0578 -0.2918 0.921 0.104 0.375 79 67 43 0 0
0.0586 0.0577 -0.2934 0.904 0.428 -0.004 80 69 40 0 0
0.0584 0.0576 -0.2951 0.957 0.289 -0.014 88 76 46 0 0
-0.0390 0.0183 -0.4253 0.961 0.217 -0.173 77 65 51 0 0
-0.0394 0.0181 -0.4274 0.886 0.423 -0.191 84 74 61 0 0
-0.0401 0.0178 -0.4295 0.888 0.452 -0.083 89 79 68 0 0
-0.0391 0.0163 -0.4833 0.706 0.666 0.241 97 85 61 0 0
-0.0389 0.0164 -0.4851 0.864 0.466 0.190 93 81 57 0 0
-0.0386 0.0164 -0.4869 0.703 0.574 0.421 95 82 59 0 0
-0.0356 0.0173 -0.4912 0.822 0.522 0.229 97 83 60 0 0
-0.0368 0.0168 -0.4936 0.781 0.220 0.585 87 73 52 0 0
-0.0370 0.0167 -0.4957 0.907 0.226 0.354 112 98 75 0 0
-0.0094 0.0206 -0.6752 0.881 0.194 0.431 63 51 33 0 0
0.0306 0.0327 -0.7449 0.983 0.100 0.152 161 143 102 0 0
0.0160 0.0232 -0.8723 0.891 -0.312 -0.329 97 92 86 0 0
0.0374 0.0308 -0.8742 0.952 0.306 -0.005 177 176 173 0 0
0.0241 0.0457 -0.2340 0.968 -0.147 0.205 161 143 106 0 0
0.0313 0.0480 -0.2429 0.861 0.315 0.400 122 107 78 0 0
0.0525 0.0549 -0.2661 0.911 0.099 0.400 139 120 79 0 0
0.0555 0.0548 -0.3008 0.939 0.146 0.311 92 78 51 0 0
0.0562 0.0550 -0.3021 0.842 0.210 0.497 93 79 50 0 0
-0.0416 0.0154 -0.4303 0.889 -0.311 0.337 84 75 62 0 0
-0.0525 0.0106 -0.4555 0.591 0.124 0.797 25 20 16 0 0
-0.0387 0.0147 -0.4814 0.921 0.376 0.104 92 80 57 0 0
-0.0382 0.0148 -0.4831 0.821 0.486 0.299 78 66 44 0 0
-0.0379 0.0149 -0.4849 0.937 0.297 0.182 92 80 58 0 0
-0.0375 0.0150 -0.4866 0.886 0.305 0.350 91 79 57 0 0
-0.0371 0.0150 -0.4883 0.924 0.371 0.090 85 73 51 0 0
-0.0369 0.0150 -0.4901 0.924 0.371 0.090 95 83 61 0 0
-0.0355 0.0150 -0.5067 0.952 -0.067 0.297 99 85 63 0 0
-0.0350 0.0151 -0.5084 0.952 -0.067 0.297 103 89 67 0 0
-0.0109 0.0185 -0.6639 0.905 0.191 0.379 85 73 52 0 0
0.0259 0.0295 -0.7316 0.996 -0.011 0.092 89 74 45 0 0
0.0309 0.0304 -0.7604 0.934 0.150 0.326 141 121 83 0 0
0.0175 0.0218 -0.8692 0.920 -0.345 -0.185 88 83 77 0 0
0.0168 0.0215 -0.8721 0.915 -0.360 -0.184 107 102 98 0 0
0.0384 0.0292 -0.8739 0.939 0.286 0.193 177 176 174 0 0
0.0304 0.0461 -0.2416 0.702 0.125 0.701 126 111 80 0 0
0.0318 0.0466 -0.2428 0.861 0.315 0.400 117 101 74 0 0
0.0324 0.0467 -0.2473 0.910 -0.019 0.415 144 125 95 0 0
0.0465 0.0515 -0.2557 0.758 0.363 0.542 235 221 177 0 0
0.0485 0.0521 -0.2597 0.752 0.389 0.531 179 164 123 0 0
0.0310 0.0449 -0.2834 0.862 -0.067 0.503 64 52 38 0 0
0.0307 0.0448 -0.2850 0.574 0.094 0.813 74 64 49 0 0
0.0348 0.0462 -0.2870 0.710 0.344 0.615 55 46 33 0 0
0.0355 0.0464 -0.2883 0.713 0.180 0.677 54 45 29 0 0
0.0558 0.0532 -0.3039 0.795 0.577 0.187 103 88 59 0 0
-0.0343 0.0169 -0.4092 0.923 0.383 -0.043 69 56 42 0 0
-0.0452 0.0118 -0.4450 0.985 0.143 -0.092 42 33 24 0 0
-0.0376 0.0123 -0.5080 0.853 0.064 0.517 90 77 55 0 0
-0.0364 0.0125 -0.5171 0.932 -0.360 0.046 89 78 56 0 0
-0.0194 0.0143 -0.6425 0.852 0.003 0.524 54 42 30 0 0
-0.0182 0.0147 -0.6438 0.902 0.297 0.314 67 54 39 0 0
-0.0177 0.0148 -0.6456 0.902 0.297 0.314 63 55 36 0 0
-0.0171 0.0150 -0.6473 0.918 0.322 0.234 85 78 61 0 0
-0.0164 0.0152 -0.6490 0.894 0.320 0.315 54 46 29 0 0
-0.0157 0.0153 -0.6506 0.799 0.405 0.444 103 93 76 0 0
-0.0135 0.0160 -0.6555 0.953 0.001 0.303 63 51 34 0 0
-0.0115 0.0165 -0.6605 0.840 0.214 0.499 98 86 67 0 0
0.0293 0.0280 -0.7555 0.955 0.016 0.296 150 130 89 0 0
0.0298 0.0282 -0.7573 0.955 0.016 0.296 157 138 96 0 0
0.0311 0.0285 -0.7606 0.940 0.056 0.336 144 124 87 0 0
0.0162 0.0192 -0.8732 0.910 -0.413 -0.039 115 110 107 0 0
0.0383 0.0272 -0.8745 0.996 0.034 -0.087 178 177 175 0 0
0.0328 0.0452 -0.2472 0.760 0.518 0.392 150 134 100 0 0
0.0471 0.0501 -0.2556 0.758 0.363 0.542 228 217 174 0 0
0.0354 0.0448 -0.2869 0.742 0.323 0.587 59 50 35 0 0
0.0362 0.0450 -0.2882 0.804 0.262 0.534 58 49 34 0 0
0.0374 0.0454 -0.2894 0.638 -0.004 0.770 57 48 33 0 0
-0.0332 0.0157 -0.4035 0.950 0.302 -0.075 69 59 49 0 0
-0.0363 0.0141 -0.4175 0.952 0.287 0.108 79 70 55 0 0
-0.0379 0.0106 -0.5007 0.933 0.353 -0.070 85 72 53 0 0
-0.0378 0.0106 -0.5025 0.960 0.246 0.132 83 70 53 0 0
-0.0371 0.0108 -0.5041 0.706 0.665 0.243 101 88 71 0 0
-0.0365 0.0109 -0.5058 0.643 0.746 0.176 75 62 45 0 0
-0.0374 0.0106 -0.5081 0.535 0.829 0.165 81 68 50 0 0
-0.0470 0.0058 -0.5445 0.935 -0.328 0.138 85 73 56 0 0
-0.0470 0.0047 -0.5767 0.955 -0.014 0.295 53 40 26 0 0
-0.0467 0.0047 -0.5786 0.994 0.049 0.099 57 44 31 0 0
-0.0362 0.0075 -0.6074 0.612 0.411 0.676 72 56 36 0 0
-0.0340 0.0078 -0.6206 0.802 0.534 0.268 76 65 47 0 0
-0.0297 0.0093 -0.6243 0.769 0.144 0.622 72 61 43 0 0
-0.0286 0.0096 -0.6256 0.953 0.146 0.266 104 91 73 0 0
-0.0217 0.0116 -0.6401 0.891 -0.170 0.420 137 126 107 0 0
-0.0144 0.0138 -0.6522 0.613 0.181 0.770 123 113 96 0 0
-0.0071 0.0154 -0.6833 0.925 -0.296 0.237 95 83 64 0 0
0.0166 0.0229 -0.7157 0.988 0.057 -0.146 116 103 84 0 0
0.0286 0.0258 -0.7564 0.886 0.148 0.440 144 125 85 0 0
0.0295 0.0261 -0.7579 0.938 0.172 0.302 156 135 93 0 0
0.0301 0.0263 -0.7597 0.965 0.224 0.139 157 134 94 0 0
0.0312 0.0266 -0.7609 0.727 0.408 0.553 153 133 95 0 0
0.0186 0.0185 -0.8622 0.943 -0.154 -0.295 26 22 15 0 0
0.0172 0.0178 -0.8681 0.960 -0.177 -0.216 84 79 72 0 0
0.0204 0.0189 -0.8700 0.942 -0.323 0.091 123 119 116 0 0
0.0268 0.0421 -0.2275 0.821 0.392 0.415 148 132 97 0 0
0.0283 0.0426 -0.2286 0.655 0.417 0.630 161 145 109 0 0
0.0298 0.0430 -0.2328 0.920 0.254 0.299 155 139 101 0 0
0.0488 0.0491 -0.2583 0.696 0.378 0.611 96 84 57 0 0
0.0374 0.0439 -0.2864 0.611 0.561 0.559 50 40 28 0 0
0.0368 0.0436 -0.2881 0.691 0.239 0.682 51 41 29 0 0
0.0382 0.0441 -0.2893 0.754 0.320 0.574 50 40 29 0 0
0.0398 0.0446 -0.2904 0.647 0.213 0.732 46 36 25 0 0
0.0475 0.0458 -0.3373 0.816 -0.343 -0.466 35 25 16 0 0
-0.0226 0.0184 -0.3871 0.559 0.588 -0.585 31 23 16 0 0
-0.0478 0.0071 -0.4465 0.936 -0.104 -0.336 47 38 29 0 0
-0.0371 0.0095 -0.4871 0.997 0.046 0.058 96 82 59 0 0
-0.0370 0.0095 -0.4889 0.997 0.046 0.058 78 65 44 0 0
-0.0367 0.0095 -0.4907 0.958 -0.088 0.274 75 61 43 0 0
-0.0377 0.0091 -0.4931 0.967 0.235 -0.097 80 66 50 0 0
-0.0373 0.0089 -0.5025 0.960 0.248 0.133 88 75 58 0 0
-0.0345 0.0060 -0.6150 0.817 0.529 0.229 117 102 81 0 0
-0.0338 0.0061 -0.6167 0.677 0.620 0.396 124 111 87 0 0
-0.0262 0.0084 -0.6307 0.890 -0.050 0.454 130 118 101 0 0
-0.0134 0.0122 -0.6560 0.953 0.001 0.303 65 53 37 0 0
-0.0113 0.0126 -0.6652 0.931 -0.306 0.201 62 49 27 0 0
0.0122 0.0194 -0.7150 0.905 -0.081 0.418 122 105 82 0 0
0.0138 0.0199 -0.7181 0.962 -0.096 0.254 111 96 71 0 0
0.0242 0.0232 -0.7320 0.898 -0.073 0.433 90 78 50 0 0
0.0296 0.0240 -0.7649 0.951 -0.103 0.293 141 126 85 0 0
0.0201 0.0172 -0.8590 0.966 -0.191 -0.176 22 20 12 0 0
0.0234 0.0182 -0.8654 0.964 -0.196 0.181 114 110 107 0 0
0.0384 0.0443 -0.2414 0.656 0.377 0.654 122 107 75 0 0
0.0467 0.0469 -0.2544 0.728 0.295 0.618 121 106 79 0 0
0.0396 0.0433 -0.2796 0.816 0.414 -0.402 34 26 16 0 0
0.0383 0.0426 -0.2862 0.484 0.692 0.535 41 31 21 0 0
0.0548 0.0476 -0.3141 0.931 -0.168 0.326 118 104 75 0 0
0.0548 0.0476 -0.3157 0.941 -0.304 0.149 114 99 69 0 0
0.0504 0.0455 -0.3284 0.931 -0.317 -0.178 112 99 65 0 0
0.0503 0.0454 -0.3300 0.941 0.001 -0.338 100 88 58 0 0
-0.0333 0.0118 -0.4129 0.979 0.012 -0.201 74 64 52 0 0
-0.0437 0.0074 -0.4300 0.966 -0.190 0.174 74 65 51 0 0
-0.0467 0.0056 -0.4462 0.947 -0.121 -0.297 56 48 39 0 0
-0.0378 0.0080 -0.4705 0.743 0.156 0.651 76 63 43 0 0
-0.0367 0.0084 -0.4719 0.844 0.227 0.485 73 60 40 0 0
-0.0490 -0.0005 -0.5927 0.934 -0.131 0.334 116 104 87 0 0
-0.0347 0.0039 -0.6154 0.990 -0.010 0.141 129 113 92 0 0
-0.0349 0.0037 -0.6176 0.944 0.072 0.323 125 110 85 0 0
-0.0343 0.0039 -0.6193 0.759 0.165 0.630 118 103 82 0 0
-0.0277 0.0060 -0.6278 0.900 0.081 0.428 67 54 34 0 0
-0.0276 0.0060 -0.6298 0.689 0.007 0.724 96 83 67 0 0
-0.0170 0.0075 -0.6950 0.977 -0.192 -0.094 46 36 28 0 0
-0.0046 0.0114 -0.7123 0.247 -0.038 0.968 78 70 57 0 0
0.0242 0.0213 -0.7324 0.952 -0.082 0.294 83 72 44 0 0
0.0157 0.0132 -0.8681 0.941 -0.215 -0.263 86 82 73 0 0
0.0186 0.0143 -0.8679 0.968 -0.211 -0.136 107 102 97 0 0
0.0229 0.0159 -0.8665 0.960 -0.233 0.153 123 119 117 0 0
0.0319 0.0192 -0.8678 -0.037 -0.094 0.995 162 161 159 0 0
0.0523 0.0468 -0.2697 0.906 -0.199 -0.373 48 39 24 0 0
0.0428 0.0429 -0.2787 0.938 -0.012 -0.347 32 24 14 0 0
0.0389 0.0413 -0.2830 0.736 0.626 -0.260 32 23 15 0 0
0.0388 0.0412 -0.2846 0.594 0.803 -0.055 39 30 22 0 0
0.0400 0.0416 -0.2858 0.480 0.820 0.313 45 36 27 0 0
0.0405 0.0418 -0.2872 0.371 0.701 0.610 45 36 27 0 0
0.0410 0.0419 -0.2886 0.490 0.756 0.434 45 36 27 0 0
0.0427 0.0425 -0.2897 0.760 0.440 0.478 40 31 22 0 0
0.0446 0.0432 -0.2907 0.978 0.124 0.166 35 25 17 0 0
0.0519 0.0450 -0.3120 0.752 0.015 0.659 106 92 63 0 0
0.0513 0.0442 -0.3298 0.829 0.323 -0.457 85 70 48 0 0
-0.0125 0.0190 -0.3765 0.747 0.619 -0.244 62 51 35 0 0
-0.0261 0.0133 -0.3941 0.534 0.707 -0.463 37 29 21 0 0
-0.0327 0.0104 -0.4075 0.876 0.279 -0.394 83 73 60 0 0
-0.0448 0.0038 -0.4644 0.950 -0.007 0.313 53 42 31 0 0
-0.0498 -0.0027 -0.5914 0.814 -0.203 0.544 121 109 90 0 0
-0.0460 -0.0015 -0.5975 0.940 0.079 0.332 74 61 40 0 0
-0.0289 0.0037 -0.6268 0.934 0.150 0.325 93 81 62 0 0
-0.0273 0.0042 -0.6300 0.711 0.141 0.689 87 76 56 0 0
-0.0101 0.0075 -0.7123 0.709 0.147 0.689 65 55 46 0 0
0.0215 0.0184 -0.7305 0.874 -0.261 0.410 80 64 41 0 0
0.0269 0.0200 -0.7416 0.894 0.119 0.433 139 117 86 0 0
0.0277 0.0202 -0.7432 0.894 0.119 0.433 153 133 97 0 0
0.0141 0.0105 -0.8724 0.929 -0.277 -0.245 115 111 107 0 0
0.0325 0.0173 -0.8701 -0.109 -0.040 0.993 170 167 165 0 0
0.0202 0.0352 -0.2186 0.256 0.527 0.810 158 141 109 0 0
0.0328 0.0393 -0.2338 0.940 0.132 0.314 145 129 92 0 0
0.0493 0.0439 -0.2722 0.895 0.036 -0.444 35 26 15 0 0
0.0462 0.0426 -0.2762 0.844 0.239 -0.480 34 25 16 0 0
0.0418 0.0409 -0.2791 0.664 0.635 -0.395 33 24 14 0 0
0.0501 0.0422 -0.3271 0.821 0.095 0.563 113 100 67 0 0
0.0489 0.0417 -0.3291 0.963 -0.212 0.168 87 74 48 0 0
-0.0172 0.0151 -0.3855 0.440 0.764 -0.472 59 52 35 0 0
-0.0086 0.0060 -0.7138 0.467 -0.134 0.874 75 66 54 0 0
0.0138 0.0084 -0.8708 0.910 -0.327 -0.256 107 103 98 0 0
0.0127 0.0079 -0.8742 0.941 -0.268 -0.206 124 120 117 0 0
0.0219 0.0343 -0.2182 0.262 0.494 0.829 167 152 119 0 0
0.0263 0.0357 -0.2218 0.820 0.223 0.528 150 131 95 0 0
0.0487 0.0425 -0.2617 0.962 0.133 0.240 55 39 23 0 0
0.0482 0.0419 -0.2742 0.854 0.141 -0.501 38 28 16 0 0
0.0467 0.0412 -0.2762 0.949 0.077 -0.306 39 29 19 0 0
0.0446 0.0401 -0.2846 0.482 0.822 0.305 34 25 16 0 0
-0.0328 0.0067 -0.4078 0.906 -0.114 -0.409 95 86 71 0 0
-0.0408 0.0032 -0.4220 0.972 -0.012 -0.233 82 73 58 0 0
-0.0529 -0.0026 -0.4571 0.756 0.227 0.614 37 33 27 0 0
-0.0519 -0.0023 -0.4585 0.727 0.171 0.665 44 37 29 0 0
-0.0486 -0.0029 -0.5070 0.999 -0.013 0.044 104 91 73 0 0
-0.0485 -0.0029 -0.5089 0.983 0.017 0.183 93 80 63 0 0
-0.0086 0.0041 -0.7142 0.467 -0.134 0.874 80 70 55 0 0
0.0222 0.0143 -0.7438 0.914 0.097 0.395 132 114 81 0 0
0.0226 0.0144 -0.7457 0.940 -0.011 0.341 135 116 82 0 0
0.0282 0.0161 -0.7567 0.909 0.093 0.406 151 131 94 0 0
0.0166 0.0075 -0.8689 0.497 -0.416 0.762 116 112 108 0 0
0.0183 0.0081 -0.8697 0.497 -0.416 0.762 131 127 125 0 0
0.0310 0.0131 -0.8631 0.790 -0.280 0.545 154 151 146 0 0
0.0336 0.0137 -0.8725 -0.155 -0.020 0.988 177 173 170 0 0
0.0395 0.0384 -0.2383 0.761 0.315 0.567 73 55 38 0 0
0.0392 0.0383 -0.2399 0.710 0.080 0.700 89 73 54 0 0
0.0487 0.0395 -0.2976 0.917 0.350 0.192 97 84 57 0 0
0.0428 0.0363 -0.3251 0.956 -0.183 0.230 123 107 76 0 0
-0.0073 0.0160 -0.3681 0.803 0.592 0.070 49 40 30 0 0
-0.0396 0.0020 -0.4181 0.937 -0.073 -0.341 79 70 55 0 0
-0.0546 -0.0051 -0.4561 0.645 0.495 0.583 24 21 15 0 0
-0.0484 -0.0048 -0.5091 0.983 0.017 0.183 103 90 71 0 0
-0.0548 -0.0093 -0.5643 0.983 -0.156 0.094 59 47 35 0 0
-0.0073 0.0027 -0.7115 0.941 -0.099 0.322 87 75 60 0 0
-0.0070 0.0027 -0.7135 0.848 -0.188 0.495 82 70 54 0 0
0.0236 0.0128 -0.7476 0.955 0.127 0.269 156 140 103 0 0
0.0400 0.0370 -0.2383 0.786 0.297 0.542 67 50 35 0 0
0.0391 0.0366 -0.2400 0.740 -0.047 0.671 74 58 44 0 0
0.0500 0.0399 -0.2600 0.932 -0.170 0.319 56 43 24 0 0
-0.0115 0.0119 -0.3856 0.635 0.727 -0.261 42 31 16 0 0
-0.0292 0.0046 -0.4050 0.630 0.306 -0.714 67 57 44 0 0
-0.0341 0.0025 -0.4105 0.823 0.124 -0.554 86 75 58 0 0
-0.0484 -0.0067 -0.5094 0.940 0.339 -0.020 97 84 65 0 0
-0.0178 -0.0018 -0.6759 0.984 -0.004 -0.176 83 69 50 0 0
-0.0072 0.0007 -0.7140 0.854 -0.320 0.410 92 79 62 0 0
0.0158 0.0087 -0.7277 0.818 -0.016 0.575 133 116 91 0 0
0.0226 0.0106 -0.7444 0.953 0.140 0.270 152 132 97 0 0
0.0226 0.0105 -0.7466 0.970 0.121 0.212 156 138 99 0 0
0.0230 0.0106 -0.7485 0.971 0.190 0.142 149 132 90 0 0
0.0253 0.0110 -0.7599 0.987 0.029 0.156 152 134 93 0 0
0.0062 -0.0007 -0.8744 0.864 -0.344 -0.367 99 94 91 0 0
0.0262 0.0311 -0.2159 0.691 0.657 0.303 162 148 117 0 0
0.0492 0.0379 -0.2619 0.827 0.230 0.514 63 46 26 0 0
-0.0062 0.0132 -0.3594 0.746 0.483 0.458 25 18 13 0 0
-0.0351 0.0002 -0.4129 0.810 0.111 -0.576 95 83 66 0 0
-0.0183 -0.0039 -0.6745 0.980 -0.187 0.067 82 69 44 0 0
-0.0075 -0.0014 -0.7146 0.776 -0.228 0.589 95 82 65 0 0
0.0236 0.0089 -0.7484 0.991 0.075 0.108 135 117 78 0 0
0.0101 -0.0012 -0.8738 0.545 -0.033 0.838 125 121 120 0 0
0.0440 0.0322 -0.3154 0.917 0.128 0.378 129 116 84 0 0
0.0398 0.0302 -0.3249 0.710 -0.488 0.507 113 99 72 0 0
0.0437 0.0317 -0.3252 0.705 -0.070 0.705 97 83 63 0 0
-0.0054 0.0118 -0.3592 0.746 0.483 0.458 21 15 12 0 0
-0.0051 0.0118 -0.3625 0.957 0.179 0.228 22 16 12 0 0
-0.0065 0.0111 -0.3648 0.849 0.521 0.094 21 16 10 0 0
-0.0055 0.0114 -0.3679 0.872 0.388 0.298 28 18 11 0 0
-0.0353 -0.0017 -0.4132 0.714 0.403 -0.573 84 74 58 0 0
-0.0555 -0.0108 -0.4495 0.970 -0.236 0.064 33 26 20 0 0
-0.0556 -0.0109 -0.4514 0.969 -0.189 0.158 26 21 17 0 0
-0.0287 -0.0112 -0.7102 0.986 0.162 -0.050 37 32 24 0 0
0.0227 0.0057 -0.7716 0.992 0.122 -0.027 156 138 95 0 0
0.0232 0.0058 -0.7735 0.901 -0.287 0.325 161 144 101 0 0
0.0109 -0.0028 -0.8713 0.799 0.013 0.601 119 114 112 0 0
0.0408 0.0326 -0.2368 0.801 0.540 0.258 34 23 11 0 0
0.0420 0.0328 -0.2410 0.303 0.685 0.663 53 41 25 0 0
0.0493 0.0348 -0.2620 0.737 0.538 0.409 95 83 56 0 0
0.0401 0.0287 -0.3233 0.849 -0.256 0.462 126 113 83 0 0
0.0448 0.0305 -0.3249 0.663 -0.218 0.716 74 62 48 0 0
-0.0073 0.0093 -0.3600 0.847 0.276 0.455 19 15 12 0 0
-0.0035 0.0104 -0.3690 0.749 0.603 0.275 43 30 19 0 0
-0.0320 -0.0021 -0.4102 0.656 0.323 -0.682 80 72 58 0 0
-0.0362 -0.0039 -0.4156 0.864 0.386 -0.324 77 68 54 0 0
-0.0333 -0.0116 -0.6297 0.891 0.141 0.432 95 81 58 0 0
-0.0087 -0.0059 -0.7163 0.653 0.005 0.757 96 83 65 0 0
0.0122 0.0016 -0.7251 0.808 0.410 0.424 101 86 61 0 0
0.0147 0.0025 -0.7276 0.689 0.599 0.409 106 95 66 0 0
0.0157 0.0028 -0.7290 0.755 0.638 0.153 135 123 94 0 0
0.0170 0.0032 -0.7303 0.805 0.303 0.510 84 72 48 0 0
0.0179 0.0035 -0.7318 0.798 0.493 0.346 72 62 39 0 0
0.0178 0.0034 -0.7340 0.709 0.247 0.660 88 78 53 0 0
0.0219 0.0033 -0.7750 0.949 0.283 0.139 153 135 93 0 0
0.0106 -0.0043 -0.8555 0.915 -0.400 0.058 87 80 60 0 0
0.0111 -0.0048 -0.8716 0.799 0.013 0.601 128 123 121 0 0
0.0312 0.0033 -0.8609 0.735 0.239 0.634 158 154 153 0 0
0.0445 0.0322 -0.2420 0.437 0.607 0.664 50 37 22 0 0
0.0487 0.0329 -0.2623 0.871 0.231 0.434 117 108 78 0 0
0.0458 0.0312 -0.2770 0.870 -0.336 0.361 103 89 61 0 0
0.0463 0.0312 -0.2816 0.942 -0.216 0.258 100 85 58 0 0
0.0416 0.0276 -0.3245 0.913 -0.312 0.264 83 72 53 0 0
-0.0047 0.0074 -0.3871 0.883 0.405 0.238 93 83 54 0 0
-0.0286 -0.0026 -0.4090 0.457 0.577 -0.677 81 71 60 0 0
-0.0326 -0.0043 -0.4125 0.614 0.532 -0.583 86 76 62 0 0
-0.0568 -0.0149 -0.4485 0.849 -0.468 0.243 37 33 22 0 0
-0.0550 -0.0203 -0.5926 0.842 -0.225 0.490 63 50 33 0 0
-0.0462 -0.0177 -0.6105 0.725 0.169 0.668 81 70 50 0 0
-0.0215 -0.0108 -0.6713 0.948 -0.124 0.294 150 135 107 0 0
-0.0226 -0.0115 -0.6763 0.979 -0.203 0.032 81 69 49 0 0
-0.0107 -0.0086 -0.7158 0.711 -0.191 0.677 97 86 66 0 0
-0.0007 -0.0050 -0.7197 0.658 0.038 0.752 109 95 74 0 0
0.0176 0.0015 -0.7302 0.805 0.303 0.510 85 74 54 0 0
0.0182 0.0017 -0.7320 0.959 0.251 0.132 77 65 44 0 0
0.0095 -0.0067 -0.8546 0.915 -0.400 0.058 106 98 76 0 0
0.0090 -0.0073 -0.8645 0.920 -0.340 -0.194 41 41 34 0 0
0.0081 -0.0080 -0.8724 0.958 -0.164 0.236 120 116 113 0 0
0.0092 -0.0077 -0.8738 0.799 -0.111 0.592 134 130 128 0 0
0.0448 0.0294 -0.2728 0.833 0.547 -0.085 107 92 65 0 0
0.0430 0.0278 -0.2937 0.777 -0.426 0.464 104 90 62 0 0
0.0431 0.0278 -0.2953 0.965 -0.243 0.095 105 92 61 0 0
-0.0043 0.0066 -0.3679 0.849 0.368 0.379 70 55 43 0 0
-0.0259 -0.0033 -0.4081 0.321 0.699 -0.639 85 75 61 0 0
-0.0300 -0.0050 -0.4116 0.536 0.604 -0.590 89 80 65 0 0
-0.0538 -0.0173 -0.4858 0.750 -0.059 0.659 70 58 43 0 0
-0.0593 -0.0223 -0.5541 0.989 -0.108 0.104 61 52 40 0 0
-0.0632 -0.0241 -0.5623 0.943 -0.223 -0.248 46 38 28 0 0
-0.0638 -0.0244 -0.5647 0.900 -0.349 0.260 42 35 27 0 0
-0.0633 -0.0243 -0.5664 0.900 -0.349 0.260 35 29 23 0 0
-0.0352 -0.0161 -0.6252 0.937 0.226 0.265 92 81 63 0 0
-0.0340 -0.0157 -0.6266 0.965 0.148 0.216 96 85 64 0 0
-0.0337 -0.0157 -0.6285 0.830 -0.101 0.548 103 90 63 0 0
-0.0290 -0.0141 -0.6340 0.778 0.026 0.628 71 61 40 0 0
-0.0225 -0.0133 -0.6744 0.970 -0.242 0.011 94 82 60 0 0
0.0182 -0.0002 -0.7302 0.854 0.249 0.457 88 75 58 0 0
0.0197 -0.0005 -0.7509 0.989 0.134 -0.065 154 136 97 0 0
0.0070 -0.0098 -0.8572 0.800 -0.449 0.398 78 73 56 0 0
0.0450 0.0295 -0.2344 0.988 0.056 0.143 52 38 24 0 0
0.0426 0.0261 -0.2923 0.797 -0.140 0.588 110 96 69 0 0
0.0433 0.0263 -0.2937 0.887 -0.086 0.454 105 91 63 0 0
0.0431 0.0256 -0.3081 0.983 -0.178 -0.051 120 105 76 0 0
0.0437 0.0257 -0.3095 0.962 -0.179 0.205 121 106 77 0 0
0.0422 0.0246 -0.3229 0.706 0.461 0.538 59 50 34 0 0
-0.0082 0.0040 -0.3539 0.764 0.445 0.467 37 28 23 0 0
-0.0075 0.0042 -0.3554 0.853 0.258 0.455 30 22 19 0 0
-0.0070 0.0043 -0.3569 0.893 0.241 0.379 24 16 13 0 0
-0.0029 0.0047 -0.3849 0.940 0.337 -0.049 66 51 29 0 0
-0.0234 -0.0041 -0.4073 0.297 0.646 -0.703 73 61 45 0 0
-0.0273 -0.0058 -0.4107 0.347 0.627 -0.697 85 73 59 0 0
-0.0592 -0.0231 -0.5301 0.606 -0.057 0.793 43 39 30 0 0
-0.0596 -0.0242 -0.5505 0.878 -0.358 0.318 70 61 47 0 0
-0.0651 -0.0268 -0.5636 0.963 -0.172 -0.206 43 37 27 0 0
-0.0647 -0.0268 -0.5654 0.934 -0.321 0.156 33 27 21 0 0
-0.0642 -0.0266 -0.5672 0.693 -0.088 0.715 28 23 18 0 0
-0.0376 -0.0188 -0.6207 0.869 -0.085 0.487 69 56 43 0 0
-0.0361 -0.0182 -0.6218 0.959 0.038 0.280 43 33 23 0 0
-0.0353 -0.0181 -0.6256 0.982 -0.136 0.131 100 88 68 0 0
-0.0349 -0.0180 -0.6274 0.833 -0.139 0.535 107 95 73 0 0
-0.0277 -0.0162 -0.6504 0.961 0.131 0.242 42 31 14 0 0
-0.0131 -0.0135 -0.7162 0.312 -0.124 0.942 103 90 71 0 0
-0.0115 -0.0129 -0.7172 0.202 0.053 0.978 107 93 74 0 0
0.0178 -0.0020 -0.7244 0.784 0.472 0.402 144 129 99 0 0
0.0061 -0.0121 -0.8561 0.889 -0.368 0.271 101 93 73 0 0
0.0068 -0.0120 -0.8579 0.889 -0.368 0.271 49 46 35 0 0
0.0134 -0.0099 -0.8687 0.623 -0.345 0.702 135 131 130 0 0
-0.0051 0.0107 -0.1864 0.931 0.331 -0.152 178 178 178 0 0
-0.0043 0.0110 -0.1878 0.998 -0.016 -0.068 178 178 179 0 0
0.0338 0.0244 -0.2161 0.712 0.201 0.673 209 189 146 0 0
0.0372 0.0254 -0.2213 0.857 0.289 0.427 76 60 32 0 0
0.0378 0.0256 -0.2227 0.857 0.289 0.427 68 52 27 0 0
0.0430 0.0252 -0.2782 0.876 0.463 0.133 101 86 60 0 0
0.0433 0.0252 -0.2797 0.876 0.463 0.133 103 89 62 0 0
0.0435 0.0253 -0.2811 0.777 0.572 0.262 131 120 89 0 0
0.0438 0.0253 -0.2826 0.887 0.361 0.288 122 109 79 0 0
0.0449 0.0257 -0.2839 0.879 0.255 0.403 112 98 71 0 0
0.0458 0.0260 -0.2852 0.699 0.060 0.712 112 98 70 0 0
-0.0067 0.0028 -0.3552 0.681 0.524 0.512 28 20 17 0 0
-0.0074 0.0024 -0.3572 0.714 0.681 0.165 25 17 13 0 0
-0.0039 0.0034 -0.3663 0.732 0.542 0.413 57 42 29 0 0
-0.0403 -0.0129 -0.4179 0.638 -0.111 -0.762 84 75 63 0 0
-0.0587 -0.0254 -0.5422 0.962 0.159 -0.220 55 47 36 0 0
-0.0650 -0.0288 -0.5638 0.984 -0.054 -0.168 37 30 24 0 0
-0.0647 -0.0287 -0.5657 0.959 -0.211 0.189 33 25 20 0 0
-0.0640 -0.0285 -0.5674 0.945 -0.171 0.278 44 35 27 0 0
-0.0624 -0.0281 -0.5706 0.644 -0.198 0.739 64 52 37 0 0
-0.0272 -0.0180 -0.6504 0.942 -0.127 0.309 55 44 24 0 0
0.0186 -0.0036 -0.7241 0.784 0.472 0.402 141 126 96 0 0
0.0177 -0.0055 -0.7600 0.913 -0.105 0.394 129 110 78 0 0
0.0190 -0.0051 -0.7612 0.933 0.205 0.295 151 131 95 0 0
0.0209 -0.0046 -0.7664 0.920 -0.154 0.362 138 121 83 0 0
0.0231 -0.0040 -0.7735 0.986 0.128 0.110 151 134 93 0 0
0.0234 -0.0040 -0.7756 0.986 0.128 0.110 170 151 112 0 0
0.0067 -0.0141 -0.8585 0.959 -0.284 0.004 27 26 17 0 0
0.0371 0.0238 -0.2214 0.761 0.338 0.553 64 49 23 0 0
0.0439 0.0249 -0.2562 0.832 0.296 0.469 82 66 44 0 0
0.0430 0.0245 -0.2580 0.815 0.062 0.576 76 61 39 0 0
0.0424 0.0229 -0.2895 0.574 0.415 0.706 114 100 71 0 0
0.0437 0.0233 -0.2907 0.648 0.676 0.351 110 96 67 0 0
0.0442 0.0233 -0.2937 0.833 0.469 0.295 109 95 66 0 0
0.0446 0.0234 -0.2951 0.833 0.469 0.295 110 96 67 0 0
0.0423 0.0225 -0.2974 0.945 0.051 0.324 111 97 68 0 0
0.0427 0.0223 -0.3053 0.991 0.022 0.130 112 99 67 0 0
0.0429 0.0223 -0.3068 0.991 0.022 0.130 116 103 71 0 0
-0.0535 -0.0203 -0.4291 0.873 -0.269 -0.406 84 78 64 0 0
-0.0671 -0.0315 -0.5631 0.954 -0.296 -0.056 38 31 22 0 0
-0.0672 -0.0317 -0.5653 0.895 -0.258 0.365 35 27 20 0 0
-0.0625 -0.0301 -0.5710 0.512 -0.002 0.859 64 56 42 0 0
-0.0620 -0.0300 -0.5728 0.976 0.014 0.219 43 33 23 0 0
-0.0634 -0.0309 -0.5818 0.971 -0.238 0.022 38 28 16 0 0
-0.0626 -0.0307 -0.5835 0.915 -0.254 0.314 68 56 44 0 0
-0.0422 -0.0243 -0.6178 0.854 -0.052 0.518 116 103 79 0 0
-0.0312 -0.0207 -0.6321 0.872 0.020 0.490 55 45 29 0 0
-0.0219 -0.0209 -0.7166 0.607 -0.294 0.739 111 98 81 0 0
0.0183 -0.0073 -0.7600 0.768 0.315 0.558 151 133 95 0 0
0.0189 -0.0071 -0.7617 0.922 0.276 0.270 158 139 101 0 0
0.0058 -0.0167 -0.8645 0.896 -0.437 0.076 56 53 48 0 0
0.0130 -0.0142 -0.8702 0.457 -0.195 0.868 145 144 141 0 0
0.0339 -0.0059 -0.8658 0.340 -0.539 0.770 173 172 168 0 0
-0.0036 0.0074 -0.2000 0.151 0.983 0.106 131 122 104 0 0
-0.0033 0.0075 -0.2015 0.440 0.888 0.131 131 122 104 0 0
-0.0029 0.0075 -0.2029 0.440 0.888 0.131 130 121 101 0 0
-0.0028 0.0075 -0.2044 0.413 0.910 0.047 127 115 94 0 0
0.0012 0.0088 -0.2098 0.148 0.918 0.368 142 127 97 0 0
0.0025 0.0093 -0.2110 0.133 0.886 0.445 144 130 103 0 0
0.0366 0.0221 -0.2201 0.713 0.325 0.621 72 57 33 0 0
0.0375 0.0224 -0.2214 0.712 0.329 0.620 76 61 37 0 0
0.0440 0.0239 -0.2440 0.727 0.318 0.608 80 68 45 0 0
0.0452 0.0242 -0.2483 0.856 -0.162 0.491 104 95 66 0 0
0.0470 0.0246 -0.2539 0.942 0.082 0.326 93 80 53 0 0
0.0451 0.0237 -0.2560 0.814 0.526 0.246 85 72 45 0 0
0.0435 0.0230 -0.2595 0.835 0.106 0.539 82 67 45 0 0
0.0442 0.0219 -0.2906 0.666 0.744 0.053 109 95 66 0 0
0.0412 0.0202 -0.3027 0.981 -0.110 0.160 109 96 66 0 0
0.0411 0.0200 -0.3043 0.934 -0.203 0.295 110 97 65 0 0
-0.0028 0.0000 -0.3714 0.974 0.227 0.005 53 39 20 0 0
-0.0037 -0.0012 -0.3910 0.974 0.124 0.188 60 44 24 0 0
-0.0610 -0.0265 -0.4590 0.639 0.689 0.341 85 76 64 0 0
-0.0554 -0.0254 -0.4836 0.965 0.261 0.026 70 58 42 0 0
-0.0669 -0.0334 -0.5633 0.994 -0.026 -0.109 35 28 23 0 0
-0.0628 -0.0327 -0.5839 0.883 0.108 0.457 98 86 72 0 0
-0.0407 -0.0259 -0.6214 0.951 -0.034 0.306 39 30 20 0 0
-0.0324 -0.0231 -0.6311 0.792 0.127 0.597 59 46 29 0 0
-0.0192 -0.0217 -0.7129 0.834 -0.163 0.527 101 88 73 0 0
-0.0199 -0.0220 -0.7155 0.634 0.346 0.692 111 98 81 0 0
0.0181 -0.0094 -0.7606 0.950 0.148 0.276 142 124 85 0 0
0.0055 -0.0188 -0.8629 0.968 -0.224 0.113 38 37 31 0 0
0.0085 -0.0180 -0.8699 0.837 -0.333 0.435 128 127 124 0 0
0.0116 -0.0168 -0.8696 0.647 -0.267 0.715 141 140 139 0 0
0.0438 0.0221 -0.2457 0.806 0.266 0.529 82 69 44 0 0
0.0467 0.0230 -0.2510 0.944 0.047 0.327 106 95 66 0 0
0.0471 0.0230 -0.2540 0.911 0.241 0.335 109 98 68 0 0
0.0412 0.0191 -0.2885 0.862 -0.111 0.495 109 95 66 0 0
-0.0125 -0.0046 -0.3525 0.690 0.332 0.643 20 15 11 0 0
-0.0045 -0.0017 -0.3566 0.836 0.473 0.279 27 20 12 0 0
-0.0548 -0.0245 -0.4281 0.831 -0.472 -0.296 96 89 77 0 0
-0.0612 -0.0285 -0.4593 0.733 0.534 0.421 75 64 52 0 0
-0.0550 -0.0271 -0.4836 0.965 0.261 0.026 51 38 24 0 0
-0.0551 -0.0273 -0.4856 0.964 0.258 -0.060 48 36 22 0 0
-0.0174 -0.0231 -0.7164 0.339 0.461 0.820 110 97 80 0 0
0.0039 -0.0153 -0.7275 0.694 -0.149 0.704 148 135 101 0 0
0.0142 -0.0117 -0.7352 0.995 0.102 0.000 89 74 52 0 0
0.0081 -0.0202 -0.8708 0.836 -0.363 0.412 135 134 133 0 0
0.0115 -0.0189 -0.8702 0.655 -0.239 0.717 146 144 144 0 0
0.0233 -0.0141 -0.8669 0.430 0.114 0.896 165 164 162 0 0
-0.0044 0.0044 -0.1865 0.617 0.715 0.330 133 121 96 0 0
-0.0034 0.0047 -0.1878 0.419 0.902 0.107 143 131 104 0 0
-0.0011 0.0055 -0.1904 0.179 0.984 -0.003 149 134 100 0 0
-0.0009 0.0055 -0.1919 0.202 0.979 -0.010 136 119 88 0 0
0.0008 0.0061 -0.1931 0.045 0.996 0.079 125 108 78 0 0
0.0015 0.0063 -0.1945 0.048 0.984 0.172 131 114 84 0 0
0.0030 0.0068 -0.1972 0.014 0.988 0.154 137 121 90 0 0
0.0333 0.0179 -0.2134 0.758 0.475 0.448 137 122 102 0 0
0.0339 0.0181 -0.2148 0.758 0.475 0.448 160 139 104 0 0
0.0346 0.0183 -0.2161 0.758 0.475 0.448 118 98 61 0 0
0.0438 0.0205 -0.2458 0.858 0.093 0.504 73 58 35 0 0
0.0458 0.0208 -0.2560 0.843 0.503 0.192 88 74 49 0 0
0.0450 0.0203 -0.2593 0.784 0.349 0.513 87 70 48 0 0
-0.0034 -0.0031 -0.3564 0.595 0.728 0.342 27 20 14 0 0
-0.0613 -0.0304 -0.4595 0.887 0.170 0.429 44 32 20 0 0
-0.0372 -0.0289 -0.6305 0.923 -0.025 0.384 92 80 58 0 0
-0.0353 -0.0284 -0.6357 0.910 0.089 0.405 68 56 38 0 0
0.0132 -0.0139 -0.7320 0.899 0.427 0.100 95 80 57 0 0
0.0142 -0.0135 -0.7334 0.974 0.089 -0.210 87 74 53 0 0
0.0194 -0.0147 -0.8032 0.794 -0.020 0.607 167 149 109 0 0
0.0199 -0.0146 -0.8051 0.965 0.120 0.232 166 147 106 0 0
0.0102 -0.0214 -0.8694 0.800 -0.185 0.571 143 142 140 0 0
0.0028 0.0053 -0.1927 0.055 0.986 0.157 120 105 75 0 0
0.0263 0.0135 -0.2136 0.144 0.224 0.964 133 120 103 0 0
0.0332 0.0162 -0.2135 0.968 -0.123 0.218 127 112 91 0 0
0.0336 0.0163 -0.2149 0.968 -0.123 0.218 125 108 77 0 0
0.0428 0.0185 -0.2461 0.928 -0.337 0.158 74 59 36 0 0
0.0453 0.0181 -0.2748 0.886 0.215 -0.411 106 92 63 0 0
0.0445 0.0177 -0.2767 0.881 0.185 -0.436 107 93 64 0 0
-0.0055 -0.0074 -0.3940 0.887 0.365 0.281 71 53 31 0 0
-0.0016 -0.0059 -0.3960 0.700 0.483 0.526 81 70 51 0 0
-0.0645 -0.0338 -0.4650 0.855 -0.474 0.212 63 53 41 0 0
-0.0545 -0.0364 -0.6052 0.830 0.292 0.475 55 43 27 0 0
-0.0310 -0.0290 -0.6439 0.897 0.432 0.094 94 80 59 0 0
0.0099 -0.0236 -0.8702 0.754 -0.262 0.602 147 146 144 0 0
-0.0086 -0.0000 -0.1752 0.356 0.674 0.647 181 179 176 0 0
-0.0072 0.0005 -0.1764 0.356 0.674 0.647 180 178 171 0 0
0.0261 0.0119 -0.2121 0.399 -0.060 0.915 138 128 107 0 0
0.0294 0.0132 -0.2129 0.628 -0.348 0.696 132 123 102 0 0
0.0378 0.0157 -0.2276 0.806 0.302 0.510 61 49 28 0 0
0.0459 0.0172 -0.2639 0.985 0.167 0.035 119 105 78 0 0
0.0465 0.0174 -0.2652 0.907 0.417 -0.065 115 101 74 0 0
0.0464 0.0172 -0.2684 0.896 0.374 0.238 105 91 63 0 0
0.0336 0.0098 -0.3186 0.971 -0.059 -0.233 84 74 56 0 0
-0.0638 -0.0358 -0.4727 0.897 -0.280 0.342 112 101 77 0 0
-0.0367 -0.0328 -0.6329 0.917 -0.117 0.380 56 43 26 0 0
-0.0360 -0.0326 -0.6346 0.917 -0.117 0.380 68 56 39 0 0
-0.0339 -0.0334 -0.6697 0.961 -0.036 0.273 85 72 50 0 0
-0.0338 -0.0335 -0.6718 0.856 0.476 0.202 61 46 25 0 0
-0.0132 -0.0275 -0.7168 0.555 -0.075 0.829 101 88 70 0 0
0.0078 -0.0263 -0.8678 0.479 -0.133 0.868 131 130 126 0 0
0.0077 -0.0265 -0.8703 0.268 -0.043 0.962 144 143 141 0 0
0.0086 -0.0262 -0.8719 0.137 0.010 0.991 153 152 150 0 0
0.0254 0.0100 -0.2124 0.288 0.529 0.799 137 128 109 0 0
0.0259 0.0101 -0.2138 0.255 0.008 0.967 134 125 104 0 0
0.0449 0.0158 -0.2503 0.852 -0.158 0.500 83 69 42 0 0
0.0368 0.0098 -0.3095 0.947 -0.319 -0.029 120 107 74 0 0
0.0367 0.0097 -0.3112 0.947 -0.319 -0.029 130 118 85 0 0
-0.0750 -0.0463 -0.5586 0.798 -0.549 -0.250 28 26 21 0 0
-0.0660 -0.0446 -0.5976 0.879 -0.061 0.473 109 98 80 0 0
-0.0272 -0.0324 -0.6635 0.774 0.518 0.364 94 82 61 0 0
-0.0354 -0.0376 -0.7039 0.989 0.150 -0.015 14 13 10 0 0
-0.0131 -0.0295 -0.7171 0.538 -0.013 0.843 105 93 73 0 0
-0.0085 -0.0277 -0.7183 0.901 0.147 0.409 137 123 98 0 0
0.0080 -0.0284 -0.8682 0.479 -0.133 0.868 141 141 136 0 0
0.0088 -0.0281 -0.8698 0.391 -0.180 0.902 149 148 145 0 0
0.0415 0.0130 -0.2467 1.000 0.007 0.001 90 78 52 0 0
0.0363 0.0079 -0.3098 0.953 -0.302 0.022 134 121 86 0 0
0.0360 0.0077 -0.3115 0.947 -0.319 -0.029 150 140 103 0 0
-0.0060 -0.0129 -0.3929 0.954 -0.085 0.289 68 53 30 0 0
-0.0796 -0.0503 -0.5634 0.787 -0.511 -0.346 15 14 12 0 0
-0.0292 -0.0353 -0.6652 0.987 0.034 0.158 76 63 43 0 0
-0.0369 -0.0399 -0.6964 0.961 0.258 0.096 46 39 31 0 0
-0.0359 -0.0399 -0.7047 0.975 0.003 -0.223 12 11 9 0 0
-0.0311 -0.0385 -0.7147 0.418 0.187 0.889 86 76 64 0 0
-0.0293 -0.0378 -0.7157 0.418 0.187 0.889 76 66 54 0 0
-0.0128 -0.0313 -0.7173 0.567 -0.022 0.823 110 97 77 0 0
-0.0109 -0.0306 -0.7181 0.473 0.062 0.879 103 88 67 0 0
-0.0084 -0.0296 -0.7186 0.844 0.198 0.499 94 80 56 0 0
0.0082 -0.0238 -0.7330 0.725 0.322 0.609 91 77 50 0 0
0.0092 -0.0235 -0.7345 0.615 0.550 0.565 84 71 48 0 0
0.0085 -0.0238 -0.7371 0.938 0.268 0.220 91 76 53 0 0
0.0083 -0.0240 -0.7395 0.901 0.432 -0.031 107 93 67 0 0
0.0092 -0.0238 -0.7411 0.937 -0.028 0.348 130 116 86 0 0
0.0071 -0.0309 -0.8695 0.652 -0.304 0.695 146 145 141 0 0
0.0079 -0.0306 -0.8712 0.497 -0.231 0.836 153 152 148 0 0
0.0153 0.0036 -0.1934 0.567 0.798 0.206 133 117 84 0 0
0.0157 0.0037 -0.1949 0.567 0.798 0.206 137 121 87 0 0
0.0165 0.0040 -0.1962 0.588 0.736 0.335 140 124 90 0 0
0.0175 0.0043 -0.1975 0.639 0.658 0.398 140 124 90 0 0
0.0186 0.0047 -0.1988 0.844 0.527 -0.100 139 123 90 0 0
0.0192 0.0046 -0.2047 0.819 0.504 0.275 128 113 90 0 0
0.0264 0.0072 -0.2107 0.440 0.222 0.870 128 117 99 0 0
0.0283 0.0079 -0.2118 0.387 0.305 0.870 143 132 111 0 0
0.0406 0.0111 -0.2470 0.995 -0.100 -0.023 71 56 33 0 0
0.0440 0.0123 -0.2507 0.675 0.164 0.720 82 67 42 0 0
0.0358 0.0075 -0.2812 0.789 0.544 0.284 107 93 64 0 0
0.0354 0.0069 -0.2893 0.819 0.573 0.029 100 87 55 0 0
0.0359 0.0061 -0.3100 0.956 -0.250 -0.156 122 109 74 0 0
-0.0055 -0.0144 -0.3911 0.992 -0.015 0.127 73 58 38 0 0
-0.0052 -0.0143 -0.3928 0.908 0.158 0.387 65 50 28 0 0
-0.0061 -0.0148 -0.3949 0.955 0.208 0.213 71 57 36 0 0
-0.0726 -0.0432 -0.4346 0.860 0.074 -0.504 34 25 21 0 0
-0.0799 -0.0473 -0.4589 0.921 -0.377 0.095 25 20 16 0 0
-0.0792 -0.0471 -0.4606 0.911 -0.365 0.190 28 23 20 0 0
-0.0335 -0.0381 -0.6468 0.931 0.331 0.154 76 62 41 0 0
-0.0341 -0.0405 -0.6906 0.900 0.303 -0.313 57 50 41 0 0
-0.0365 -0.0417 -0.6966 0.993 -0.011 0.119 38 31 24 0 0
-0.0122 -0.0331 -0.7173 0.388 0.218 0.895 113 100 81 0 0
-0.0098 -0.0322 -0.7178 0.634 0.219 0.742 118 105 84 0 0
-0.0079 -0.0315 -0.7186 0.844 0.198 0.499 120 107 83 0 0
0.0077 -0.0260 -0.7337 0.801 -0.014 0.598 87 74 48 0 0
0.0083 -0.0258 -0.7355 0.886 0.213 0.411 73 61 39 0 0
0.0091 -0.0260 -0.7460 0.921 -0.175 0.349 128 111 84 0 0
0.0034 -0.0343 -0.8684 0.738 -0.381 0.556 129 128 126 0 0
0.0066 -0.0332 -0.8705 0.576 -0.366 0.731 152 150 146 0 0
0.0071 -0.0330 -0.8724 0.769 -0.391 0.505 158 157 153 0 0
0.0171 0.0026 -0.1946 0.567 0.798 0.206 145 129 93 0 0
0.0176 0.0028 -0.1960 0.619 0.756 0.212 148 133 98 0 0
0.0183 0.0030 -0.1974 0.588 0.736 0.335 145 129 95 0 0
0.0186 0.0030 -0.1988 0.875 0.478 -0.079 139 123 90 0 0
0.0288 0.0065 -0.2118 0.440 0.222 0.870 142 130 112 0 0
0.0360 0.0054 -0.2908 0.454 0.768 0.452 101 88 56 0 0
-0.0054 -0.0146 -0.3597 0.874 0.484 -0.042 41 28 19 0 0
-0.0061 -0.0166 -0.3951 0.943 0.257 0.210 84 71 51 0 0
-0.0793 -0.0487 -0.4530 0.982 -0.133 -0.136 28 26 24 0 0
-0.0792 -0.0488 -0.4550 0.995 0.094 0.018 22 18 19 0 0
-0.0751 -0.0510 -0.5327 0.755 -0.630 -0.182 26 23 21 0 0
-0.0861 -0.0580 -0.5842 0.482 -0.770 0.418 46 41 35 0 0
-0.0877 -0.0588 -0.5872 0.464 -0.624 0.628 65 58 51 0 0
-0.0675 -0.0512 -0.5972 0.800 -0.029 0.599 93 84 70 0 0
-0.0271 -0.0388 -0.6732 0.754 0.498 0.429 63 54 37 0 0
-0.0369 -0.0440 -0.6973 0.998 0.044 0.041 26 19 15 0 0
-0.0379 -0.0450 -0.7090 0.720 -0.105 0.686 36 32 29 0 0
-0.0300 -0.0421 -0.7146 0.567 0.438 0.698 71 60 51 0 0
-0.0113 -0.0347 -0.7170 0.512 0.260 0.819 112 99 80 0 0
-0.0089 -0.0338 -0.7176 0.745 0.224 0.628 106 93 74 0 0
-0.0074 -0.0333 -0.7187 0.886 0.099 0.452 114 103 79 0 0
-0.0062 -0.0328 -0.7200 0.680 -0.008 0.733 150 139 111 0 0
0.0075 -0.0284 -0.7409 0.965 -0.022 0.262 116 102 73 0 0
0.0078 -0.0284 -0.7429 0.941 0.021 0.337 132 117 86 0 0
0.0143 0.0005 -0.1817 0.575 0.778 0.254 143 127 92 0 0
0.0145 0.0005 -0.1831 0.510 0.666 0.544 132 116 82 0 0
0.0153 0.0008 -0.1845 0.468 0.676 0.569 135 119 85 0 0
0.0166 0.0013 -0.1857 0.532 0.777 0.337 140 124 90 0 0
0.0176 0.0015 -0.1885 0.608 0.664 0.436 144 128 94 0 0
0.0181 0.0017 -0.1899 0.743 0.553 0.377 143 127 93 0 0
0.0185 0.0017 -0.1914 0.784 0.576 0.233 149 134 100 0 0
0.0195 0.0019 -0.1972 0.578 0.806 0.124 148 133 102 0 0
0.0193 0.0017 -0.1987 0.888 0.436 -0.145 124 110 83 0 0
0.0364 0.0044 -0.2812 0.894 0.142 0.425 98 82 54 0 0
0.0202 -0.0041 -0.3204 0.636 -0.500 -0.588 27 21 15 0 0
-0.0048 -0.0161 -0.3596 0.879 0.463 -0.111 52 39 25 0 0
-0.0761 -0.0528 -0.5213 0.912 -0.398 -0.103 79 73 65 0 0
-0.0896 -0.0617 -0.5906 0.538 -0.439 0.720 64 59 53 0 0
-0.0877 -0.0610 -0.5917 0.520 -0.473 0.711 73 68 62 0 0
-0.0643 -0.0522 -0.6021 0.818 -0.093 0.568 49 44 36 0 0
-0.0492 -0.0470 -0.6187 0.843 0.413 0.346 77 64 48 0 0
-0.0469 -0.0462 -0.6216 0.877 -0.027 0.480 136 120 97 0 0
-0.0273 -0.0408 -0.6715 0.735 0.665 0.133 79 70 55 0 0
-0.0267 -0.0407 -0.6733 0.778 0.594 0.205 65 56 40 0 0
-0.0361 -0.0457 -0.6971 0.994 -0.103 0.044 18 14 13 0 0
-0.0254 -0.0425 -0.7185 0.639 -0.209 0.740 98 87 73 0 0
-0.0077 -0.0353 -0.7171 0.921 0.254 0.296 121 106 86 0 0
-0.0071 -0.0351 -0.7189 0.921 0.254 0.296 138 124 98 0 0
0.0367 0.0029 -0.2797 0.872 -0.118 0.475 93 79 50 0 0
0.0216 -0.0051 -0.3184 0.634 -0.481 -0.606 36 27 16 0 0
-0.0055 -0.0199 -0.3934 0.928 0.079 0.364 75 61 39 0 0
-0.0759 -0.0544 -0.5154 0.822 -0.548 -0.155 97 88 77 0 0
-0.0792 -0.0565 -0.5292 0.732 -0.674 -0.099 9 6 4 0 0
-0.0643 -0.0542 -0.6024 0.898 -0.163 0.410 54 47 38 0 0
0.0017 -0.0342 -0.7306 0.607 0.464 0.645 104 88 64 0 0
0.0035 -0.0335 -0.7314 0.819 0.233 0.524 90 75 50 0 0
-0.0049 -0.0436 -0.8628 0.905 -0.344 -0.253 36 32 28 0 0
-0.0049 -0.0441 -0.8724 0.921 -0.387 0.033 128 125 124 0 0
0.0096 -0.0379 -0.8646 0.430 -0.079 0.900 148 147 145 0 0
0.0045 -0.0405 -0.8762 0.669 -0.400 0.626 166 165 163 0 0
0.0360 0.0016 -0.2689 0.925 0.343 0.165 86 72 45 0 0
0.0363 0.0016 -0.2704 0.945 -0.326 0.005 91 77 50 0 0
0.0378 0.0017 -0.2794 0.898 0.070 0.434 92 78 49 0 0
0.0378 0.0016 -0.2810 0.982 -0.172 0.081 97 83 54 0 0
-0.0056 -0.0217 -0.3936 0.940 -0.021 0.339 86 73 50 0 0
-0.0016 -0.0201 -0.3938 0.570 0.122 0.813 105 93 69 0 0
-0.0805 -0.0544 -0.4405 0.934 0.153 0.324 45 38 30 0 0
-0.0794 -0.0578 -0.5153 0.690 0.113 0.715 90 82 73 0 0
-0.0775 -0.0572 -0.5184 0.529 0.453 0.718 73 66 62 0 0
-0.0834 -0.0602 -0.5294 0.699 -0.709 -0.094 5 5 5 0 0
-0.0834 -0.0604 -0.5336 0.732 -0.674 -0.099 6 5 5 0 0
-0.0841 -0.0608 -0.5360 0.732 -0.674 -0.099 5 6 6 0 0
-0.0307 -0.0467 -0.6810 0.783 -0.099 0.615 80 70 54 0 0
0.0060 -0.0345 -0.7323 0.849 0.102 0.519 88 74 47 0 0
0.0048 -0.0366 -0.7621 0.940 0.097 0.328 157 139 100 0 0
-0.0055 -0.0460 -0.8638 0.889 -0.431 -0.154 55 51 46 0 0
-0.0055 -0.0464 -0.8711 0.925 -0.380 -0.014 124 120 119 0 0
-0.0055 -0.0465 -0.8735 0.894 -0.423 0.146 137 134 133 0 0
0.0153 -0.0380 -0.8721 0.207 -0.428 0.880 173 172 168 0 0
-0.0101 -0.0129 -0.1560 0.959 0.110 0.259 178 179 178 0 0
-0.0069 -0.0121 -0.1645 0.222 0.613 0.758 144 130 103 0 0
0.0154 -0.0033 -0.1711 0.518 0.697 0.495 137 121 89 0 0
0.0231 -0.0019 -0.2042 0.827 0.278 0.489 86 74 53 0 0
0.0009 -0.0177 -0.3323 0.981 -0.087 -0.171 112 99 72 0 0
-0.0801 -0.0562 -0.4406 0.934 0.153 0.324 60 51 40 0 0
-0.0803 -0.0601 -0.5139 0.690 0.113 0.715 99 92 85 0 0
-0.0790 -0.0596 -0.5153 0.690 0.113 0.715 70 66 62 0 0
-0.0782 -0.0594 -0.5170 0.923 -0.052 0.382 29 25 23 0 0
-0.0764 -0.0588 -0.5181 0.638 -0.113 0.762 8 5 5 0 0
-0.1146 -0.0780 -0.5899 0.425 -0.265 0.866 28 25 21 0 0
-0.0592 -0.0566 -0.6107 0.928 -0.235 0.291 83 73 56 0 0
0.0042 -0.0372 -0.7317 0.833 0.187 0.520 91 80 51 0 0
0.0048 -0.0386 -0.7626 0.802 0.455 0.386 161 142 104 0 0
0.0073 -0.0378 -0.7675 0.851 0.102 0.515 168 149 110 0 0
-0.0059 -0.0486 -0.8695 0.905 -0.425 0.005 117 114 113 0 0
-0.0031 -0.0474 -0.8695 0.920 -0.359 0.161 132 128 128 0 0
-0.0067 -0.0491 -0.8750 0.882 -0.344 0.323 143 140 139 0 0
0.0362 -0.0021 -0.2769 0.768 0.000 0.640 94 78 52 0 0
0.0363 -0.0022 -0.2785 0.922 -0.076 0.379 98 82 56 0 0
0.0371 -0.0019 -0.2798 0.822 0.099 0.561 103 89 62 0 0
-0.0079 -0.0249 -0.3683 0.978 0.084 0.193 82 66 45 0 0
-0.0856 -0.0614 -0.4606 0.969 -0.244 -0.046 4 4 4 0 0
-0.0892 -0.0634 -0.4701 0.960 0.260 0.103 12 11 9 0 0
-0.0799 -0.0618 -0.5120 0.747 -0.613 -0.258 45 41 37 0 0
-0.0808 -0.0623 -0.5144 0.730 -0.666 -0.151 33 29 25 0 0
-0.0819 -0.0629 -0.5170 0.715 -0.695 -0.074 16 11 10 0 0
-0.0823 -0.0632 -0.5192 0.707 -0.702 -0.084 9 6 6 0 0
-0.0797 -0.0664 -0.5992 0.932 -0.056 0.357 48 40 38 0 0
-0.0785 -0.0660 -0.6007 0.802 -0.186 0.567 48 40 37 0 0
-0.0326 -0.0515 -0.6808 0.913 -0.112 0.392 79 70 51 0 0
-0.0173 -0.0472 -0.7166 0.607 0.226 0.762 82 71 57 0 0
-0.0159 -0.0467 -0.7179 0.607 0.226 0.762 116 103 85 0 0
0.0030 -0.0395 -0.7286 0.589 0.403 0.700 99 84 57 0 0
-0.0010 -0.0484 -0.8658 0.910 -0.355 0.214 125 124 122 0 0
-0.0005 -0.0483 -0.8678 0.910 -0.355 0.214 140 136 135 0 0
0.0113 -0.0081 -0.1674 0.272 0.502 0.821 141 124 99 0 0
0.0150 -0.0066 -0.1683 0.840 -0.083 0.536 131 115 89 0 0
0.0232 -0.0042 -0.1847 0.887 0.262 0.380 109 97 73 0 0
0.0233 -0.0042 -0.1861 0.779 0.293 0.554 96 83 62 0 0
0.0256 -0.0038 -0.1977 0.800 0.458 -0.387 48 35 20 0 0
0.0337 -0.0031 -0.2463 0.993 0.019 0.114 76 61 36 0 0
0.0357 -0.0037 -0.2708 0.985 -0.159 -0.072 93 79 52 0 0
0.0358 -0.0037 -0.2724 0.995 -0.067 -0.068 94 80 53 0 0
0.0356 -0.0038 -0.2740 0.999 0.026 -0.035 96 80 54 0 0
0.0353 -0.0042 -0.2773 0.806 0.113 0.581 93 77 51 0 0
0.0360 -0.0039 -0.2787 0.898 0.230 0.375 98 82 56 0 0
0.0367 -0.0037 -0.2801 0.792 0.119 0.599 99 84 58 0 0
0.0368 -0.0038 -0.2816 0.889 0.348 0.298 98 86 58 0 0
-0.0019 -0.0224 -0.3335 0.799 0.386 0.461 157 139 97 0 0
-0.0012 -0.0222 -0.3349 0.807 0.359 0.469 166 149 106 0 0
-0.0093 -0.0263 -0.3498 0.823 0.433 -0.368 133 118 85 0 0
-0.0068 -0.0253 -0.3506 0.963 0.238 -0.124 124 107 80 0 0
-0.0776 -0.0593 -0.4457 0.922 0.345 0.173 44 36 29 0 0
-0.0896 -0.0649 -0.4586 0.814 -0.203 -0.544 3 3 3 0 0
-0.0862 -0.0637 -0.4611 0.978 -0.185 -0.094 4 4 4 0 0
-0.0793 -0.0632 -0.5058 0.835 -0.467 -0.292 23 18 14 0 0
-0.0835 -0.0654 -0.5139 0.747 -0.613 -0.258 10 10 9 0 0
-0.0800 -0.0686 -0.5997 0.854 -0.191 0.484 69 61 55 0 0
-0.0476 -0.0566 -0.6237 0.766 0.165 0.621 132 126 107 0 0
-0.0210 -0.0506 -0.7152 0.491 0.488 0.722 76 68 59 0 0
-0.0167 -0.0490 -0.7166 0.576 0.161 0.801 98 84 67 0 0
0.0066 -0.0420 -0.7644 0.832 -0.055 0.552 156 136 99 0 0
0.0085 -0.0413 -0.7651 0.705 0.262 0.659 168 148 113 0 0
-0.0094 -0.0540 -0.8663 0.877 -0.469 -0.100 84 81 76 0 0
-0.0010 -0.0506 -0.8663 0.776 -0.440 0.452 134 133 131 0 0
-0.0018 -0.0511 -0.8694 0.706 -0.466 0.533 146 142 141 0 0
0.0091 -0.0105 -0.1649 0.380 0.323 0.867 139 122 101 0 0
0.0155 -0.0080 -0.1667 0.930 -0.033 0.367 161 147 115 0 0
0.0155 -0.0080 -0.1682 0.775 -0.175 0.608 139 124 97 0 0
0.0239 -0.0056 -0.1861 0.894 -0.095 0.438 80 69 52 0 0
0.0343 -0.0060 -0.2729 0.950 -0.059 0.306 91 77 50 0 0
0.0368 -0.0052 -0.2769 0.603 0.057 0.795 89 73 47 0 0
0.0370 -0.0052 -0.2785 0.767 0.089 0.635 97 81 55 0 0
0.0010 -0.0228 -0.3309 0.639 0.710 0.296 153 133 96 0 0
-0.0080 -0.0276 -0.3512 0.986 0.041 -0.163 142 124 95 0 0
-0.0068 -0.0272 -0.3525 0.995 -0.015 0.099 125 108 78 0 0
-0.0067 -0.0272 -0.3542 0.996 0.043 -0.078 128 113 80 0 0
-0.0929 -0.0689 -0.4701 0.966 0.190 0.174 4 3 4 0 0
-0.0818 -0.0663 -0.5073 0.847 -0.455 -0.276 27 24 23 0 0
-0.1114 -0.0833 -0.5956 0.288 0.140 0.947 39 35 32 0 0
-0.0517 -0.0601 -0.6200 0.784 -0.068 0.617 77 64 45 0 0
-0.0474 -0.0585 -0.6239 0.864 0.116 0.489 155 143 123 0 0
-0.0376 -0.0562 -0.6543 0.961 -0.186 0.207 108 96 72 0 0
-0.0182 -0.0514 -0.7136 0.797 -0.078 0.599 82 73 61 0 0
-0.0162 -0.0508 -0.7167 0.576 0.161 0.801 106 91 74 0 0
0.0056 -0.0437 -0.7520 0.658 0.365 0.658 152 131 98 0 0
-0.0111 -0.0568 -0.8658 0.870 -0.484 -0.094 73 71 65 0 0
-0.0034 -0.0536 -0.8664 0.855 -0.429 0.290 129 128 124 0 0
-0.0017 -0.0530 -0.8674 0.776 -0.440 0.452 141 140 138 0 0
0.0082 -0.0124 -0.1636 0.581 0.395 0.711 122 106 80 0 0
0.0100 -0.0117 -0.1647 0.556 0.137 0.820 122 108 85 0 0
0.0249 -0.0075 -0.1994 0.765 0.203 0.611 43 30 19 0 0
0.0348 -0.0052 -0.2323 0.984 -0.085 0.154 76 62 36 0 0
0.0343 -0.0077 -0.2730 0.950 -0.059 0.306 92 77 50 0 0
0.0358 -0.0071 -0.2741 0.917 0.389 0.089 82 65 39 0 0
0.0372 -0.0067 -0.2769 0.608 0.162 0.777 92 78 51 0 0
0.0376 -0.0066 -0.2784 0.785 0.299 0.543 98 84 57 0 0
-0.0133 -0.0340 -0.3957 0.670 -0.389 0.632 113 106 88 0 0
-0.0926 -0.0708 -0.4702 0.981 0.191 0.037 6 4 3 0 0
-0.0856 -0.0700 -0.5093 0.765 -0.597 -0.243 39 38 36 0 0
-0.0867 -0.0706 -0.5119 0.774 -0.540 -0.331 31 29 29 0 0
-0.0908 -0.0726 -0.5179 0.747 -0.613 -0.258 22 22 23 0 0
-0.1205 -0.0889 -0.5921 0.665 0.015 0.747 25 24 20 0 0
-0.1162 -0.0871 -0.5920 0.324 0.123 0.938 26 25 21 0 0
-0.0879 -0.0758 -0.5983 0.460 -0.030 0.887 57 52 46 0 0
-0.0825 -0.0737 -0.5995 0.458 -0.085 0.885 64 59 55 0 0
-0.0802 -0.0728 -0.6004 0.576 -0.093 0.812 67 62 58 0 0
-0.0718 -0.0695 -0.6042 0.888 0.075 0.453 70 63 56 0 0
-0.0479 -0.0608 -0.6245 0.954 0.030 0.300 100 89 71 0 0
-0.0282 -0.0574 -0.7099 0.401 0.047 0.915 58 52 47 0 0
0.0010 -0.0473 -0.7448 0.991 -0.085 0.101 125 106 76 0 0
-0.0151 -0.0608 -0.8698 0.864 -0.420 -0.278 89 88 84 0 0
-0.0060 -0.0568 -0.8668 0.816 -0.399 0.418 123 122 118 0 0
-0.0041 -0.0562 -0.8701 0.651 -0.399 0.645 149 145 142 0 0
0.0048 -0.0153 -0.1612 0.392 0.777 0.492 141 125 93 0 0
0.0059 -0.0150 -0.1625 0.561 0.728 0.394 145 131 98 0 0
0.0083 -0.0140 -0.1636 0.903 -0.221 0.368 126 112 87 0 0
0.0337 -0.0073 -0.2326 0.960 0.184 0.210 79 64 40 0 0
0.0318 -0.0083 -0.2346 0.897 0.091 0.433 84 69 46 0 0
0.0311 -0.0106 -0.2708 0.793 -0.353 0.497 94 80 53 0 0
0.0362 -0.0086 -0.2741 0.389 0.495 0.777 91 75 47 0 0
0.0377 -0.0081 -0.2753 0.389 0.495 0.777 94 79 51 0 0
0.0378 -0.0081 -0.2768 0.705 0.296 0.644 99 85 56 0 0
-0.0088 -0.0317 -0.3552 0.955 0.244 0.166 134 118 85 0 0
-0.0869 -0.0694 -0.4522 0.981 -0.086 0.175 7 6 5 0 0
-0.0380 -0.0604 -0.6553 0.925 0.107 0.364 100 88 64 0 0
-0.0379 -0.0605 -0.6574 0.983 -0.097 0.153 71 59 33 0 0
-0.0366 -0.0615 -0.6850 0.892 -0.451 -0.037 26 22 20 0 0
-0.0369 -0.0630 -0.7096 0.428 -0.497 0.754 40 35 32 0 0
-0.0330 -0.0615 -0.7114 0.817 -0.266 0.512 53 48 44 0 0
-0.0020 -0.0498 -0.7318 0.967 0.226 0.114 96 79 51 0 0
-0.0173 -0.0639 -0.8722 0.876 -0.396 -0.276 101 100 96 0 0
-0.0075 -0.0595 -0.8662 0.769 -0.354 0.533 118 117 113 0 0
-0.0063 -0.0591 -0.8676 0.769 -0.354 0.533 131 130 126 0 0
-0.0055 -0.0589 -0.8693 0.831 -0.377 0.409 143 142 138 0 0
0.0061 -0.0164 -0.1610 0.418 0.610 0.674 123 107 81 0 0
0.0069 -0.0162 -0.1624 0.852 0.341 0.397 133 119 91 0 0
0.0086 -0.0156 -0.1636 0.979 -0.060 0.196 124 111 88 0 0
0.0312 -0.0102 -0.2348 0.764 0.089 0.639 90 75 52 0 0
-0.0894 -0.0805 -0.5975 0.521 -0.079 0.850 56 51 45 0 0
-0.0477 -0.0652 -0.6315 0.921 -0.132 0.367 52 40 26 0 0
-0.0472 -0.0650 -0.6333 0.947 -0.024 0.321 54 42 27 0 0
-0.0466 -0.0649 -0.6350 0.947 -0.024 0.321 62 51 33 0 0
-0.0391 -0.0644 -0.6826 0.800 -0.505 0.323 36 30 23 0 0
-0.0390 -0.0645 -0.6847 0.838 -0.529 0.137 23 19 18 0 0
-0.0548 -0.0723 -0.7064 0.785 -0.619 -0.006 33 30 26 0 0
-0.0030 -0.0520 -0.7284 0.862 -0.079 0.502 118 103 77 0 0
-0.0002 -0.0525 -0.7577 0.979 0.201 -0.032 158 140 103 0 0
0.0005 -0.0523 -0.7595 0.967 -0.065 0.247 138 120 83 0 0
0.0161 -0.0141 -0.1638 0.846 0.346 0.405 114 99 83 0 0
0.0305 -0.0153 -0.2904 0.933 0.135 -0.332 105 91 62 0 0
-0.0993 -0.0824 -0.5206 0.926 -0.310 -0.216 52 51 49 0 0
-0.1011 -0.0833 -0.5235 0.920 -0.218 -0.325 51 51 49 0 0
-0.1174 -0.0914 -0.5461 0.880 0.099 -0.464 12 11 10 0 0
-0.1005 -0.0871 -0.5953 0.507 -0.269 0.819 54 49 45 0 0
-0.0776 -0.0782 -0.6063 0.845 -0.247 0.474 67 60 56 0 0
-0.0471 -0.0670 -0.6336 0.947 -0.024 0.321 85 75 58 0 0
-0.0468 -0.0670 -0.6355 0.949 -0.099 0.300 126 116 99 0 0
-0.0597 -0.0768 -0.7124 0.872 -0.354 0.337 33 32 27 0 0
-0.0579 -0.0761 -0.7134 0.308 -0.580 0.754 33 32 28 0 0
-0.0540 -0.0744 -0.7131 0.304 -0.604 0.737 34 33 28 0 0
0.0003 -0.0536 -0.7442 0.919 -0.128 0.372 144 125 92 0 0
0.0005 -0.0544 -0.7599 0.990 0.100 0.095 152 134 96 0 0
0.0002 -0.0547 -0.7624 0.981 -0.032 0.191 148 130 92 0 0
0.0005 -0.0546 -0.7644 0.981 -0.032 0.191 142 123 88 0 0
0.0190 -0.0146 -0.1663 0.878 0.314 0.362 137 121 97 0 0
0.0291 -0.0148 -0.2433 0.993 0.073 0.090 71 56 33 0 0
0.0293 -0.0149 -0.2448 0.902 -0.082 0.423 71 56 33 0 0
0.0305 -0.0152 -0.2602 0.870 0.228 0.437 79 65 39 0 0
