ply
format ascii 1.0
element vertex 859
property float x
property float y
property float z
property float nx
property float ny
property float nz
property uchar diffuse_red
property uchar diffuse_green
property uchar diffuse_blue
property uchar class
property uchar detection
end_header
0.0597 0.0660 -0.2791 0.822 0.109 0.559 113 101 73 0 0
0.0610 0.0656 -0.3069 0.629 0.691 -0.356 79 67 51 0 0
0.0608 0.0650 -0.3113 0.088 0.995 -0.054 81 71 57 0 0
0.0608 0.0650 -0.3127 0.206 0.978 -0.046 81 72 57 0 0
0.0612 0.0652 -0.3140 0.334 0.894 0.300 80 71 56 0 0
0.0609 0.0649 -0.3155 0.578 0.697 0.425 83 74 58 0 0
-0.0274 -0.0576 -0.7098 0.316 -0.034 0.948 67 60 50 0 0
-0.0254 -0.0555 -0.7102 0.623 0.101 0.776 73 66 56 0 0
-0.0242 -0.0543 -0.7113 0.623 0.101 0.776 76 69 59 0 0
-0.0185 -0.0482 -0.7125 0.767 0.202 0.609 81 73 62 0 0
-0.0190 -0.0489 -0.7152 0.740 0.661 0.124 87 78 67 0 0
-0.0148 -0.0442 -0.7134 -0.145 0.310 0.940 84 72 60 0 0
-0.0124 -0.0416 -0.7133 0.251 0.541 0.802 95 83 70 0 0
-0.0112 -0.0404 -0.7144 0.248 0.581 0.775 85 71 57 0 0
-0.0100 -0.0391 -0.7154 0.570 0.474 0.671 103 89 73 0 0
-0.0086 -0.0377 -0.7163 0.421 0.213 0.882 106 92 72 0 0
-0.0073 -0.0364 -0.7172 0.228 0.258 0.939 138 122 96 0 0
-0.0016 -0.0305 -0.7205 0.302 0.148 0.942 126 110 78 0 0
-0.0009 -0.0298 -0.7220 0.585 0.278 0.762 150 134 103 0 0
0.0001 -0.0288 -0.7232 0.747 0.158 0.646 142 126 96 0 0
0.0097 -0.0267 -0.8443 0.963 -0.178 -0.200 71 65 53 0 0
-0.0302 -0.0265 -0.1801 0.408 0.832 -0.376 177 176 174 0 0
-0.0269 -0.0230 -0.1809 0.933 0.205 -0.297 175 174 171 0 0
-0.0269 -0.0231 -0.1823 0.948 0.317 -0.043 173 170 164 0 0
-0.0258 -0.0220 -0.1835 0.628 0.644 0.437 169 163 151 0 0
-0.0252 -0.0214 -0.1848 0.644 0.491 0.586 158 148 130 0 0
-0.0032 0.0019 -0.1916 0.051 0.863 0.503 142 124 85 0 0
-0.0032 0.0018 -0.1943 0.238 0.890 0.388 109 94 59 0 0
-0.0015 0.0032 -0.1995 0.258 0.871 0.418 136 118 82 0 0
-0.0003 0.0044 -0.2021 0.214 0.941 0.262 150 131 91 0 0
0.0001 0.0047 -0.2034 0.214 0.941 0.262 149 130 94 0 0
0.0411 0.0472 -0.2302 0.371 0.858 0.357 200 184 135 0 0
0.0418 0.0478 -0.2327 0.387 0.863 0.325 209 191 144 0 0
0.0440 0.0502 -0.2334 0.208 0.603 0.770 209 192 145 0 0
0.0465 0.0517 -0.2519 0.475 0.799 0.368 226 210 165 0 0
0.0495 0.0542 -0.2620 0.581 0.389 0.715 207 187 144 0 0
0.0534 0.0581 -0.2663 0.974 0.215 0.072 191 171 123 0 0
0.0536 0.0582 -0.2676 0.936 0.306 0.172 181 164 117 0 0
0.0540 0.0586 -0.2688 0.859 0.246 0.448 153 133 93 0 0
0.0552 0.0598 -0.2698 0.846 0.181 0.502 124 105 71 0 0
0.0557 0.0603 -0.2710 0.959 0.095 0.267 109 92 63 0 0
0.0559 0.0604 -0.2724 0.991 0.117 0.070 100 85 58 0 0
0.0560 0.0604 -0.2737 0.980 0.185 0.074 96 83 57 0 0
0.0590 0.0622 -0.2952 0.827 -0.401 0.395 107 95 73 0 0
0.0611 0.0637 -0.3072 0.942 0.247 -0.227 101 90 72 0 0
0.0599 0.0621 -0.3106 0.987 -0.022 -0.159 100 90 73 0 0
0.0614 0.0637 -0.3114 0.833 0.553 -0.038 100 91 74 0 0
-0.0320 -0.0652 -0.7085 0.142 -0.172 0.975 63 58 53 0 0
-0.0300 -0.0630 -0.7089 0.346 -0.260 0.901 72 66 59 0 0
-0.0284 -0.0613 -0.7096 0.615 -0.187 0.766 74 67 59 0 0
-0.0267 -0.0596 -0.7103 0.551 -0.234 0.801 73 66 56 0 0
-0.0184 -0.0509 -0.7136 0.746 -0.025 0.666 86 77 66 0 0
-0.0176 -0.0500 -0.7150 0.591 0.758 0.276 90 80 68 0 0
-0.0170 -0.0495 -0.7166 -0.020 0.582 0.813 87 76 62 0 0
-0.0111 -0.0429 -0.7133 0.765 0.099 0.636 109 97 83 0 0
-0.0100 -0.0418 -0.7144 0.651 0.187 0.736 117 104 88 0 0
-0.0089 -0.0406 -0.7156 0.680 0.280 0.678 110 97 80 0 0
-0.0075 -0.0392 -0.7165 0.421 0.213 0.882 111 97 75 0 0
0.0001 -0.0314 -0.7222 0.619 0.254 0.743 135 119 91 0 0
0.0012 -0.0302 -0.7232 0.769 0.004 0.639 134 119 88 0 0
0.0027 -0.0287 -0.7240 0.894 0.071 0.443 123 107 82 0 0
-0.0307 -0.0290 -0.1761 -0.641 0.725 0.250 177 177 176 0 0
-0.0254 -0.0234 -0.1794 0.907 0.260 -0.332 169 164 152 0 0
-0.0257 -0.0239 -0.1808 0.928 0.232 -0.291 166 158 145 0 0
0.0343 0.0385 -0.2214 0.836 0.354 0.420 192 172 122 0 0
0.0429 0.0471 -0.2326 0.401 0.863 0.307 201 184 136 0 0
0.0433 0.0474 -0.2339 0.530 0.782 0.329 199 183 138 0 0
0.0440 0.0477 -0.2405 0.660 0.427 0.618 93 76 50 0 0
0.0451 0.0488 -0.2416 0.684 0.362 0.634 127 107 76 0 0
0.0452 0.0483 -0.2512 0.505 0.862 0.046 223 209 165 0 0
0.0469 0.0499 -0.2534 0.805 0.546 0.231 187 165 119 0 0
0.0505 0.0532 -0.2620 0.674 0.369 0.640 187 168 125 0 0
0.0528 0.0554 -0.2668 0.776 0.344 0.528 170 150 109 0 0
0.0534 0.0559 -0.2680 0.705 0.379 0.599 155 140 96 0 0
0.0545 0.0570 -0.2690 0.729 0.365 0.579 122 110 74 0 0
0.0551 0.0576 -0.2702 0.729 0.365 0.579 94 82 56 0 0
0.0559 0.0584 -0.2713 0.980 0.101 0.174 84 71 52 0 0
0.0561 0.0586 -0.2726 0.972 0.234 0.035 69 59 41 0 0
0.0542 0.0555 -0.2874 0.662 -0.429 0.615 67 56 39 0 0
0.0544 0.0556 -0.2887 0.864 -0.355 0.358 75 64 46 0 0
0.0537 0.0547 -0.2904 0.825 0.217 -0.521 91 80 62 0 0
0.0545 0.0552 -0.2944 0.837 -0.318 0.446 106 93 72 0 0
0.0554 0.0562 -0.2955 0.861 -0.305 0.406 107 95 73 0 0
0.0565 0.0573 -0.2965 0.931 -0.296 0.211 108 96 74 0 0
-0.0309 -0.0667 -0.7086 0.092 0.327 0.940 63 56 51 0 0
-0.0293 -0.0651 -0.7094 0.415 0.226 0.881 72 66 58 0 0
-0.0278 -0.0634 -0.7102 0.219 0.334 0.917 83 75 67 0 0
-0.0256 -0.0611 -0.7104 0.362 -0.264 0.894 80 72 63 0 0
-0.0192 -0.0544 -0.7133 0.334 0.149 0.931 91 83 72 0 0
-0.0164 -0.0514 -0.7150 0.446 0.797 0.407 106 95 81 0 0
-0.0155 -0.0506 -0.7164 0.179 0.503 0.845 102 90 76 0 0
-0.0143 -0.0493 -0.7174 0.319 0.689 0.651 106 94 78 0 0
-0.0091 -0.0435 -0.7148 0.651 0.187 0.736 92 79 63 0 0
-0.0080 -0.0423 -0.7159 0.635 0.258 0.728 107 93 77 0 0
0.0008 -0.0334 -0.7248 0.843 0.114 0.526 123 107 76 0 0
0.0026 -0.0314 -0.7252 0.945 -0.059 0.322 115 100 74 0 0
0.0164 -0.0208 -0.7864 0.870 0.433 -0.235 144 130 104 0 0
0.0006 0.0024 -0.1829 0.399 0.763 0.509 157 138 95 0 0
0.0013 0.0025 -0.1924 0.006 0.941 0.337 111 93 60 0 0
0.0015 0.0026 -0.1937 0.114 0.988 0.105 85 70 43 0 0
0.0021 0.0032 -0.1950 0.258 0.960 0.109 85 72 50 0 0
0.0297 0.0319 -0.2146 0.556 0.741 0.376 194 174 133 0 0
0.0312 0.0332 -0.2197 0.373 0.855 0.361 217 196 146 0 0
0.0315 0.0335 -0.2210 0.413 0.802 0.432 199 178 129 0 0
0.0353 0.0374 -0.2227 0.819 0.478 0.318 211 193 144 0 0
0.0358 0.0379 -0.2239 0.777 0.490 0.396 215 196 145 0 0
0.0432 0.0454 -0.2328 0.605 0.791 0.095 184 167 120 0 0
0.0448 0.0466 -0.2392 0.805 0.524 0.277 99 84 58 0 0
0.0452 0.0468 -0.2418 0.642 0.606 0.470 119 100 68 0 0
0.0458 0.0470 -0.2485 0.410 0.789 0.457 230 216 174 0 0
0.0481 0.0492 -0.2533 0.829 0.475 0.294 165 143 100 0 0
0.0540 0.0542 -0.2723 0.980 -0.176 -0.094 49 37 22 0 0
0.0538 0.0539 -0.2737 0.966 -0.202 -0.163 44 33 20 0 0
0.0535 0.0535 -0.2752 0.955 -0.213 -0.206 42 32 16 0 0
0.0525 0.0514 -0.2884 0.658 -0.227 0.718 61 49 36 0 0
0.0538 0.0529 -0.2893 0.817 -0.049 0.575 67 58 43 0 0
0.0529 0.0515 -0.2939 0.846 0.250 -0.470 101 87 70 0 0
0.0526 0.0510 -0.2955 0.985 0.170 0.034 103 91 72 0 0
0.0536 0.0521 -0.2965 0.910 -0.395 0.122 105 94 72 0 0
0.0555 0.0540 -0.2987 0.919 -0.359 0.161 107 99 76 0 0
-0.0578 -0.0926 -0.6224 0.351 0.715 0.605 206 207 211 0 0
-0.0583 -0.0933 -0.6248 0.751 0.656 0.073 207 208 212 0 0
-0.0583 -0.0935 -0.6270 0.866 0.486 -0.120 211 211 216 0 0
-0.0582 -0.0935 -0.6290 0.838 0.544 0.042 214 214 219 0 0
-0.0477 -0.0871 -0.6983 0.020 0.974 -0.228 8 6 9 0 0
-0.0463 -0.0855 -0.6992 -0.239 0.969 -0.069 8 6 7 0 0
-0.0449 -0.0841 -0.7002 -0.356 0.934 -0.042 7 5 6 0 0
-0.0429 -0.0824 -0.7073 -0.503 0.850 0.153 7 5 6 0 0
-0.0174 -0.0553 -0.7171 0.626 -0.058 0.778 98 86 71 0 0
-0.0009 -0.0376 -0.7211 0.865 0.159 0.475 137 121 96 0 0
-0.0012 -0.0381 -0.7236 0.932 0.353 0.081 154 137 111 0 0
-0.0001 -0.0372 -0.7269 0.914 0.405 0.019 142 125 95 0 0
0.0169 -0.0230 -0.7873 0.692 0.627 -0.357 149 134 110 0 0
-0.0009 -0.0008 -0.1765 0.559 0.707 0.433 142 125 98 0 0
0.0023 0.0022 -0.1827 0.373 0.634 0.677 154 135 97 0 0
0.0306 0.0308 -0.2146 0.699 0.573 0.428 191 172 129 0 0
0.0339 0.0341 -0.2192 0.642 0.165 0.749 213 191 140 0 0
0.0358 0.0359 -0.2228 0.612 0.445 0.654 211 191 140 0 0
0.0362 0.0363 -0.2240 0.792 0.452 0.410 207 187 133 0 0
0.0368 0.0368 -0.2266 0.637 0.712 0.294 191 172 121 0 0
0.0385 0.0385 -0.2275 0.757 0.468 0.457 173 157 110 0 0
0.0470 0.0463 -0.2484 0.410 0.789 0.457 203 186 147 0 0
0.0475 0.0467 -0.2496 0.311 0.896 0.317 132 113 83 0 0
0.0475 0.0466 -0.2510 0.491 0.868 0.077 124 105 74 0 0
0.0485 0.0476 -0.2521 0.721 0.646 0.249 127 107 74 0 0
0.0491 0.0482 -0.2533 0.874 0.319 0.366 141 120 85 0 0
0.0512 0.0499 -0.2623 0.941 0.061 0.331 140 120 86 0 0
0.0531 0.0513 -0.2715 0.965 -0.229 -0.130 47 39 22 0 0
0.0525 0.0506 -0.2731 0.984 -0.149 -0.101 43 33 21 0 0
0.0523 0.0502 -0.2746 0.984 -0.149 -0.101 41 30 17 0 0
0.0518 0.0496 -0.2762 0.958 -0.117 -0.261 42 31 15 0 0
0.0539 0.0509 -0.2896 0.817 -0.049 0.575 74 65 49 0 0
0.0551 0.0521 -0.2906 0.998 -0.054 0.034 85 74 58 0 0
0.0542 0.0510 -0.2924 0.931 0.026 -0.365 93 80 64 0 0
0.0527 0.0492 -0.2944 0.889 0.132 -0.439 100 88 70 0 0
0.0514 0.0477 -0.2963 0.859 0.202 -0.470 102 92 73 0 0
0.0529 0.0492 -0.2972 0.897 -0.340 0.283 103 93 73 0 0
0.0546 0.0510 -0.2979 0.810 -0.400 0.429 106 97 75 0 0
0.0546 0.0509 -0.2994 0.920 -0.389 0.037 107 99 78 0 0
0.0554 0.0516 -0.3005 0.920 -0.365 0.144 108 100 81 0 0
-0.0557 -0.0933 -0.6260 0.504 0.850 -0.152 211 211 214 0 0
-0.0545 -0.0920 -0.6271 0.519 0.827 -0.216 213 214 217 0 0
-0.0541 -0.0918 -0.6289 0.311 0.949 0.048 212 212 213 0 0
-0.0540 -0.0918 -0.6310 0.268 0.960 0.077 197 197 198 0 0
-0.0419 -0.0832 -0.6943 -0.289 0.957 0.020 10 8 10 0 0
-0.0418 -0.0832 -0.6964 -0.298 0.951 0.081 9 7 8 0 0
-0.0415 -0.0830 -0.6983 -0.271 0.962 0.026 8 6 7 0 0
-0.0404 -0.0819 -0.6996 -0.414 0.910 0.032 7 5 6 0 0
-0.0399 -0.0815 -0.7013 -0.509 0.858 0.069 7 5 6 0 0
-0.0399 -0.0816 -0.7035 -0.511 0.851 0.122 7 5 6 0 0
-0.0392 -0.0810 -0.7051 -0.513 0.854 0.087 6 4 5 0 0
-0.0364 -0.0779 -0.7049 -0.572 0.768 0.288 5 3 4 0 0
-0.0351 -0.0766 -0.7059 -0.572 0.768 0.288 5 3 4 0 0
-0.0298 -0.0709 -0.7077 -0.135 0.895 0.426 14 12 11 0 0
-0.0282 -0.0692 -0.7085 0.344 0.926 0.158 34 31 28 0 0
-0.0271 -0.0681 -0.7097 0.506 0.723 0.470 56 51 47 0 0
-0.0261 -0.0671 -0.7109 0.530 0.339 0.777 60 54 48 0 0
-0.0013 -0.0409 -0.7227 0.944 -0.070 0.321 118 103 79 0 0
0.0001 -0.0398 -0.7300 0.706 0.169 0.688 123 109 83 0 0
-0.0181 -0.0209 -0.1646 0.628 0.460 0.628 173 169 161 0 0
-0.0174 -0.0202 -0.1658 0.560 0.540 0.628 166 159 146 0 0
-0.0171 -0.0200 -0.1671 0.306 0.869 0.389 158 148 129 0 0
-0.0149 -0.0178 -0.1709 -0.446 0.785 0.431 141 126 101 0 0
-0.0135 -0.0164 -0.1721 -0.446 0.785 0.431 151 137 110 0 0
0.0041 0.0021 -0.1838 0.421 0.698 0.579 155 136 95 0 0
0.0115 0.0086 -0.2043 0.394 0.737 0.548 157 139 100 0 0
0.0131 0.0101 -0.2067 0.533 0.669 0.518 173 154 111 0 0
0.0134 0.0104 -0.2080 0.650 0.704 0.287 181 162 116 0 0
0.0348 0.0328 -0.2219 0.600 0.456 0.657 210 190 138 0 0
0.0356 0.0336 -0.2231 0.562 0.505 0.655 200 179 129 0 0
0.0369 0.0349 -0.2241 0.790 0.478 0.383 182 160 112 0 0
0.0373 0.0353 -0.2253 0.391 0.875 0.286 169 149 103 0 0
0.0419 0.0397 -0.2350 0.751 0.637 0.174 120 102 68 0 0
0.0425 0.0402 -0.2362 0.660 0.475 0.583 85 67 40 0 0
0.0435 0.0413 -0.2373 0.819 0.326 0.471 74 57 34 0 0
0.0482 0.0456 -0.2483 0.430 0.789 0.439 142 122 90 0 0
0.0508 0.0473 -0.2641 0.761 0.250 0.599 129 114 83 0 0
0.0498 0.0446 -0.2857 0.662 0.186 0.726 34 25 16 0 0
0.0530 0.0474 -0.2960 0.911 0.211 0.354 100 92 73 0 0
-0.0557 -0.0953 -0.6164 -0.309 0.690 0.654 155 155 154 0 0
-0.0544 -0.0939 -0.6174 -0.235 0.773 0.589 136 137 135 0 0
-0.0541 -0.0940 -0.6215 -0.477 0.857 0.196 116 115 114 0 0
-0.0525 -0.0924 -0.6244 -0.421 0.894 0.154 86 83 82 0 0
-0.0518 -0.0917 -0.6259 -0.426 0.885 0.187 66 63 62 0 0
-0.0513 -0.0913 -0.6277 -0.108 0.970 0.218 53 51 47 0 0
-0.0508 -0.0909 -0.6294 0.150 0.974 0.173 45 43 39 0 0
-0.0410 -0.0841 -0.6836 -0.154 0.751 0.641 23 22 18 0 0
-0.0395 -0.0828 -0.6889 -0.040 0.341 0.939 14 12 11 0 0
-0.0381 -0.0814 -0.6898 0.013 0.414 0.910 13 11 13 0 0
-0.0369 -0.0802 -0.6910 0.059 0.778 0.625 11 9 12 0 0
-0.0364 -0.0797 -0.6927 0.194 0.920 0.340 10 8 9 0 0
-0.0348 -0.0781 -0.6935 0.207 0.962 0.177 8 6 7 0 0
-0.0344 -0.0778 -0.6954 0.351 0.849 0.394 8 6 7 0 0
-0.0352 -0.0789 -0.6983 0.509 0.847 0.157 8 6 7 0 0
-0.0372 -0.0814 -0.7023 0.015 0.999 0.046 7 5 6 0 0
-0.0367 -0.0809 -0.7040 -0.064 0.986 0.157 6 4 5 0 0
-0.0333 -0.0771 -0.7031 0.118 0.942 0.315 5 3 4 0 0
-0.0328 -0.0767 -0.7049 -0.238 0.856 0.459 4 2 3 0 0
-0.0311 -0.0749 -0.7056 -0.186 0.744 0.642 4 2 3 0 0
-0.0301 -0.0740 -0.7069 -0.280 0.752 0.597 5 3 4 0 0
-0.0288 -0.0725 -0.7079 0.007 0.858 0.513 9 7 8 0 0
-0.0268 -0.0704 -0.7083 0.072 0.968 0.242 14 12 11 0 0
-0.0262 -0.0699 -0.7100 0.076 0.937 0.341 29 25 22 0 0
-0.0243 -0.0678 -0.7104 0.356 0.600 0.716 53 48 43 0 0
-0.0186 -0.0618 -0.7139 0.399 0.413 0.819 84 79 66 0 0
-0.0174 -0.0606 -0.7150 0.762 0.121 0.636 103 94 81 0 0
0.0007 -0.0420 -0.7307 0.827 -0.168 0.537 116 102 76 0 0
0.0036 -0.0388 -0.7322 0.666 -0.166 0.727 139 126 100 0 0
0.0070 -0.0352 -0.7333 0.872 0.061 0.485 144 129 105 0 0
0.0075 -0.0348 -0.7350 0.979 -0.013 0.205 141 128 103 0 0
0.0079 -0.0345 -0.7368 0.979 -0.013 0.205 133 121 96 0 0
0.0072 -0.0354 -0.7396 0.991 -0.130 -0.014 123 108 86 0 0
-0.0173 -0.0221 -0.1645 0.790 0.502 0.352 153 142 122 0 0
-0.0167 -0.0216 -0.1658 0.845 0.282 0.454 147 132 110 0 0
-0.0161 -0.0210 -0.1671 0.689 0.704 0.173 140 124 98 0 0
-0.0145 -0.0194 -0.1682 0.027 0.669 0.743 162 144 112 0 0
-0.0128 -0.0176 -0.1693 -0.028 0.577 0.817 165 146 110 0 0
-0.0117 -0.0165 -0.1705 -0.138 0.560 0.817 152 135 101 0 0
-0.0099 -0.0145 -0.1716 -0.146 0.537 0.831 171 156 117 0 0
-0.0078 -0.0123 -0.1726 -0.240 0.603 0.761 195 179 132 0 0
0.0069 0.0024 -0.1917 0.630 0.687 0.364 145 131 89 0 0
0.0078 0.0031 -0.1956 0.618 0.576 0.535 125 108 77 0 0
0.0127 0.0078 -0.2042 0.333 0.921 0.202 156 138 100 0 0
0.0360 0.0320 -0.2218 0.638 0.425 0.643 209 186 132 0 0
0.0367 0.0328 -0.2230 0.409 0.590 0.696 167 145 99 0 0
0.0420 0.0378 -0.2339 0.807 0.442 0.392 128 108 72 0 0
0.0423 0.0381 -0.2351 0.439 0.569 0.696 97 77 45 0 0
0.0511 0.0454 -0.2658 0.941 -0.172 0.290 118 106 78 0 0
0.0516 0.0456 -0.2698 0.948 -0.307 0.088 85 73 51 0 0
0.0489 0.0416 -0.2850 0.637 0.332 0.696 36 28 17 0 0
0.0506 0.0430 -0.2915 0.873 0.305 0.380 77 68 53 0 0
0.0515 0.0438 -0.2926 0.718 0.245 0.652 85 76 58 0 0
0.0504 0.0425 -0.2945 0.166 0.712 0.682 99 89 72 0 0
-0.0490 -0.0915 -0.6269 0.003 0.957 0.291 34 30 25 0 0
-0.0488 -0.0914 -0.6288 0.150 0.974 0.173 30 26 20 0 0
-0.0457 -0.0887 -0.6390 -0.290 0.925 0.247 28 21 16 0 0
-0.0452 -0.0883 -0.6408 -0.123 0.941 0.316 29 22 16 0 0
-0.0454 -0.0887 -0.6431 0.149 0.948 0.282 34 27 20 0 0
-0.0449 -0.0883 -0.6448 0.477 0.870 0.126 37 30 22 0 0
-0.0405 -0.0861 -0.6799 0.388 0.819 0.422 22 18 16 0 0
-0.0399 -0.0855 -0.6816 0.550 0.712 0.436 23 21 17 0 0
-0.0378 -0.0832 -0.6819 0.831 0.300 0.469 26 23 19 0 0
-0.0374 -0.0829 -0.6838 0.488 0.792 0.368 22 19 16 0 0
-0.0368 -0.0825 -0.6855 0.488 0.792 0.368 18 17 15 0 0
-0.0397 -0.0860 -0.6902 0.543 0.780 0.312 19 17 16 0 0
-0.0336 -0.0791 -0.6891 0.697 0.379 0.608 12 10 11 0 0
-0.0327 -0.0783 -0.6906 0.697 0.379 0.608 10 9 8 0 0
-0.0331 -0.0790 -0.6932 0.256 0.615 0.746 9 8 7 0 0
-0.0308 -0.0764 -0.6933 0.660 0.061 0.749 10 8 7 0 0
-0.0307 -0.0764 -0.6954 -0.016 0.683 0.730 11 10 9 0 0
-0.0315 -0.0775 -0.6983 -0.371 0.826 0.425 16 14 13 0 0
-0.0304 -0.0764 -0.6995 -0.417 0.850 0.322 27 24 24 0 0
-0.0292 -0.0752 -0.7006 -0.308 0.867 0.392 16 12 12 0 0
-0.0283 -0.0743 -0.7020 -0.296 0.893 0.340 9 8 7 0 0
-0.0275 -0.0736 -0.7035 -0.265 0.914 0.306 7 5 5 0 0
-0.0270 -0.0731 -0.7052 -0.392 0.896 0.210 4 2 3 0 0
-0.0270 -0.0732 -0.7074 -0.324 0.933 0.158 5 3 3 0 0
-0.0165 -0.0623 -0.7153 0.515 0.744 0.427 87 78 66 0 0
-0.0153 -0.0611 -0.7164 0.439 0.579 0.687 104 95 81 0 0
-0.0146 -0.0604 -0.7179 0.593 0.681 0.429 111 102 84 0 0
-0.0137 -0.0596 -0.7193 0.488 0.533 0.691 114 101 82 0 0
-0.0005 -0.0459 -0.7308 0.891 -0.122 0.438 104 88 64 0 0
0.0004 -0.0450 -0.7322 0.759 -0.195 0.621 121 106 82 0 0
0.0025 -0.0428 -0.7324 0.616 -0.252 0.746 138 122 98 0 0
0.0043 -0.0408 -0.7327 0.798 -0.144 0.586 142 127 103 0 0
0.0067 -0.0383 -0.7348 0.969 -0.112 0.221 155 140 115 0 0
-0.0240 -0.0307 -0.1519 0.468 0.722 0.510 178 178 178 0 0
-0.0235 -0.0304 -0.1546 0.351 0.908 0.230 177 177 176 0 0
-0.0248 -0.0320 -0.1576 0.110 0.178 0.978 178 177 171 0 0
-0.0199 -0.0269 -0.1610 0.346 0.190 0.919 157 144 127 0 0
-0.0186 -0.0255 -0.1621 0.162 0.458 0.874 152 135 114 0 0
-0.0168 -0.0237 -0.1646 0.988 0.150 0.025 161 146 109 0 0
-0.0171 -0.0242 -0.1660 1.000 -0.006 0.027 169 154 116 0 0
-0.0131 -0.0199 -0.1681 0.267 0.336 0.903 176 157 120 0 0
-0.0111 -0.0179 -0.1692 0.039 0.394 0.918 192 173 131 0 0
-0.0096 -0.0162 -0.1703 0.085 0.214 0.973 181 163 121 0 0
-0.0068 -0.0133 -0.1711 0.085 0.214 0.973 196 181 134 0 0
-0.0048 -0.0111 -0.1721 -0.006 0.396 0.918 208 191 139 0 0
-0.0029 -0.0092 -0.1745 0.463 0.564 0.683 194 174 126 0 0
0.0067 0.0002 -0.1905 0.714 0.699 0.038 135 117 83 0 0
0.0074 0.0009 -0.1918 0.764 0.430 0.481 138 124 87 0 0
0.0088 0.0021 -0.1956 0.618 0.576 0.535 142 125 91 0 0
0.0135 0.0066 -0.2042 0.882 0.350 0.316 163 146 105 0 0
0.0369 0.0311 -0.2218 0.620 0.414 0.667 184 159 109 0 0
0.0390 0.0332 -0.2226 0.474 0.696 0.540 128 105 66 0 0
0.0395 0.0337 -0.2238 0.347 0.774 0.529 106 84 54 0 0
0.0398 0.0337 -0.2279 0.905 0.191 0.380 109 86 54 0 0
0.0399 0.0336 -0.2306 0.981 0.041 0.188 109 89 55 0 0
0.0409 0.0346 -0.2317 0.799 0.471 0.375 114 95 60 0 0
0.0418 0.0356 -0.2328 0.743 0.477 0.469 129 113 77 0 0
0.0428 0.0366 -0.2339 0.429 0.694 0.579 122 106 70 0 0
0.0502 0.0404 -0.2920 0.672 0.333 0.661 67 56 41 0 0
0.0512 0.0413 -0.2931 0.422 0.447 0.789 81 72 55 0 0
0.0518 0.0419 -0.2943 0.212 0.640 0.738 101 92 75 0 0
-0.0568 -0.0999 -0.5898 -0.176 0.926 0.335 55 51 50 0 0
-0.0564 -0.0996 -0.5916 -0.082 0.953 0.292 43 39 37 0 0
-0.0555 -0.0987 -0.5930 -0.114 0.924 0.365 43 39 36 0 0
-0.0452 -0.0906 -0.6354 0.046 0.921 0.387 34 26 20 0 0
-0.0445 -0.0900 -0.6370 -0.011 0.926 0.377 32 24 18 0 0
-0.0433 -0.0889 -0.6402 -0.095 0.930 0.354 33 24 17 0 0
-0.0450 -0.0911 -0.6438 0.350 0.877 0.330 37 28 20 0 0
-0.0437 -0.0896 -0.6448 0.507 0.856 0.100 42 33 24 0 0
-0.0436 -0.0902 -0.6533 0.707 0.557 0.436 38 28 20 0 0
-0.0430 -0.0896 -0.6549 0.747 0.407 0.526 26 17 11 0 0
-0.0422 -0.0889 -0.6565 0.747 0.407 0.526 28 21 16 0 0
-0.0419 -0.0887 -0.6583 0.792 0.532 0.300 26 18 15 0 0
-0.0423 -0.0893 -0.6608 0.662 0.676 0.325 22 17 13 0 0
-0.0418 -0.0889 -0.6625 0.791 0.602 0.110 22 17 14 0 0
-0.0389 -0.0870 -0.6796 0.349 0.750 0.562 19 15 14 0 0
-0.0374 -0.0854 -0.6805 0.558 0.329 0.762 21 17 15 0 0
-0.0368 -0.0849 -0.6822 0.022 0.864 0.503 26 22 20 0 0
-0.0364 -0.0846 -0.6840 0.010 0.927 0.374 34 30 28 0 0
-0.0355 -0.0838 -0.6854 0.173 0.956 0.238 18 14 12 0 0
-0.0351 -0.0834 -0.6872 0.173 0.956 0.238 19 16 14 0 0
-0.0362 -0.0849 -0.6904 0.630 0.585 0.511 23 19 18 0 0
-0.0319 -0.0801 -0.6909 0.649 0.590 0.481 22 18 17 0 0
-0.0295 -0.0777 -0.6932 0.554 0.432 0.711 19 15 14 0 0
-0.0290 -0.0773 -0.6950 0.291 0.515 0.807 20 18 17 0 0
-0.0281 -0.0764 -0.6963 0.120 0.604 0.788 24 23 21 0 0
-0.0278 -0.0762 -0.6983 -0.062 0.771 0.634 23 21 19 0 0
-0.0274 -0.0760 -0.7001 -0.029 0.728 0.685 23 20 19 0 0
-0.0260 -0.0745 -0.7011 -0.127 0.924 0.362 25 22 18 0 0
-0.0254 -0.0740 -0.7027 0.572 0.708 0.415 24 21 17 0 0
-0.0244 -0.0729 -0.7040 -0.182 0.943 0.278 24 21 18 0 0
-0.0153 -0.0635 -0.7131 0.415 0.640 0.647 47 39 29 0 0
-0.0147 -0.0630 -0.7148 0.577 0.682 0.449 51 42 32 0 0
-0.0139 -0.0623 -0.7163 0.439 0.579 0.687 44 34 23 0 0
-0.0131 -0.0614 -0.7177 0.375 0.734 0.566 87 78 64 0 0
-0.0123 -0.0607 -0.7192 0.419 0.657 0.627 111 99 84 0 0
-0.0115 -0.0600 -0.7206 0.349 0.644 0.680 93 81 64 0 0
-0.0229 -0.0317 -0.1519 0.515 0.633 0.578 177 177 177 0 0
-0.0224 -0.0313 -0.1532 0.403 0.869 0.286 177 177 177 0 0
-0.0221 -0.0310 -0.1545 0.403 0.869 0.286 178 177 175 0 0
-0.0245 -0.0339 -0.1577 -0.050 0.348 0.936 164 158 147 0 0
-0.0222 -0.0314 -0.1587 0.133 0.451 0.883 150 140 121 0 0
-0.0203 -0.0294 -0.1598 0.411 0.231 0.882 145 131 105 0 0
-0.0192 -0.0283 -0.1610 0.346 0.190 0.919 148 133 104 0 0
-0.0170 -0.0259 -0.1620 0.510 0.205 0.836 161 146 114 0 0
0.0004 -0.0079 -0.1768 0.599 0.768 0.227 200 183 133 0 0
0.0075 -0.0005 -0.1837 0.530 0.524 0.666 168 151 103 0 0
0.0089 0.0003 -0.1916 0.782 0.337 0.524 137 119 85 0 0
0.0098 0.0010 -0.1956 0.618 0.576 0.535 149 132 97 0 0
0.0381 0.0302 -0.2217 0.957 0.027 0.287 149 126 80 0 0
0.0428 0.0346 -0.2327 0.649 0.439 0.621 115 100 69 0 0
0.0441 0.0360 -0.2337 0.624 0.560 0.545 120 105 72 0 0
0.0507 0.0406 -0.2693 0.978 -0.209 0.025 102 90 67 0 0
0.0509 0.0406 -0.2721 0.930 0.243 -0.277 94 82 57 0 0
0.0504 0.0399 -0.2736 0.890 0.262 -0.373 107 95 70 0 0
0.0479 0.0363 -0.2846 0.857 0.401 0.323 48 36 21 0 0
0.0476 0.0358 -0.2861 0.852 0.184 0.489 49 37 21 0 0
0.0506 0.0387 -0.2908 0.654 0.053 0.755 87 74 60 0 0
0.0509 0.0390 -0.2921 0.635 0.283 0.718 86 76 59 0 0
-0.0541 -0.0997 -0.5908 -0.082 0.953 0.292 37 29 23 0 0
-0.0450 -0.0929 -0.6320 0.363 0.877 0.315 36 26 17 0 0
-0.0417 -0.0895 -0.6357 0.610 0.793 -0.013 40 31 22 0 0
-0.0417 -0.0897 -0.6378 0.787 0.613 -0.071 40 31 22 0 0
-0.0417 -0.0898 -0.6400 0.767 0.622 -0.159 41 32 23 0 0
-0.0423 -0.0906 -0.6425 0.770 0.638 -0.004 41 32 21 0 0
-0.0422 -0.0908 -0.6446 0.694 0.676 0.247 42 33 22 0 0
-0.0427 -0.0914 -0.6471 0.846 0.318 0.428 48 38 28 0 0
-0.0419 -0.0909 -0.6508 0.783 0.473 0.404 42 32 22 0 0
-0.0422 -0.0914 -0.6531 0.876 0.467 0.119 42 32 23 0 0
-0.0421 -0.0915 -0.6552 0.781 0.357 0.512 39 30 22 0 0
-0.0414 -0.0908 -0.6568 0.781 0.357 0.512 32 25 18 0 0
-0.0414 -0.0910 -0.6589 0.657 0.676 0.334 26 19 13 0 0
-0.0410 -0.0906 -0.6607 0.533 0.813 0.235 23 18 14 0 0
-0.0403 -0.0900 -0.6623 0.594 0.783 0.182 22 17 14 0 0
-0.0420 -0.0928 -0.6746 0.586 0.543 0.602 33 28 24 0 0
-0.0359 -0.0866 -0.6803 0.235 0.676 0.698 20 15 14 0 0
-0.0350 -0.0857 -0.6817 0.262 0.788 0.558 24 19 16 0 0
-0.0340 -0.0847 -0.6830 0.504 0.796 0.335 25 20 15 0 0
-0.0312 -0.0821 -0.6914 0.352 0.595 0.723 36 28 23 0 0
-0.0293 -0.0801 -0.6920 0.438 0.542 0.718 37 29 24 0 0
-0.0284 -0.0792 -0.6933 0.759 0.386 0.524 37 29 24 0 0
-0.0275 -0.0784 -0.6948 0.641 0.428 0.637 39 33 27 0 0
-0.0229 -0.0738 -0.7016 0.501 0.638 0.585 36 28 24 0 0
-0.0124 -0.0633 -0.7160 0.682 0.535 0.499 40 30 20 0 0
-0.0116 -0.0626 -0.7175 0.727 0.389 0.565 52 42 32 0 0
-0.0101 -0.0611 -0.7205 0.511 0.440 0.738 63 53 41 0 0
-0.0060 -0.0570 -0.7254 0.934 -0.037 0.356 75 62 43 0 0
-0.0215 -0.0328 -0.1587 0.442 0.265 0.857 129 115 91 0 0
0.0099 -0.0006 -0.1916 0.776 0.335 0.534 144 125 91 0 0
0.0151 0.0042 -0.2042 0.747 0.352 0.564 172 158 114 0 0
0.0158 0.0046 -0.2082 0.626 0.478 0.616 123 109 81 0 0
0.0356 0.0258 -0.2171 0.828 0.413 0.380 182 158 112 0 0
0.0386 0.0286 -0.2232 0.929 -0.124 0.350 122 102 70 0 0
0.0396 0.0291 -0.2311 0.951 0.258 0.171 116 100 70 0 0
0.0408 0.0303 -0.2322 0.345 0.396 0.851 120 105 74 0 0
0.0424 0.0320 -0.2345 0.456 0.248 0.855 121 106 76 0 0
0.0432 0.0328 -0.2356 0.520 0.108 0.847 122 107 77 0 0
0.0443 0.0336 -0.2408 0.981 -0.134 0.138 130 119 86 0 0
0.0483 0.0363 -0.2633 0.994 0.096 0.052 126 114 85 0 0
0.0472 0.0334 -0.2851 0.813 0.361 0.457 67 55 39 0 0
0.0477 0.0338 -0.2864 0.913 0.068 0.402 68 57 39 0 0
0.0479 0.0340 -0.2878 0.616 -0.066 0.785 72 61 44 0 0
0.0484 0.0344 -0.2890 0.711 -0.065 0.700 85 73 57 0 0
0.0490 0.0350 -0.2903 0.648 0.130 0.750 99 88 72 0 0
0.0501 0.0361 -0.2913 0.619 0.166 0.768 107 97 81 0 0
0.0515 0.0375 -0.2922 0.672 0.221 0.707 110 101 84 0 0
-0.0548 -0.1019 -0.5737 0.244 0.858 0.452 37 33 28 0 0
-0.0523 -0.1010 -0.5986 0.745 0.635 0.203 41 33 20 0 0
-0.0417 -0.0920 -0.6325 0.587 0.513 0.627 49 39 27 0 0
-0.0414 -0.0930 -0.6492 0.966 0.218 0.140 46 36 24 0 0
-0.0408 -0.0924 -0.6508 0.811 0.234 0.536 41 31 19 0 0
-0.0401 -0.0917 -0.6524 0.870 0.416 0.265 37 28 18 0 0
-0.0407 -0.0926 -0.6551 0.599 0.576 0.557 40 32 22 0 0
-0.0400 -0.0920 -0.6567 0.637 0.568 0.521 41 34 25 0 0
-0.0343 -0.0875 -0.6800 0.235 0.676 0.698 30 24 20 0 0
-0.0332 -0.0863 -0.6812 0.512 0.713 0.479 31 26 18 0 0
-0.0325 -0.0857 -0.6828 0.504 0.796 0.335 37 33 22 0 0
-0.0307 -0.0839 -0.6856 0.463 0.851 0.249 31 24 15 0 0
-0.0295 -0.0829 -0.6889 0.604 0.583 0.544 38 30 19 0 0
-0.0289 -0.0823 -0.6905 0.664 0.484 0.570 40 30 17 0 0
-0.0280 -0.0814 -0.6919 0.438 0.542 0.718 50 41 28 0 0
-0.0274 -0.0809 -0.6936 0.759 0.386 0.524 61 52 39 0 0
-0.0263 -0.0798 -0.6948 0.766 0.266 0.585 61 50 38 0 0
-0.0198 -0.0729 -0.6998 0.821 0.049 0.569 73 63 45 0 0
-0.0143 -0.0677 -0.7102 0.345 0.844 0.410 75 67 51 0 0
-0.0137 -0.0672 -0.7118 0.340 0.794 0.505 72 62 48 0 0
-0.0131 -0.0666 -0.7134 0.748 0.576 0.329 89 79 65 0 0
-0.0127 -0.0663 -0.7152 0.873 0.421 0.245 92 85 69 0 0
-0.0118 -0.0654 -0.7166 0.691 0.367 0.623 82 73 58 0 0
-0.0108 -0.0644 -0.7179 0.711 0.325 0.623 59 49 37 0 0
-0.0061 -0.0597 -0.7244 0.947 0.032 0.318 87 77 59 0 0
-0.0040 -0.0580 -0.7313 0.983 -0.121 0.141 129 115 94 0 0
-0.0205 -0.0333 -0.1517 0.629 0.602 0.492 177 177 176 0 0
-0.0197 -0.0325 -0.1530 0.473 0.817 0.330 178 175 171 0 0
-0.0194 -0.0323 -0.1543 0.426 0.868 0.255 182 177 168 0 0
0.0108 -0.0017 -0.1916 0.781 0.350 0.518 138 119 86 0 0
0.0426 0.0304 -0.2305 0.873 0.322 0.367 110 95 65 0 0
0.0432 0.0309 -0.2331 0.912 0.345 0.221 124 109 79 0 0
0.0484 0.0344 -0.2622 0.622 0.783 0.028 123 111 85 0 0
0.0484 0.0343 -0.2636 0.827 0.561 0.039 131 120 90 0 0
0.0481 0.0333 -0.2722 0.974 -0.208 0.093 120 108 83 0 0
0.0495 0.0334 -0.2904 0.678 0.028 0.735 108 101 83 0 0
0.0504 0.0343 -0.2915 0.732 0.010 0.681 112 103 86 0 0
-0.0663 -0.1160 -0.5559 -0.496 0.784 0.374 76 73 70 0 0
-0.0642 -0.1137 -0.5565 -0.509 0.777 0.370 65 61 58 0 0
-0.0631 -0.1125 -0.5578 -0.510 0.753 0.416 65 60 57 0 0
-0.0617 -0.1111 -0.5589 -0.480 0.731 0.484 61 54 50 0 0
-0.0562 -0.1052 -0.5613 -0.369 0.819 0.438 36 29 23 0 0
-0.0560 -0.1050 -0.5631 0.072 0.853 0.516 34 27 19 0 0
-0.0555 -0.1047 -0.5649 0.541 0.783 0.307 37 29 21 0 0
-0.0551 -0.1044 -0.5666 0.710 0.647 0.276 43 34 27 0 0
-0.0546 -0.1039 -0.5683 0.758 0.622 0.197 40 32 26 0 0
-0.0528 -0.1023 -0.5732 0.298 0.862 0.411 39 31 23 0 0
-0.0523 -0.1019 -0.5748 0.303 0.897 0.321 35 27 19 0 0
-0.0511 -0.1011 -0.5821 0.238 0.971 -0.009 46 37 28 0 0
-0.0510 -0.1012 -0.5841 0.238 0.971 -0.009 46 36 27 0 0
-0.0508 -0.1015 -0.5902 0.183 0.921 0.343 40 30 20 0 0
-0.0464 -0.0970 -0.5952 0.575 0.807 -0.136 46 36 23 0 0
-0.0465 -0.0973 -0.5974 0.575 0.807 -0.136 44 34 21 0 0
-0.0465 -0.0974 -0.5994 0.572 0.819 -0.047 47 35 21 0 0
-0.0451 -0.0963 -0.6046 0.476 0.824 0.306 51 37 24 0 0
-0.0456 -0.0976 -0.6154 0.951 0.296 0.088 56 43 30 0 0
-0.0448 -0.0969 -0.6169 0.844 0.348 0.408 46 34 21 0 0
-0.0438 -0.0959 -0.6182 0.472 0.404 0.784 48 35 22 0 0
-0.0419 -0.0940 -0.6210 0.948 0.088 0.305 56 44 30 0 0
-0.0404 -0.0925 -0.6219 0.919 0.105 0.379 68 55 42 0 0
-0.0394 -0.0914 -0.6232 0.892 0.037 0.451 44 31 18 0 0
-0.0398 -0.0925 -0.6319 0.631 0.650 0.424 52 40 25 0 0
-0.0392 -0.0920 -0.6336 0.631 0.650 0.424 57 45 31 0 0
-0.0386 -0.0915 -0.6352 0.631 0.650 0.424 41 29 17 0 0
-0.0381 -0.0910 -0.6369 0.631 0.650 0.424 49 38 27 0 0
-0.0397 -0.0931 -0.6403 0.808 0.585 -0.071 47 37 26 0 0
-0.0399 -0.0934 -0.6426 0.827 0.559 -0.063 40 31 20 0 0
-0.0392 -0.0937 -0.6549 0.688 0.592 0.420 35 28 18 0 0
-0.0386 -0.0932 -0.6565 0.596 0.726 0.344 43 36 26 0 0
-0.0376 -0.0921 -0.6578 0.372 0.616 0.694 41 34 24 0 0
-0.0367 -0.0913 -0.6593 0.325 0.683 0.654 36 27 21 0 0
-0.0325 -0.0882 -0.6795 0.515 0.675 0.529 51 40 31 0 0
-0.0318 -0.0875 -0.6810 0.515 0.675 0.529 46 37 25 0 0
-0.0312 -0.0869 -0.6827 0.564 0.763 0.316 40 31 20 0 0
-0.0291 -0.0849 -0.6853 0.463 0.851 0.249 43 33 22 0 0
-0.0299 -0.0859 -0.6881 0.216 0.763 0.609 50 39 25 0 0
-0.0283 -0.0843 -0.6889 0.347 0.708 0.615 59 46 31 0 0
-0.0258 -0.0816 -0.6910 0.648 0.394 0.652 72 62 44 0 0
-0.0250 -0.0809 -0.6926 0.827 0.383 0.412 65 53 35 0 0
0.0106 -0.0042 -0.1932 0.700 0.392 0.597 141 124 85 0 0
0.0166 0.0016 -0.2029 0.823 0.540 0.175 151 134 100 0 0
0.0174 0.0025 -0.2041 0.669 0.394 0.630 142 128 97 0 0
0.0414 0.0270 -0.2311 0.877 -0.142 0.458 116 102 73 0 0
0.0487 0.0331 -0.2568 0.870 0.440 -0.220 105 93 69 0 0
0.0486 0.0328 -0.2582 0.935 0.353 -0.041 111 99 75 0 0
0.0478 0.0318 -0.2599 0.991 -0.103 0.090 117 105 80 0 0
0.0478 0.0316 -0.2627 0.980 -0.090 0.175 127 115 89 0 0
0.0474 0.0310 -0.2643 0.982 -0.186 0.045 134 123 94 0 0
0.0467 0.0282 -0.2903 0.906 -0.265 0.328 114 106 88 0 0
0.0474 0.0288 -0.2916 0.906 -0.265 0.328 116 108 90 0 0
-0.0620 -0.1137 -0.5538 -0.266 0.862 0.432 54 50 41 0 0
-0.0562 -0.1073 -0.5540 -0.254 0.962 0.095 43 35 28 0 0
-0.0555 -0.1067 -0.5556 -0.396 0.891 0.222 35 27 20 0 0
-0.0541 -0.1058 -0.5647 0.541 0.783 0.307 39 30 23 0 0
-0.0536 -0.1054 -0.5664 0.541 0.783 0.307 41 31 25 0 0
-0.0532 -0.1051 -0.5681 0.545 0.773 0.325 45 35 29 0 0
-0.0522 -0.1041 -0.5695 0.187 0.869 0.459 37 28 20 0 0
-0.0515 -0.1035 -0.5711 0.112 0.885 0.452 38 29 21 0 0
-0.0511 -0.1031 -0.5728 0.298 0.862 0.411 37 28 19 0 0
-0.0497 -0.1018 -0.5759 0.130 0.923 0.363 31 22 13 0 0
-0.0490 -0.1012 -0.5775 0.130 0.923 0.363 42 33 23 0 0
-0.0491 -0.1016 -0.5816 0.238 0.971 -0.009 43 34 23 0 0
-0.0486 -0.1012 -0.5833 0.172 0.974 -0.148 47 36 24 0 0
-0.0487 -0.1015 -0.5854 0.172 0.974 -0.148 48 37 24 0 0
-0.0489 -0.1018 -0.5876 0.185 0.974 -0.127 42 32 20 0 0
-0.0495 -0.1029 -0.5922 0.245 0.970 -0.007 43 33 19 0 0
-0.0456 -0.0987 -0.5935 0.884 0.444 -0.143 54 42 26 0 0
-0.0453 -0.0985 -0.5953 0.790 0.612 0.034 55 43 28 0 0
-0.0446 -0.0978 -0.5969 0.734 0.678 -0.014 55 44 28 0 0
-0.0444 -0.0977 -0.5987 0.700 0.627 0.343 52 40 24 0 0
-0.0444 -0.0979 -0.6008 0.575 0.726 0.377 46 34 18 0 0
-0.0434 -0.0969 -0.6022 0.685 0.526 0.503 53 40 25 0 0
-0.0436 -0.0973 -0.6044 0.500 0.777 0.384 54 41 25 0 0
-0.0461 -0.1005 -0.6104 0.955 0.004 0.295 55 42 26 0 0
-0.0458 -0.1004 -0.6123 0.942 0.234 0.242 56 42 27 0 0
-0.0454 -0.1001 -0.6141 0.942 0.234 0.242 47 34 19 0 0
-0.0423 -0.0969 -0.6180 0.702 0.059 0.710 56 43 27 0 0
-0.0397 -0.0944 -0.6223 0.870 0.007 0.492 58 45 29 0 0
-0.0393 -0.0951 -0.6367 0.662 0.729 0.173 45 32 19 0 0
-0.0394 -0.0954 -0.6390 0.722 0.402 0.563 56 44 32 0 0
-0.0390 -0.0951 -0.6408 0.826 0.490 0.279 57 45 33 0 0
-0.0382 -0.0951 -0.6529 0.193 0.942 0.276 42 34 22 0 0
-0.0373 -0.0942 -0.6543 0.182 0.804 0.566 43 34 23 0 0
-0.0364 -0.0934 -0.6557 0.182 0.804 0.566 43 34 23 0 0
-0.0292 -0.0870 -0.6755 0.557 0.667 0.495 61 50 38 0 0
-0.0304 -0.0886 -0.6787 0.684 0.323 0.654 57 43 32 0 0
-0.0295 -0.0877 -0.6801 0.684 0.323 0.654 50 38 26 0 0
-0.0289 -0.0871 -0.6817 0.659 0.704 0.264 53 41 29 0 0
-0.0275 -0.0858 -0.6849 0.717 0.674 0.177 56 41 27 0 0
-0.0267 -0.0852 -0.6886 0.396 0.730 0.557 66 50 31 0 0
-0.0259 -0.0844 -0.6901 0.507 0.737 0.447 113 97 79 0 0
-0.0241 -0.0826 -0.6928 0.827 0.383 0.412 72 55 36 0 0
-0.0229 -0.0814 -0.6939 0.864 0.223 0.451 76 60 40 0 0
-0.0182 -0.0351 -0.1516 0.580 0.637 0.508 175 175 169 0 0
-0.0175 -0.0345 -0.1529 0.650 0.686 0.326 174 165 151 0 0
-0.0175 -0.0345 -0.1543 0.946 0.320 -0.052 196 182 150 0 0
0.0170 0.0003 -0.1989 0.523 0.827 0.208 125 108 67 0 0
0.0172 0.0004 -0.2002 0.523 0.827 0.208 121 104 71 0 0
0.0176 0.0006 -0.2029 0.764 0.614 0.195 137 121 90 0 0
0.0182 0.0012 -0.2041 0.599 0.603 0.526 118 102 77 0 0
0.0338 0.0179 -0.2127 0.884 0.462 -0.076 118 103 80 0 0
0.0428 0.0262 -0.2351 0.960 0.034 0.277 129 115 88 0 0
0.0444 0.0273 -0.2430 0.989 -0.136 0.064 122 107 80 0 0
-0.0539 -0.1084 -0.5654 0.102 0.957 0.272 40 30 24 0 0
-0.0535 -0.1081 -0.5672 0.137 0.972 0.189 39 28 22 0 0
-0.0532 -0.1078 -0.5690 0.137 0.972 0.189 40 30 22 0 0
-0.0528 -0.1075 -0.5707 0.137 0.972 0.189 39 30 21 0 0
-0.0524 -0.1072 -0.5725 0.137 0.972 0.189 36 27 17 0 0
-0.0508 -0.1057 -0.5755 0.570 0.778 -0.264 40 30 21 0 0
-0.0490 -0.1039 -0.5783 0.683 0.574 0.451 45 35 24 0 0
-0.0486 -0.1037 -0.5801 0.833 0.173 0.526 47 37 25 0 0
-0.0465 -0.1015 -0.5827 0.969 0.209 0.131 52 40 25 0 0
-0.0429 -0.0979 -0.5882 0.994 -0.032 0.106 53 42 25 0 0
-0.0443 -0.1000 -0.5954 0.840 0.487 0.237 54 41 25 0 0
-0.0435 -0.0993 -0.5969 0.832 0.361 0.420 59 46 30 0 0
-0.0434 -0.0993 -0.5989 0.699 0.560 0.444 68 57 39 0 0
-0.0428 -0.0988 -0.6005 0.699 0.560 0.444 49 38 20 0 0
-0.0422 -0.0982 -0.6021 0.754 0.461 0.469 58 45 28 0 0
-0.0417 -0.0979 -0.6039 0.809 0.567 0.151 62 48 31 0 0
-0.0375 -0.0965 -0.6448 0.372 0.927 -0.042 37 27 16 0 0
-0.0368 -0.0962 -0.6507 0.143 0.963 0.227 47 35 23 0 0
-0.0362 -0.0957 -0.6523 0.193 0.942 0.276 49 37 24 0 0
-0.0354 -0.0948 -0.6538 0.156 0.850 0.504 48 36 22 0 0
-0.0346 -0.0941 -0.6553 0.201 0.824 0.530 51 40 26 0 0
-0.0336 -0.0934 -0.6609 0.903 0.419 0.095 53 42 30 0 0
-0.0274 -0.0882 -0.6815 0.584 0.556 0.592 51 39 25 0 0
-0.0274 -0.0883 -0.6837 0.573 0.819 -0.026 57 44 28 0 0
-0.0250 -0.0860 -0.6882 0.426 0.741 0.519 96 81 56 0 0
-0.0082 -0.0694 -0.7145 0.883 0.302 0.359 130 117 91 0 0
-0.0075 -0.0688 -0.7161 0.793 0.043 0.607 139 126 100 0 0
-0.0065 -0.0677 -0.7173 0.624 0.168 0.763 117 103 82 0 0
-0.0167 -0.0357 -0.1515 0.615 0.740 0.273 175 171 162 0 0
-0.0164 -0.0354 -0.1529 0.615 0.740 0.273 168 155 136 0 0
-0.0170 -0.0362 -0.1543 0.961 0.276 0.031 193 179 144 0 0
0.0184 -0.0003 -0.2001 0.496 0.843 0.208 87 72 46 0 0
0.0324 0.0143 -0.2119 0.464 -0.013 0.886 130 118 100 0 0
0.0373 0.0188 -0.2244 0.962 0.144 0.234 117 103 74 0 0
0.0411 0.0218 -0.2400 0.913 -0.323 0.247 126 112 83 0 0
0.0413 0.0179 -0.2901 0.932 -0.310 0.189 122 112 92 0 0
0.0403 0.0167 -0.2920 0.912 -0.367 0.185 122 113 94 0 0
0.0405 0.0167 -0.2934 0.917 -0.373 0.137 122 113 95 0 0
-0.0647 -0.1210 -0.5390 -0.175 0.946 0.273 56 53 45 0 0
-0.0634 -0.1197 -0.5402 -0.310 0.929 0.203 39 36 28 0 0
-0.0628 -0.1191 -0.5418 -0.310 0.929 0.203 42 36 28 0 0
-0.0613 -0.1177 -0.5449 -0.215 0.949 0.228 28 22 15 0 0
-0.0522 -0.1085 -0.5570 0.158 0.876 0.456 54 45 33 0 0
-0.0515 -0.1078 -0.5585 -0.103 0.687 0.719 43 34 23 0 0
-0.0511 -0.1078 -0.5643 0.166 0.980 0.107 45 35 25 0 0
-0.0508 -0.1076 -0.5661 0.100 0.966 0.237 41 31 20 0 0
-0.0504 -0.1074 -0.5679 0.134 0.988 0.070 52 42 31 0 0
-0.0480 -0.1056 -0.5785 0.538 0.784 0.310 44 34 22 0 0
-0.0471 -0.1047 -0.5799 0.735 0.439 0.518 43 34 21 0 0
-0.0453 -0.1029 -0.5827 0.957 0.248 0.151 49 39 23 0 0
-0.0431 -0.1014 -0.5954 0.929 0.282 0.240 56 43 27 0 0
-0.0427 -0.1011 -0.5972 0.863 0.383 0.328 55 42 25 0 0
-0.0414 -0.0998 -0.5983 0.889 0.376 0.263 70 58 40 0 0
-0.0404 -0.0991 -0.6038 0.585 0.766 0.267 61 47 30 0 0
-0.0450 -0.1049 -0.6115 0.817 0.294 0.496 63 47 29 0 0
-0.0441 -0.1040 -0.6129 0.864 0.420 0.279 69 54 34 0 0
-0.0437 -0.1037 -0.6147 0.864 0.420 0.279 60 44 24 0 0
-0.0431 -0.1032 -0.6163 0.826 0.515 -0.228 79 65 45 0 0
-0.0366 -0.0974 -0.6344 0.610 0.775 0.164 61 50 31 0 0
-0.0363 -0.0972 -0.6363 0.577 0.817 0.009 60 48 31 0 0
-0.0362 -0.0973 -0.6384 0.498 0.847 0.184 51 39 23 0 0
-0.0357 -0.0972 -0.6443 0.372 0.927 -0.042 48 37 22 0 0
-0.0356 -0.0973 -0.6464 0.372 0.927 -0.042 40 28 17 0 0
-0.0343 -0.0963 -0.6518 0.503 0.843 0.190 61 48 32 0 0
-0.0336 -0.0955 -0.6533 0.309 0.861 0.404 55 43 25 0 0
-0.0328 -0.0948 -0.6548 0.203 0.763 0.614 59 46 28 0 0
-0.0307 -0.0929 -0.6595 0.415 0.822 0.389 56 44 29 0 0
-0.0305 -0.0936 -0.6722 0.808 0.346 0.477 81 72 57 0 0
-0.0256 -0.0889 -0.6811 0.774 0.312 0.551 44 32 16 0 0
-0.0253 -0.0887 -0.6830 0.726 0.675 0.129 64 51 33 0 0
-0.0250 -0.0886 -0.6849 0.750 0.548 0.371 81 67 46 0 0
-0.0240 -0.0876 -0.6862 0.777 0.561 0.286 71 58 32 0 0
-0.0220 -0.0859 -0.6932 0.687 0.642 0.340 95 80 58 0 0
-0.0162 -0.0373 -0.1516 0.795 0.377 0.474 178 171 159 0 0
-0.0160 -0.0371 -0.1529 0.750 0.169 0.640 188 174 150 0 0
-0.0153 -0.0365 -0.1542 0.331 0.712 0.620 196 179 144 0 0
0.0263 0.0056 -0.2095 0.614 0.506 0.606 98 84 69 0 0
0.0310 0.0108 -0.2111 0.513 -0.012 0.858 153 143 118 0 0
0.0316 0.0113 -0.2123 0.578 -0.051 0.815 133 122 101 0 0
-0.0676 -0.1262 -0.5296 -0.337 0.906 0.257 48 46 42 0 0
-0.0577 -0.1166 -0.5473 -0.308 0.698 0.646 33 27 19 0 0
-0.0562 -0.1150 -0.5483 -0.308 0.698 0.646 57 48 39 0 0
-0.0491 -0.1083 -0.5638 0.300 0.936 -0.187 50 40 27 0 0
-0.0466 -0.1066 -0.5783 0.538 0.784 0.310 50 40 29 0 0
-0.0461 -0.1063 -0.5800 0.538 0.784 0.310 47 36 24 0 0
-0.0443 -0.1047 -0.5849 0.789 0.212 0.576 51 40 24 0 0
-0.0435 -0.1039 -0.5863 0.789 0.212 0.576 54 41 26 0 0
-0.0429 -0.1040 -0.5962 0.991 0.077 0.108 63 50 31 0 0
-0.0423 -0.1035 -0.5978 0.929 -0.003 0.371 56 43 24 0 0
-0.0427 -0.1048 -0.6086 0.945 0.326 0.013 67 52 32 0 0
-0.0426 -0.1048 -0.6105 0.801 0.598 0.028 75 60 38 0 0
-0.0432 -0.1057 -0.6131 0.907 0.220 0.358 73 58 35 0 0
-0.0440 -0.1072 -0.6201 0.547 0.809 0.218 75 60 38 0 0
-0.0422 -0.1053 -0.6208 0.394 0.531 0.750 65 48 28 0 0
-0.0369 -0.0995 -0.6229 0.668 0.678 0.305 76 60 37 0 0
-0.0364 -0.0991 -0.6247 0.676 0.680 0.285 71 55 32 0 0
-0.0349 -0.0987 -0.6404 0.888 0.458 0.052 54 43 23 0 0
-0.0344 -0.0983 -0.6421 0.546 0.836 0.049 50 38 19 0 0
-0.0341 -0.0981 -0.6440 0.488 0.863 0.127 63 50 31 0 0
-0.0337 -0.0979 -0.6459 0.411 0.887 0.212 69 55 37 0 0
-0.0335 -0.0977 -0.6478 0.503 0.843 0.190 59 45 27 0 0
-0.0322 -0.0968 -0.6532 0.630 0.711 0.313 58 45 26 0 0
-0.0321 -0.0968 -0.6553 0.594 0.744 0.305 65 52 33 0 0
-0.0295 -0.0942 -0.6595 0.594 0.804 0.003 61 48 31 0 0
-0.0294 -0.0943 -0.6616 0.535 0.845 -0.004 55 42 29 0 0
-0.0289 -0.0944 -0.6698 0.806 0.581 0.111 76 67 51 0 0
-0.0287 -0.0944 -0.6718 0.806 0.581 0.111 87 80 62 0 0
-0.0274 -0.0930 -0.6729 0.630 0.676 0.383 94 87 68 0 0
-0.0270 -0.0927 -0.6747 0.799 0.490 0.348 82 72 51 0 0
-0.0257 -0.0920 -0.6844 0.331 0.767 0.550 84 70 49 0 0
0.0210 -0.0019 -0.2026 0.435 0.868 0.241 49 37 27 0 0
0.0244 0.0015 -0.2074 0.571 0.744 0.348 147 135 106 0 0
-0.0717 -0.1328 -0.5208 -0.388 0.863 0.323 98 96 93 0 0
-0.0578 -0.1181 -0.5321 -0.413 0.610 0.676 52 47 38 0 0
-0.0609 -0.1220 -0.5381 0.093 0.822 0.562 56 49 36 0 0
-0.0573 -0.1183 -0.5418 0.030 0.757 0.653 54 45 33 0 0
-0.0574 -0.1187 -0.5439 0.386 0.915 0.119 37 31 21 0 0
-0.0451 -0.1062 -0.5598 0.868 0.365 -0.337 64 55 37 0 0
-0.0443 -0.1067 -0.5775 0.518 0.837 0.178 50 37 25 0 0
-0.0386 -0.1035 -0.6147 0.739 0.582 0.340 81 66 43 0 0
-0.0404 -0.1057 -0.6182 0.698 0.268 0.664 78 62 40 0 0
-0.0336 -0.0988 -0.6256 0.791 0.608 -0.066 74 58 35 0 0
-0.0338 -0.0992 -0.6278 0.630 0.708 0.318 65 50 29 0 0
-0.0339 -0.0994 -0.6300 0.737 0.548 0.396 74 59 39 0 0
-0.0335 -0.0991 -0.6318 0.730 0.435 0.527 72 59 40 0 0
-0.0332 -0.0990 -0.6337 0.602 0.696 0.392 57 43 24 0 0
-0.0319 -0.0987 -0.6475 0.408 0.841 0.354 70 55 33 0 0
-0.0312 -0.0986 -0.6555 0.708 0.698 -0.111 65 49 29 0 0
-0.0291 -0.0963 -0.6559 0.389 0.921 0.008 66 50 30 0 0
-0.0284 -0.0956 -0.6575 0.945 0.313 0.096 70 57 36 0 0
-0.0282 -0.0955 -0.6594 0.884 0.143 0.446 57 43 24 0 0
-0.0275 -0.0948 -0.6610 0.814 0.299 0.498 56 42 26 0 0
-0.0218 -0.0909 -0.6908 0.572 0.785 0.237 73 61 38 0 0
-0.0218 -0.0912 -0.6931 0.668 0.723 0.175 59 46 27 0 0
-0.0215 -0.0910 -0.6950 0.890 0.432 0.145 63 50 29 0 0
-0.0160 -0.0857 -0.7054 0.794 0.176 0.581 113 102 75 0 0
-0.0142 -0.0392 -0.1487 0.277 0.790 0.547 178 178 178 0 0
0.0220 -0.0029 -0.2026 0.633 0.637 0.440 47 35 23 0 0
0.0246 -0.0002 -0.2048 0.536 0.658 0.528 104 88 70 0 0
0.0251 0.0003 -0.2060 0.536 0.658 0.528 135 121 97 0 0
0.0255 0.0006 -0.2073 0.644 0.692 0.327 157 144 115 0 0
0.0391 0.0128 -0.2442 0.903 -0.356 0.239 118 106 80 0 0
0.0410 0.0143 -0.2521 0.993 -0.079 -0.089 121 110 84 0 0
0.0403 0.0134 -0.2538 0.954 -0.219 0.204 122 110 86 0 0
0.0388 0.0110 -0.2614 0.912 -0.353 0.207 121 110 88 0 0
-0.0685 -0.1318 -0.5196 -0.185 0.925 0.331 75 71 64 0 0
-0.0673 -0.1306 -0.5209 -0.073 0.902 0.424 57 52 44 0 0
-0.0613 -0.1244 -0.5271 -0.286 0.857 0.429 38 29 20 0 0
-0.0563 -0.1193 -0.5339 -0.412 0.647 0.642 35 28 16 0 0
-0.0585 -0.1220 -0.5373 0.031 0.900 0.435 45 37 22 0 0
-0.0565 -0.1200 -0.5400 -0.164 0.553 0.817 45 37 22 0 0
-0.0557 -0.1192 -0.5415 -0.323 0.596 0.735 57 49 35 0 0
-0.0533 -0.1167 -0.5440 -0.147 0.603 0.784 35 28 20 0 0
-0.0488 -0.1120 -0.5470 0.562 0.753 0.343 56 45 32 0 0
-0.0429 -0.1075 -0.5733 0.862 0.438 0.256 60 47 29 0 0
-0.0447 -0.1100 -0.5787 0.694 0.254 0.674 55 42 24 0 0
-0.0428 -0.1079 -0.5794 0.684 0.729 -0.018 65 51 35 0 0
-0.0442 -0.1098 -0.5825 0.854 0.430 0.293 56 40 25 0 0
-0.0430 -0.1085 -0.5836 0.637 0.554 0.536 73 57 41 0 0
-0.0451 -0.1124 -0.6017 0.985 0.041 0.167 52 35 15 0 0
-0.0393 -0.1064 -0.6078 0.819 0.501 0.278 64 48 24 0 0
-0.0382 -0.1057 -0.6133 0.728 0.520 0.447 70 52 30 0 0
-0.0393 -0.1073 -0.6183 0.588 0.638 0.497 75 59 35 0 0
-0.0327 -0.1005 -0.6258 0.798 0.581 0.162 62 46 23 0 0
-0.0325 -0.1004 -0.6277 0.582 0.776 0.244 67 52 30 0 0
-0.0323 -0.1003 -0.6297 0.669 0.684 0.293 78 63 42 0 0
-0.0316 -0.0998 -0.6313 0.545 0.724 0.422 76 61 42 0 0
-0.0318 -0.1001 -0.6335 0.687 0.683 0.247 55 40 21 0 0
-0.0306 -0.0992 -0.6389 0.603 0.783 -0.153 63 49 29 0 0
-0.0307 -0.0996 -0.6412 0.470 0.881 -0.061 67 52 33 0 0
-0.0304 -0.0995 -0.6451 0.497 0.850 0.175 73 57 37 0 0
-0.0301 -0.0997 -0.6513 0.570 0.816 0.093 72 55 35 0 0
-0.0269 -0.0964 -0.6551 0.852 0.522 0.035 70 54 33 0 0
-0.0268 -0.0965 -0.6571 0.852 0.522 0.035 73 58 37 0 0
-0.0267 -0.0965 -0.6592 0.852 0.522 0.035 74 59 38 0 0
-0.0274 -0.0978 -0.6641 0.706 0.705 0.067 52 37 19 0 0
-0.0272 -0.0977 -0.6661 0.706 0.705 0.067 57 43 29 0 0
-0.0234 -0.0950 -0.6846 0.556 0.460 0.692 106 95 68 0 0
-0.0220 -0.0936 -0.6856 0.454 0.463 0.761 89 79 52 0 0
-0.0203 -0.0920 -0.6906 0.572 0.785 0.237 87 75 58 0 0
-0.0199 -0.0918 -0.6925 0.572 0.785 0.237 94 82 65 0 0
-0.0202 -0.0922 -0.6949 0.804 0.386 0.453 120 108 89 0 0
-0.0186 -0.0905 -0.6957 0.976 0.147 0.161 123 109 86 0 0
-0.0175 -0.0894 -0.6969 0.738 0.605 0.298 114 100 73 0 0
-0.0176 -0.0898 -0.6992 0.542 0.836 -0.084 113 99 72 0 0
-0.0173 -0.0895 -0.7011 0.753 0.658 0.009 118 103 80 0 0
-0.0174 -0.0899 -0.7034 0.850 0.487 0.199 119 105 79 0 0
-0.0163 -0.0887 -0.7046 0.788 0.354 0.503 123 110 84 0 0
-0.0151 -0.0874 -0.7057 0.722 0.151 0.675 149 138 111 0 0
-0.0136 -0.0859 -0.7066 0.612 0.034 0.790 146 134 105 0 0
0.0227 -0.0041 -0.2013 0.668 0.731 0.140 46 38 28 0 0
0.0231 -0.0039 -0.2026 0.539 0.462 0.705 62 49 36 0 0
0.0262 -0.0006 -0.2060 0.644 0.692 0.327 154 142 117 0 0
0.0265 -0.0003 -0.2073 0.644 0.692 0.327 153 142 112 0 0
0.0273 0.0002 -0.2113 0.964 0.073 0.255 146 133 111 0 0
0.0398 0.0110 -0.2500 0.921 -0.329 0.210 114 102 76 0 0
0.0421 0.0135 -0.2507 0.958 -0.179 -0.223 118 106 80 0 0
0.0408 0.0118 -0.2525 0.946 -0.325 0.006 119 107 81 0 0
0.0399 0.0106 -0.2556 0.943 -0.317 0.097 115 103 77 0 0
0.0377 0.0076 -0.2621 0.941 -0.283 0.184 118 108 85 0 0
0.0383 0.0080 -0.2648 0.985 -0.127 -0.119 117 106 84 0 0
-0.0658 -0.1315 -0.5187 0.403 0.912 0.076 37 33 24 0 0
-0.0646 -0.1302 -0.5200 0.001 0.923 0.385 39 32 23 0 0
-0.0627 -0.1280 -0.5207 0.039 0.989 0.145 58 47 37 0 0
-0.0612 -0.1266 -0.5238 -0.120 0.973 0.199 42 32 23 0 0
-0.0582 -0.1234 -0.5259 -0.145 0.374 0.916 35 25 15 0 0
-0.0580 -0.1237 -0.5317 0.298 0.853 0.428 39 31 20 0 0
-0.0565 -0.1221 -0.5328 0.258 0.701 0.665 51 42 33 0 0
-0.0554 -0.1210 -0.5341 0.162 0.644 0.747 49 40 31 0 0
-0.0554 -0.1212 -0.5361 0.583 0.666 0.465 40 31 22 0 0
-0.0551 -0.1210 -0.5379 -0.070 0.673 0.736 61 53 43 0 0
-0.0517 -0.1177 -0.5437 0.120 0.312 0.942 57 49 38 0 0
-0.0473 -0.1129 -0.5468 0.780 0.514 0.357 51 40 29 0 0
-0.0470 -0.1129 -0.5506 0.481 0.870 -0.106 60 48 36 0 0
-0.0451 -0.1109 -0.5514 0.883 0.468 -0.047 47 35 23 0 0
-0.0388 -0.1059 -0.5773 0.956 0.289 0.055 71 56 37 0 0
-0.0377 -0.1048 -0.5786 0.806 0.093 0.584 67 52 34 0 0
-0.0406 -0.1085 -0.5828 0.246 0.813 0.528 70 55 37 0 0
-0.0373 -0.1068 -0.6072 0.383 0.736 0.558 62 46 20 0 0
-0.0370 -0.1071 -0.6133 0.829 0.554 0.075 79 60 37 0 0
-0.0384 -0.1089 -0.6165 0.585 0.806 0.089 78 61 38 0 0
-0.0380 -0.1086 -0.6182 0.588 0.638 0.497 75 59 36 0 0
-0.0373 -0.1079 -0.6198 0.588 0.638 0.497 68 52 30 0 0
-0.0358 -0.1063 -0.6208 0.959 0.269 -0.089 58 43 22 0 0
-0.0312 -0.1017 -0.6277 0.630 0.708 0.318 79 63 40 0 0
-0.0310 -0.1016 -0.6296 0.669 0.684 0.293 75 62 37 0 0
-0.0303 -0.1010 -0.6312 0.508 0.723 0.468 88 73 51 0 0
-0.0300 -0.1008 -0.6331 0.628 0.773 0.095 59 44 23 0 0
-0.0298 -0.1007 -0.6350 0.628 0.773 0.095 76 61 41 0 0
-0.0294 -0.1006 -0.6389 0.698 0.710 -0.096 68 53 30 0 0
-0.0280 -0.0997 -0.6464 0.829 0.528 0.185 77 62 40 0 0
-0.0277 -0.0996 -0.6483 0.833 0.487 0.262 82 68 45 0 0
-0.0274 -0.0994 -0.6501 0.829 0.528 0.185 72 57 33 0 0
-0.0271 -0.0992 -0.6520 0.829 0.528 0.185 76 61 38 0 0
-0.0269 -0.0991 -0.6539 0.635 0.753 0.175 75 60 38 0 0
-0.0265 -0.0989 -0.6558 0.635 0.753 0.175 70 55 35 0 0
-0.0267 -0.0992 -0.6581 0.532 0.838 0.121 79 62 41 0 0
-0.0264 -0.0991 -0.6600 0.532 0.838 0.121 71 56 34 0 0
-0.0267 -0.0996 -0.6624 0.445 0.824 0.352 90 75 53 0 0
-0.0217 -0.0958 -0.6842 0.711 0.279 0.645 98 86 61 0 0
-0.0208 -0.0949 -0.6856 0.711 0.279 0.645 97 85 59 0 0
-0.0210 -0.0953 -0.6879 0.875 0.220 0.432 94 82 59 0 0
-0.0194 -0.0936 -0.6887 0.895 0.443 0.048 112 99 82 0 0
-0.0194 -0.0940 -0.6931 0.907 0.408 0.108 110 98 81 0 0
-0.0200 -0.0949 -0.6959 0.986 0.143 0.088 110 99 79 0 0
-0.0181 -0.0929 -0.6964 0.976 0.147 0.161 123 109 87 0 0
-0.0176 -0.0924 -0.6981 0.972 0.018 0.235 136 121 97 0 0
-0.0172 -0.0924 -0.7043 0.965 0.104 0.242 150 136 109 0 0
-0.0079 -0.0366 -0.1521 0.166 0.923 0.347 194 179 146 0 0
0.0120 -0.0158 -0.1720 0.611 0.522 0.596 136 118 88 0 0
0.0192 -0.0084 -0.1802 0.429 0.837 0.340 94 77 52 0 0
0.0195 -0.0082 -0.1815 0.351 0.787 0.507 85 70 49 0 0
0.0201 -0.0076 -0.1827 0.702 0.665 0.255 95 82 59 0 0
0.0212 -0.0076 -0.1963 0.063 0.929 0.364 77 65 44 0 0
0.0269 -0.0018 -0.2046 0.732 0.583 0.353 124 113 90 0 0
0.0273 -0.0015 -0.2059 0.732 0.583 0.353 156 146 119 0 0
0.0277 -0.0012 -0.2072 0.732 0.583 0.353 116 105 83 0 0
0.0280 -0.0009 -0.2085 0.732 0.583 0.353 96 84 65 0 0
0.0284 -0.0006 -0.2098 0.756 0.580 0.304 136 126 101 0 0
0.0288 -0.0006 -0.2139 0.936 -0.043 0.350 156 143 106 0 0
0.0290 -0.0004 -0.2152 0.887 -0.081 0.456 152 139 101 0 0
0.0301 0.0007 -0.2163 0.660 0.008 0.751 132 118 84 0 0
0.0313 0.0020 -0.2174 0.660 0.008 0.751 119 106 76 0 0
0.0303 0.0007 -0.2191 0.958 0.045 0.283 115 101 74 0 0
0.0386 0.0069 -0.2563 0.882 -0.177 0.436 115 104 78 0 0
0.0387 0.0069 -0.2577 0.979 -0.157 0.128 115 105 78 0 0
0.0389 0.0070 -0.2591 0.979 -0.157 0.128 114 104 79 0 0
0.0389 0.0069 -0.2605 0.974 -0.197 0.110 113 102 80 0 0
0.0385 0.0062 -0.2621 0.954 -0.235 0.185 111 100 80 0 0
0.0329 -0.0015 -0.2786 0.939 -0.242 0.246 112 103 84 0 0
0.0353 0.0009 -0.2822 0.921 -0.284 -0.267 111 103 83 0 0
0.0353 0.0008 -0.2837 0.890 -0.257 -0.377 111 103 83 0 0
0.0347 -0.0001 -0.2854 0.944 -0.315 -0.099 111 103 84 0 0
0.0334 -0.0017 -0.2874 0.913 -0.364 -0.183 111 103 84 0 0
0.0363 0.0016 -0.2878 0.837 -0.225 0.500 113 105 86 0 0
0.0372 0.0025 -0.2889 0.835 -0.199 0.513 115 107 88 0 0
-0.0653 -0.1334 -0.5171 0.526 0.343 0.778 81 72 64 0 0
-0.0640 -0.1321 -0.5183 0.576 0.322 0.751 38 30 24 0 0
-0.0625 -0.1305 -0.5194 0.364 0.281 0.888 36 26 20 0 0
-0.0609 -0.1288 -0.5204 0.555 0.273 0.786 59 47 37 0 0
-0.0601 -0.1280 -0.5219 0.705 0.603 0.374 76 67 54 0 0
-0.0589 -0.1267 -0.5231 0.533 0.569 0.626 39 29 20 0 0
-0.0579 -0.1258 -0.5245 -0.068 0.619 0.783 57 47 36 0 0
-0.0557 -0.1235 -0.5271 0.005 0.598 0.801 71 62 53 0 0
-0.0562 -0.1242 -0.5294 0.795 0.558 0.237 48 40 30 0 0
-0.0549 -0.1228 -0.5305 0.879 0.473 -0.064 54 47 37 0 0
-0.0549 -0.1230 -0.5325 0.564 0.628 0.537 46 37 26 0 0
-0.0542 -0.1223 -0.5341 0.564 0.628 0.537 52 44 32 0 0
-0.0509 -0.1193 -0.5420 0.387 0.375 0.842 91 82 69 0 0
-0.0457 -0.1138 -0.5465 0.799 0.532 0.280 44 34 22 0 0
-0.0443 -0.1127 -0.5516 0.653 0.745 -0.134 53 41 26 0 0
-0.0439 -0.1124 -0.5534 0.417 0.409 0.812 64 52 35 0 0
-0.0428 -0.1112 -0.5546 0.417 0.409 0.812 58 46 28 0 0
-0.0404 -0.1086 -0.5550 0.536 0.140 0.833 78 67 47 0 0
-0.0397 -0.1093 -0.5728 0.897 0.137 0.419 65 53 29 0 0
-0.0381 -0.1079 -0.5777 0.905 0.411 0.113 71 57 34 0 0
-0.0401 -0.1122 -0.5999 0.485 0.842 -0.237 69 50 33 0 0
