ply
format ascii 1.0
element vertex 676
property float x
property float y
property float z
property uchar diffuse_red
property uchar diffuse_green
property uchar diffuse_blue
end_header
0.04591862109929276 0.10828279625343644 -0.6288025629394188 106 85 53
0.045769471480427454 0.10827798184266302 -0.6308710861866443 95 75 43
0.04553244068973 0.10827416905264899 -0.6329968479897811 94 73 45
0.045064698713816825 0.1082729999052743 -0.6352686015939162 118 97 61
0.046691265963654666 0.10824772809375145 -0.6362467727048303 120 98 57
0.044320798241533454 0.10826841621544145 -0.6397060391310263 128 103 66
0.04509925027980341 0.10825288746125382 -0.6412133880675787 118 94 55
0.04435127143285397 0.10825488780039623 -0.6436750783925553 136 114 79
0.04348282678075141 0.1082582526658492 -0.6462177952386833 152 134 95
0.04365891133729011 0.10824961709380336 -0.6481090843248795 181 164 118
0.04381387797334027 0.10824121729991311 -0.650015614413242 157 140 95
0.04246295653782195 0.10825006446222597 -0.6528776323070028 185 166 125
0.0446816997035723 0.10821800952843742 -0.6534803465800985 171 152 112
0.04495519599921319 0.10820823694845788 -0.6553162887692731 170 152 110
0.04406585927086179 0.10821176001643287 -0.6578967966318723 166 149 106
0.04580155276970152 0.10818525415985009 -0.6588009518379291 174 157 114
0.04526320114149299 0.1081847438408 -0.6611628597490344 173 156 113
0.043342290779764175 0.10820000541037095 -0.6644209394143796 150 131 88
0.04369518538168471 0.10818928363447707 -0.6662185615635803 137 117 83
0.044060132866261315 0.10817842021867555 -0.668009625001844 91 76 45
0.04505629398711164 0.10816035713873581 -0.6693912147090729 127 109 75
0.04436445603626313 0.10816152997870829 -0.6718731223435861 128 105 64
0.04525211858655645 0.10814469969510174 -0.6733265320946984 164 143 99
0.045134789065680386 0.1081393092658999 -0.6754388948918074 159 139 104
0.0435727135263794 0.10815034086303012 -0.678505678373522 142 119 88
0.04302225379061189 0.10814984400450932 -0.6809131613081343 147 126 85
0.04263683436728635 0.10814745617324233 -0.6832161571200495 164 147 108
0.042083286451148255 0.1081469634777412 -0.6856350431081825 105 90 55
0.042057333026216975 0.10814046764342627 -0.6877072440523198 150 130 91
0.04287575746625111 0.10812438621075489 -0.6892179413963575 176 157 112
0.0414993216417133 0.10813318487756379 -0.6921992551024838 166 148 102
0.0413007185459022 0.10812861382634076 -0.6943969130808934 161 143 97
0.04099480898869037 0.10812524612513712 -0.6966704140353402 167 149 102
0.0409001041570034 0.1081194756323291 -0.6988050213418551 184 166 121
0.040742258458946606 0.10811440894777341 -0.7009855458021002 184 166 124
0.040288037079715816 0.1081126808359158 -0.7033710139231266 130 113 81
0.04039194459176407 0.10810463340209764 -0.7053802766616937 69 49 26
0.04329407951386649 0.10806498946047037 -0.7054773882361809 66 45 21
0.042674182908124136 0.1080651112792661 -0.707982367131526 122 102 76
0.04370971352355674 0.10804654980325373 -0.7093533503884042 124 105 73
0.04280854178736185 0.10804981775715153 -0.7120595899626602 117 97 59
0.04346101561982041 0.10803556685863597 -0.7136967970641754 159 137 96
0.04366514172363464 0.10802636201587688 -0.7156453773853975 168 147 100
0.04201684563247832 0.10803798895728413 -0.7188855382599882 167 147 98
0.04187835919696811 0.10803261078500315 -0.721080944337251 170 152 105
0.04196607327433072 0.10802468003985709 -0.7231212946253526 172 153 107
0.041825715389081974 0.10801930233507974 -0.7253242329783496 179 160 113
0.041685254049070364 0.10801391470778475 -0.7275305983101401 172 154 105
0.04148632400293564 0.10800917174849178 -0.72978162004553 175 158 108
0.04163184367758266 0.10800055589408326 -0.7317922713673946 170 152 102
0.04001628098318988 0.10801166112807153 -0.7350560911800463 176 158 108
0.041030698102451246 0.1079932908697299 -0.736455782268978 176 160 111
0.04069291071686626 0.10799005474457457 -0.7388201783198645 176 159 111
0.04054448691815002 0.1079846872297116 -0.7410531067133409 176 160 110
0.03883300690829583 0.1079967763538976 -0.744412482396266 178 161 112
0.03912563328865601 0.10798644957408937 -0.7463376958898191 171 153 106
0.03907492873958718 0.10797994961477145 -0.7485126354522894 160 142 96
0.0381290512497707 0.10798342544260237 -0.7513392807600925 154 135 92
0.03653544096701439 0.10799410026115497 -0.7546433392688815 163 144 102
0.036965211950307414 0.10798220006500567 -0.7564823506289873 158 140 97
0.03364671069155922 0.10801203291344312 -0.7610615710275938 147 130 91
0.03362760538768686 0.10800509504069258 -0.7632394621575433 156 141 104
0.03087179709435736 0.10802858305870264 -0.7674314819144444 131 118 82
0.02905145973404552 0.10804162662631861 -0.7709483844339875 111 99 71
0.026079328433925963 0.10806742944075061 -0.7753269142586627 102 96 67
0.023109452233838534 0.10809315691276018 -0.7797189974539234 115 104 76
0.024494201759452272 0.10807052389269475 -0.7808901700474958 120 104 76
0.024859935233815605 0.10805919805477551 -0.7828179495743036 123 108 78
0.024770911762075187 0.10805290629595778 -0.7850870072777004 126 112 80
0.025362078006271493 0.10803907153191152 -0.7868496706416634 132 118 85
0.02763490848165423 0.1080066249720852 -0.7873491181300317 133 120 87
0.02698263812334728 0.10800655038561428 -0.7900462799017416 125 112 79
0.028073020294370865 0.10798719596053949 -0.7914323117076398 129 115 81
0.029210349353633258 0.10796732820093737 -0.7927811871765422 132 116 81
0.02981451346387559 0.10795335187122965 -0.7945333945208712 115 99 63
0.031678068202875304 0.10792548053338868 -0.7953264877149869 143 125 88
0.03351452111010603 0.10789792398269825 -0.796135448693264 140 123 87
0.033658388825796665 0.1078890320682375 -0.7982364155341769 127 111 77
0.035824412948475604 0.10785786612288743 -0.7987862734324023 122 107 71
0.03765526269842942 0.1078304087639711 -0.7995881921890273 123 109 71
0.03994947433250612 0.10779787139509475 -0.8000274484817619 125 109 73
0.041654663864188424 0.10777182963067077 -0.8009162387554802 117 101 65
0.0423850838582277 0.10775650788162715 -0.8025578955686877 131 115 78
0.04173002289281727 0.10775639372483443 -0.8052784748748897 154 136 100
0.03995665409428614 0.10776852734261941 -0.8088781566002053 133 117 82
0.04003645869794839 0.10776031139154336 -0.8110372486628133 137 121 85
0.04535572958585407 0.10769468777250155 -0.8090850736540769 141 124 85
0.045463625337323926 0.10768618344986788 -0.8112162473765951 140 125 84
0.04527029979085184 0.10768096633926123 -0.8135877767379117 154 139 97
0.044993952499901124 0.10767664426288132 -0.8160288743055168 156 139 100
0.04480878114588424 0.10767131200038692 -0.8184018154194593 143 124 86
0.04439139584404983 0.10766850280458923 -0.8209633992119969 121 101 69
0.044044071031576204 0.10766491308456155 -0.8234739083296101 142 122 82
0.04411381148927068 0.10765676001183319 -0.8256552393838972 158 136 94
0.044183747794821315 0.10764859569140432 -0.8278391711760458 151 128 91
0.04425368734536095 0.107640422206465 -0.8300258630424641 142 123 87
0.04534723036255614 0.10762109845129539 -0.8313896526333108 138 123 87
0.045886471795495654 0.1076078093282016 -0.8332001073427402 108 90 56
0.04504646688634362 0.10760951004719214 -0.8361298158547883 131 109 69
0.04522669997443357 0.10760010593886432 -0.8382366699568264 153 132 89
0.04544826332184121 0.10759024552985356 -0.8403121386458281 160 142 97
0.045343703667199475 0.1075839159808496 -0.8426563375435014 160 142 95
0.04552349721548038 0.10757449193187694 -0.8447710284213051 152 134 88
0.045642478893980265 0.1075657190282854 -0.8469380234903342 149 131 85
0.04379059096364135 0.10757827578776877 -0.8507316157030591 154 137 91
0.04315489566533648 0.10757763677111702 -0.8535316214113715 155 138 93
0.04154191830873194 0.10758754493844774 -0.857147098617928 156 141 96
0.03919899804816446 0.1076053064931525 -0.8613790513456127 154 140 100
0.0381492867824782 0.10760905973581167 -0.8645475082378374 103 94 76
0.037576601690528566 0.10760763985823683 -0.8673254503683058 48 47 36
0.03671750456685485 0.10760928963392592 -0.8703488617593156 54 49 40
0.035824138535667016 0.1076112856562038 -0.8734080087316257 87 80 69
0.037756867221799884 0.10758282448764767 -0.8740959544535456 128 124 117
0.03689734980400905 0.10758442965827267 -0.8771345876941621 157 154 153
0.03612609445043685 0.10758506248332796 -0.8801055612466611 174 172 175
0.03402536210666951 0.10759996109030623 -0.8842108291025355 185 183 184
0.041149726567981104 0.10793081118184102 -0.2956005541904947 178 174 170
0.044516085228135716 0.10788725680626038 -0.2961964162104149 165 158 149
0.04750328707361365 0.10784795303699976 -0.2968950476498779 148 134 114
0.05019955783269685 0.10781191224797101 -0.2976721605127729 149 131 105
0.05111635818250797 0.10779567270963206 -0.2989699358623907 147 130 101
0.053323245137902625 0.10776510674691071 -0.2998826775746815 147 128 99
0.05624676493861211 0.10772660357885108 -0.3005760868936566 149 130 100
0.05856623061289905 0.10769483048116403 -0.30144406212711145 152 134 103
0.062310146988179035 0.10764728004116668 -0.3018762167084518 156 136 104
0.07129806197289223 0.10752371498249773 -0.3053549074682401 170 156 127
0.07091808301327125 0.10752192916409893 -0.30702597417556915 153 140 114
0.07034458419495948 0.10752227129343209 -0.3087602687175813 107 96 77
0.06954825915946167 0.10752506172017195 -0.31056785995285896 51 36 22
0.06739669646336094 0.10754280180180331 -0.3128059375009492 46 28 14
0.06572491151555167 0.1075552139939604 -0.31490081044823004 51 31 17
0.06869834975686698 0.10751635679251595 -0.3155273660185899 57 34 19
0.0693023550427922 0.10750365162941959 -0.3169027313718015 60 37 20
0.07134183879552534 0.10747512864945175 -0.3178177190939915 62 40 20
0.07284733792068146 0.10745250394873158 -0.3189002802773057 63 41 20
0.07068319279153862 0.10747028344523869 -0.3211681316218083 65 41 24
0.07203486799648881 0.10744935104601812 -0.32230073024666384 66 42 24
0.0747343908681641 0.10741360760989312 -0.32299038008995545 65 41 24
0.07532214771481018 0.10740109661674005 -0.32436703346969337 62 38 21
0.0749036370177181 0.10739963792941253 -0.32607573568888565 63 41 23
0.07486659092763169 0.1073939796678978 -0.32766109615358197 65 47 25
0.0746635526268952 0.10739013507704623 -0.3293036946769503 72 56 33
0.07574961144909854 0.1073721454859235 -0.3305173484586218 75 59 36
0.07418187069546499 0.10738324592787561 -0.33262171874593993 74 58 35
0.07454546198759962 0.10737316579417717 -0.33408044922290414 79 63 40
0.07507507676409633 0.10736126542858505 -0.3354835440327323 81 64 41
0.07495790776970743 0.1073564409847107 -0.3371073290145522 76 58 34
0.07255270541568207 0.10737662814232576 -0.3395169695839938 78 63 38
0.07210099138070702 0.10737542901681815 -0.3412638950602273 82 68 42
0.063419571866322 0.10746411107475123 -0.3458586174579739 87 72 46
0.0673400486012829 0.10741510533983782 -0.34610698714118204 91 77 54
0.06416552844077836 0.10744355309018858 -0.34881955677936216 79 66 51
0.06114135606321057 0.10747031541522031 -0.3514913554003415 64 53 42
0.0587658620677568 0.10748996380214704 -0.35394630168750185 63 53 42
0.060194158389655805 0.10746814252334573 -0.35506588881436457 65 56 43
0.06104691002840791 0.10745259704105453 -0.35638724250496046 60 52 36
0.061281042811552514 0.10744378547571655 -0.3579284626591244 51 42 26
0.061807188139545804 0.10743179399032794 -0.35936622011358194 53 44 27
0.06262934858897048 0.10741658444797791 -0.3606976831832512 59 50 32
0.06394955025515986 0.10739596788604422 -0.36184841007265806 61 50 32
0.06670327363534372 0.10735979802867321 -0.3624763697993845 63 50 34
0.06802612409842997 0.1073391792527137 -0.36361925097182707 64 52 36
0.06627516499643227 0.10735190045094106 -0.3658856543578654 62 50 34
0.06802072618642568 0.1073266994839526 -0.3668733213011716 65 53 36
0.06836105915852558 0.10731673300462645 -0.3683765063008988 61 48 30
0.06884000112224767 0.10730526287495613 -0.36982908799288006 61 44 25
0.06963272555718966 0.10729039648752994 -0.3711651170112425 80 63 38
0.07132234809741593 0.10726583464630987 -0.3721648295117734 85 69 43
0.07197692562594708 0.10725247149381553 -0.37355010071164174 97 82 52
0.0713758450246451 0.10725267043952685 -0.3754092099341087 90 75 46
0.07281064765384025 0.10723087910171421 -0.37650034898677653 89 74 46
0.07358452325487773 0.10721622810907187 -0.37784042700125936 99 83 54
0.07324009606608609 0.10721363634264103 -0.3796075229458058 96 79 51
0.07305066447479855 0.10720936267489603 -0.38131815940586217 91 73 45
0.07313294454158957 0.10720215306732096 -0.38292658365432625 94 79 50
0.0725966974802041 0.10720159407394139 -0.38477618924624896 108 93 64
0.07227583990928062 0.10719870399683762 -0.3865457359227041 111 96 67
0.07117154184004741 0.10720422456153907 -0.3886241861358321 117 101 72
0.06968220162459489 0.10721386059988045 -0.3908591637442804 122 105 75
0.07018630455256102 0.10720206532157417 -0.3923160986440685 117 100 70
0.07051287975187148 0.10719217391431206 -0.3938435450992998 118 101 71
0.06979993687986119 0.10719342796840371 -0.3957845749087175 115 98 68
0.06990460656648587 0.10718590157458611 -0.3974039929162391 104 87 57
0.07076513348177181 0.10717027174863285 -0.39872250706314244 97 80 52
0.07057769286119521 0.10716586487346257 -0.40046136501245655 91 74 47
0.07055998157258814 0.10715963188985969 -0.40213433138909743 87 70 44
0.07069392949930584 0.10715176924017311 -0.4037478955533385 91 74 46
0.06940842093785463 0.10715907055421153 -0.4059404984732069 101 84 54
0.06892820610855513 0.10715774665032259 -0.407810386158765 106 90 61
0.06888016490465716 0.10715179570165147 -0.4095066128671875 111 96 67
0.06873973980175778 0.10714682195758927 -0.41124304857960375 110 93 65
0.06730493232121819 0.1071556389759458 -0.41351710939305364 108 91 63
0.06752779774272681 0.10714676688483453 -0.41510984488226915 109 94 63
0.06660812699434528 0.10715005662106467 -0.4171800192469566 105 89 59
0.06753262734957895 0.10713370015334069 -0.4184836461714975 98 81 51
0.0674310968094868 0.1071282606821356 -0.42021724106490255 88 71 42
0.06734675896394393 0.10712262931902436 -0.42194595547983876 83 67 43
0.06771148331283777 0.10711221851096009 -0.4234868521124394 71 55 34
0.0672195105419093 0.10711089994657626 -0.425392730928899 81 63 42
0.06696191014514281 0.10710708038431452 -0.4272022792828703 92 75 48
0.06664247888192885 0.10710390525775829 -0.4290412260735418 91 74 46
0.06572173732143997 0.10710709048570505 -0.431141910924433 89 69 42
0.0654651890798915 0.1071032213859268 -0.4329609633757132 100 80 52
0.06572016454507736 0.10709392675595261 -0.4345612227608635 105 86 56
0.0655113288603156 0.10708953370222665 -0.43636450626725326 115 96 64
0.06508325310227567 0.10708744768228279 -0.43826632679037786 121 102 70
0.06525628865779502 0.10707899729549356 -0.4399080824732946 120 101 69
0.06566419428758132 0.10706806124185751 -0.4414479491573843 106 87 58
0.06556780340636438 0.1070624438646409 -0.44321135010835583 115 96 66
0.06493199926689301 0.10706250562736662 -0.4452164197654559 119 100 68
0.06505066488153904 0.10705459963127753 -0.4468898060977647 119 100 69
0.06471213746316215 0.10705150251613035 -0.44876922156616433 118 99 68
0.06471717295630199 0.1070447765442742 -0.45049774835203577 109 90 59
0.06469181491525057 0.10703836225804346 -0.4522420471200822 124 104 71
0.06430297762720931 0.10703576073981427 -0.4541528428909736 117 97 64
0.06392736938817675 0.10703300699488061 -0.45606106971783106 142 124 90
0.06366410252395403 0.10702906060445745 -0.45792152635859873 144 126 90
0.06342959519420774 0.10702480080139029 -0.4597718531042049 141 123 85
0.06335243829349138 0.10701887965280567 -0.4615529032325216 146 128 90
0.06459616339632125 0.10699910644754991 -0.4627279895129397 158 140 101
0.06531289839392183 0.10698486082383397 -0.46414456399200005 147 128 91
0.06381518681460974 0.10699379457559025 -0.4665883064036896 139 119 86
0.06380794997898334 0.10698710966296508 -0.46834519472804026 143 123 90
0.06318825159764671 0.10698681877917082 -0.47039053441205686 145 125 90
0.06275250741824455 0.10698458964499234 -0.4723538511803848 120 101 68
0.06279138503631068 0.10697739125496933 -0.47409733326628717 139 121 87
0.0623544744977705 0.10697514924936083 -0.4760676961456473 146 128 92
0.06290747272192382 0.10696257137934025 -0.4775721859971549 117 98 64
0.0625305857238614 0.10695968218877418 -0.47951960863443116 113 96 62
0.06205776763871035 0.10695777859309563 -0.48151633984010955 125 110 72
0.06197513240608013 0.1069517997025076 -0.48332978114715663 139 121 82
0.06168221227125399 0.10694799831613136 -0.4852468892793272 138 120 82
0.06138966646846275 0.10694418070001287 -0.487167017040039 149 130 92
0.060252398578234084 0.10694912468552006 -0.48949982037236256 153 134 94
0.059997798967055926 0.1069448827733447 -0.49140937589578415 159 140 99
0.06036110792087787 0.10693421917774815 -0.49302033796338074 157 140 96
0.0595171806611515 0.1069360669425281 -0.49522374756708193 158 140 97
0.059424312876964716 0.10693011393834244 -0.4970630018025092 154 136 96
0.05916792642094143 0.10692584408236176 -0.4989854851949528 153 135 96
0.059481806022501804 0.10691566203562246 -0.5006286722668484 143 125 89
0.05907970793161013 0.10691287859695922 -0.5026288065707089 139 121 84
0.059342082614252736 0.10690321525580919 -0.504301178999534 156 138 97
0.05868077251201703 0.10690308488320652 -0.5064371614729678 152 131 98
0.05848821238057467 0.10689809977319387 -0.5083422716235348 103 82 54
0.0585555655237221 0.10689042307400853 -0.5101192962785267 119 99 65
0.05849730930847562 0.106884033128861 -0.5119618580924468 162 143 103
0.058746876832273504 0.10687446350770771 -0.5136506334077037 169 150 110
0.05814550800002577 0.10687364643983918 -0.515774185055723 159 140 101
0.05774746092455979 0.1068707212627626 -0.5177982051003394 157 137 99
0.057932601038729714 0.10686178774615342 -0.5195267935993801 157 138 97
0.05829986756675404 0.10685097732964012 -0.5211632567006589 149 130 91
0.058043594345357885 0.10684656358576994 -0.5231227007361203 142 122 86
0.057987585880788894 0.1068400832984385 -0.5249815497151715 151 131 95
0.05713493694500352 0.10684175969876199 -0.5272571309785631 134 114 78
0.05786686683293815 0.10682718319709855 -0.528711224770261 129 109 74
0.060218748529292404 0.1067960244171568 -0.5293168189458224 143 122 87
0.06151923752383062 0.1067756451953227 -0.5304686487759229 156 136 99
0.05574621581832456 0.10682758937941395 -0.5353469810103363 146 134 102
0.05062849767591934 0.10687275002515559 -0.5399017041563241 183 174 154
0.05218876322069077 0.1068496526538273 -0.5409327721318339 132 123 109
0.042809886373059186 0.10693817412738008 -0.547786217648817 74 64 50
0.04318742595995728 0.10692708466443211 -0.5494624018619377 54 45 33
0.043827039108622984 0.10691332124011964 -0.5509990613030676 40 34 21
0.049514733797077715 0.10684816014105136 -0.5498200730259724 26 19 11
0.05018414267534785 0.10683412842325671 -0.5513316060435397 27 19 12
0.05219273530179691 0.1068064806635154 -0.5521177819910348 37 27 15
0.05470792176950118 0.1067737045993724 -0.5526237436293985 73 61 40
0.05491778576236761 0.10676436211084109 -0.5543798162135537 97 83 56
0.05464039066205831 0.10675995754577455 -0.5564040215811981 147 129 96
0.05468743317685293 0.10675225033740032 -0.5582535227537679 155 133 92
0.05473449191694546 0.10674453453056416 -0.5601052025558927 152 129 89
0.05439576836697149 0.10674071653638154 -0.5621722178374949 138 116 80
0.05395062581954166 0.10673796144453011 -0.564301829133439 162 141 105
0.05366088134260061 0.10673361962286072 -0.5663490166776901 165 146 107
0.054332368833741235 0.1067195518623761 -0.5678632907072352 163 144 104
0.05529266092535723 0.10670256825024384 -0.5692158072872726 168 148 109
0.0548205568873415 0.1067000422752652 -0.5713716968934653 164 144 104
0.054720560892993264 0.10669374836968427 -0.5733220307475313 159 140 98
0.05552257447209746 0.10667835510089876 -0.5747651901550499 172 153 111
0.05579507224310451 0.1066682956555726 -0.5765081220048447 174 155 113
0.056301152141148336 0.10665588055891496 -0.578119536495358 178 159 117
0.05669607010914415 0.10664458109958201 -0.5797949457788681 175 156 114
0.052028565995029114 0.10668414313762588 -0.5843706581660746 174 155 112
0.052018720334262136 0.10667686421389219 -0.5862899096765072 172 151 112
0.05165206086819665 0.1066731558057655 -0.5884173037968564 147 125 88
0.05156399078216478 0.10666663959006294 -0.5903873888464091 149 127 88
0.05148668023601369 0.10666000490975938 -0.5923539980398304 143 122 82
0.05159030269838183 0.1066515482350326 -0.5942180344394706 148 128 91
0.05024740249360721 0.106657555495715 -0.5969287155965195 163 144 104
0.050008710800010375 0.10665249474913485 -0.5990000864575952 165 146 105
0.04986906147277073 0.10664643162228049 -0.6010166123113937 166 147 106
0.048930135238020894 0.10664833614265201 -0.6035072830616541 160 142 101
0.04894531092542742 0.10664069967679798 -0.6054397335763124 164 145 106
0.049262557653811156 0.10663004267301733 -0.60719540814847 175 156 116
0.04901958107254767 0.10662496123677721 -0.6092857661101874 162 143 103
0.048850639064047574 0.10661912974635257 -0.6113353271405803 164 144 106
0.04839059485826483 0.10661618172148907 -0.61356234927038 147 126 86
0.04844574468315904 0.10660809660721933 -0.6154840974666529 143 121 80
0.048270706262393576 0.10660228892563955 -0.6175468623599497 130 109 68
0.04638595412511662 0.10661343781603987 -0.6206463797472439 142 124 83
0.045754267015855415 0.10661212206549321 -0.6229956515764321 147 128 86
0.04476548036865596 0.10661432632959607 -0.6255670728706055 144 122 80
0.04488221633220721 0.10660555837337514 -0.6274701621011411 142 119 86
0.044274688261857376 0.10660394943590719 -0.6298186820538693 96 72 42
0.04446070648884806 0.10659447492865726 -0.631684797425275 125 103 70
0.04435923510494799 0.10658783401850601 -0.6337298247531553 124 103 68
0.043332715945935685 0.10659031537132525 -0.6363493206083081 116 97 52
0.04553604450143117 0.10656090516306116 -0.6369736025644946 143 124 78
0.04441287214948769 0.10656431322459826 -0.6396599758780637 146 124 83
0.044376870124885615 0.10655698453195316 -0.6416752817307607 98 76 39
0.045204357396365885 0.10654114509143442 -0.6431531903374924 111 91 57
0.04463518616261414 0.10653904651709492 -0.6455067803222934 165 147 108
0.04379856873217361 0.10653955837283464 -0.648033451850772 169 152 106
0.04338414337503088 0.10653590111446075 -0.6502994169616853 171 154 110
0.0429674314526404 0.10653225014050118 -0.6525710205827244 185 166 123
0.044268236143391426 0.10651173922170593 -0.6537560054783579 171 152 112
0.04394541598612145 0.10650714846887074 -0.65597289968838 166 149 107
0.04281546207975026 0.10651044639108735 -0.6587093972885278 166 149 106
0.04542610082526369 0.10647711700215723 -0.6590554533247157 173 156 113
0.04365264181065681 0.10648668059249877 -0.6622123765827663 163 146 103
0.04422803527182362 0.10647326000166846 -0.6638642554133667 158 137 94
0.04404797049818643 0.10646721281864344 -0.6660051181776092 145 123 86
0.04387014041511017 0.10646113098273 -0.66814786533868 118 102 66
0.04379945977435443 0.10645399189988056 -0.6702242276977984 130 111 75
0.04428018216345153 0.10644147110507231 -0.6719436636554597 130 107 66
0.044272389159010356 0.10643370161434554 -0.6739836298902382 153 132 87
0.044117223344066925 0.10642735490831226 -0.6761230321348773 159 137 98
0.04409758436382191 0.10641967869697314 -0.6781764601369227 143 120 85
0.042774354295069233 0.10642464901212526 -0.6810935693955869 131 111 70
0.042955942658600615 0.10641498949275227 -0.6830217534786958 155 137 96
0.04213307056682952 0.10641505988574315 -0.685619234823311 119 103 66
0.042063248523065255 0.10640781290539082 -0.6877208535491427 144 124 83
0.04271104615427246 0.10639360862486365 -0.6893458422939513 166 147 103
0.040820596260700975 0.1064039522745828 -0.6926723291249582 157 139 96
0.04001020208851061 0.10640381924693684 -0.6952829075190471 160 143 100
0.039503943324024876 0.1064007266167425 -0.6976943428034345 169 152 107
0.04056454197221493 0.1063824979352031 -0.6990509427171893 170 153 108
0.041208096334918204 0.10636829565725046 -0.7006889005175134 180 163 122
0.041292157660517054 0.10635948243589903 -0.7027075961711858 147 127 93
0.04205292927886284 0.10634414630316523 -0.7042670356680428 87 66 41
0.0419122623192415 0.10633748119382636 -0.7064429341942395 61 39 16
0.04248943113684053 0.1063239048743133 -0.7081295613067329 132 111 82
0.04332775707917197 0.1063078191344976 -0.7096368993483966 136 115 83
0.04323452174822576 0.10630067378443636 -0.7117865839239159 115 94 58
0.04336315917728081 0.10629138929969795 -0.713785814272286 155 133 93
0.04310048013026879 0.106285844685554 -0.716058937987732 160 139 94
0.042657369471058304 0.1062820123486457 -0.7184614983069547 169 150 102
0.04220601711437588 0.1062782412840644 -0.7208743648998566 176 158 113
0.041668106829546636 0.10627527965082195 -0.7233524367545333 167 148 105
0.04169033066673719 0.10626695066812548 -0.7254421026384608 163 145 101
0.041593235877927515 0.10625974962540845 -0.7276185007836942 166 148 101
0.041516003643273264 0.10625234695416903 -0.7297840569342106 168 150 100
0.04177601147207341 0.1062417201477421 -0.7317138497028481 158 141 90
0.04194871816406992 0.10623191743152677 -0.733707408127509 157 140 88
0.040797492852498646 0.10623469600931275 -0.7366462268783114 167 150 99
0.04063760322082721 0.10622802672255599 -0.7388843137921988 167 150 101
0.04049052080623636 0.10622122245106319 -0.7411167005819596 170 153 104
0.04201450784378666 0.10619855392185881 -0.7421518604469257 172 155 107
0.03925823036125786 0.10621646546676616 -0.7462677277305501 172 154 107
0.038920666514055874 0.10621141786508226 -0.7486499831923435 168 150 106
0.03887404128611183 0.10620360110566379 -0.7508256492041379 168 149 107
0.0377414381918022 0.10620603943260234 -0.7537935235820554 159 139 98
0.039058531240762556 0.10618530873508948 -0.7549837357744573 147 126 85
0.03758239990458709 0.1061909507553698 -0.758212664403575 156 137 97
0.035974405657883346 0.1061978017600131 -0.7615471802657903 159 142 98
0.034116901134215866 0.10620696704286547 -0.7650745768246481 156 140 96
0.03111515563806644 0.10622686385989782 -0.7694558104906492 135 120 85
0.02786928150791232 0.10624899799856811 -0.7740327781634524 101 92 62
0.025515415791010715 0.10626268565047306 -0.7779650246657768 125 114 86
0.02763592019314237 0.1062343082985124 -0.7785846926503007 115 99 70
0.028331700830542234 0.10621932082496566 -0.780260292289308 123 106 75
0.028423189487738088 0.10620999799742965 -0.7823875559383994 142 126 92
0.02453593947544086 0.10623793154258071 -0.7874991164497824 149 134 97
0.02757625783401313 0.10620096081151348 -0.787423775085903 156 142 103
0.02773490647327706 0.1061909719430886 -0.7895103039422996 153 139 103
0.028423102538993994 0.10617602702264275 -0.7911989762451583 141 127 92
0.02994406822348339 0.10615330851985091 -0.7922567021485749 125 110 76
0.03158140598114614 0.1061295177945896 -0.7932226106680116 124 108 75
0.03324374354601964 0.10610550910318468 -0.7941655844660688 121 104 72
0.0359795969065963 0.1060715215036579 -0.794284331132392 107 91 58
0.03868571484385411 0.10603784335493756 -0.7944173374342745 104 88 56
0.037789391175283266 0.10603767755986601 -0.7973095668150882 89 73 40
0.038695164266773496 0.10602075224770255 -0.7988202665449589 105 89 54
0.039330833888712696 0.10600633601204315 -0.8005387830885163 106 89 55
0.040521378297944555 0.10598677532569775 -0.8018277981350859 120 104 66
0.041503637564655166 0.10596915146374969 -0.803276548962963 133 117 78
0.041845061347033224 0.10595746168304603 -0.8052232438581733 161 142 104
0.04235729790886092 0.1059441867919556 -0.8070380948092265 141 125 88
0.042150915706403114 0.10593754623623315 -0.8094165198969593 150 134 96
0.04517016514854455 0.10590112351768513 -0.809266012745548 143 126 86
0.04507143976053041 0.10589348681927309 -0.8115605914265822 131 116 77
0.04494749937265652 0.10588606913590413 -0.8138785168257879 153 137 96
0.04461862945143122 0.10588052384240261 -0.8163622237810214 152 135 95
0.044079606784470066 0.10587689386628812 -0.8190171815716613 158 140 98
0.043672891990143736 0.10587202773927971 -0.8215721839439813 149 129 92
0.04440601142967343 0.10585668078730177 -0.8232223301871534 162 142 99
0.044548335699866826 0.10584675212682357 -0.8253451345217087 167 145 102
0.044913876665671676 0.10583476887218493 -0.8272912850338711 156 134 95
0.04439636032205624 0.10583086333312433 -0.8299493522012671 144 125 86
0.044587058403270874 0.10582046029100628 -0.8320414278971218 142 125 86
0.04422244332935432 0.10581512261944223 -0.83458490979866 130 110 74
0.04385707733859123 0.10580977383395693 -0.8371336613567046 147 124 83
0.045483283565120214 0.1057862427226088 -0.8380676179350384 163 142 97
0.045121538663259464 0.10578084152955776 -0.8406184518965506 155 137 91
0.04502070053455837 0.10577304707318114 -0.8429606646525218 149 131 85
0.04496557375646126 0.10576482318281655 -0.8452689539836976 149 131 85
0.04537988449060193 0.1057523205609893 -0.847194785215011 148 130 84
0.04344786256271771 0.10576111438838721 -0.8510554025244423 148 130 85
0.04211079996559869 0.10576446720730351 -0.8544360169039754 150 133 89
0.04065605564954389 0.10576885177782305 -0.857923108797589 150 135 92
0.039195265030220805 0.10577325437353273 -0.861424745390236 147 133 96
0.03872359914940965 0.10576867357083149 -0.8641122084281735 91 84 68
0.03765265500474568 0.10576948787540609 -0.8673053089070017 46 45 35
0.03657804429703854 0.10577030486144848 -0.8705093691281579 56 52 42
0.03536778957733211 0.1057723147329161 -0.873835211543359 93 85 76
0.03758507734654076 0.10574340638571557 -0.8742849509943167 133 128 123
0.03617094097904433 0.1057382685159792 -0.8801128198282919 175 173 177
0.031260207202007215 0.1065506084226538 -0.28892106985865335 180 180 182
0.030246692067714825 0.10655348550988365 -0.2907892733606682 180 180 182
0.03639007042558173 0.10647293783729428 -0.29378657140876163 179 179 177
0.04028591976340114 0.10642821993081496 -0.29424363482635 174 170 163
0.04348353922323663 0.10639030687233753 -0.29489329633898476 159 151 138
0.04744474035521902 0.10634503973592453 -0.29531243599567725 144 130 112
0.04818332009290538 0.10633097930772029 -0.2966659951851838 150 134 108
0.05020218701754133 0.1063045493380731 -0.29764190481511127 150 133 105
0.052215489136878776 0.10627819214599143 -0.2986151412426373 147 129 101
0.05408087996857633 0.10625328124862445 -0.2996280941218048 145 126 97
0.05655465987093972 0.10622252072641251 -0.300455155760709 152 133 100
0.05909137097534367 0.10619117902350063 -0.30125756550407545 159 139 104
0.06225172031839246 0.10615385809608754 -0.3018655622404058 170 148 110
0.07089056401912336 0.10605019594683071 -0.3039008432042022 162 148 122
0.07056327611145666 0.10604649836436662 -0.305554070134846 144 129 104
0.07011558254712055 0.10604394386656832 -0.3072474017730908 105 91 69
0.06871293093071058 0.10605053259667008 -0.3092412856685385 54 39 24
0.06721469366790078 0.10605801034824672 -0.31127118996004705 42 25 10
0.06613266363613413 0.10606147443035802 -0.3131766153140167 46 28 12
0.06445207444519929 0.10607064333249068 -0.315276341031627 57 36 19
0.06547491830533408 0.10605393123704278 -0.3165245457670926 66 42 25
0.07043197243428596 0.10599963294115458 -0.3165159754533443 64 40 23
0.0706973312615129 0.10599019215997586 -0.3179983184869228 63 42 21
0.07298326555576903 0.10596146755589275 -0.31883062804701817 63 43 20
0.07118500180946523 0.10597170786953937 -0.3209799298559406 65 43 24
0.072478503086024 0.10595245756798342 -0.3221308786526562 66 44 25
0.07400604330906506 0.10593098861955537 -0.32320314118287197 68 46 27
0.07469457670140198 0.10591751503711537 -0.32454801573591713 68 47 27
0.07454385098795915 0.10591202198688315 -0.3261694961105799 66 46 26
0.074403565834033 0.10590641962234686 -0.32778981267495194 72 54 32
0.07431121731032223 0.1059003521673924 -0.32939643152176895 75 59 37
0.07478373384912973 0.10588891662484985 -0.3308161481725458 75 59 36
0.07415907450354814 0.10588788056372712 -0.33260509765047414 76 60 37
0.07278938594956225 0.10589388541264408 -0.3346494879083742 80 64 41
0.07189122093632706 0.10589539975059516 -0.3365400113393412 83 67 44
0.07158767943296095 0.10589126888575796 -0.33823249520343307 73 55 32
0.07169126886997738 0.10588327734830114 -0.33978835734649016 76 60 35
0.06960186183755013 0.10589599256817948 -0.3421002382789937 85 70 44
0.06814341358524378 0.10590271537807223 -0.3442024886502774 85 69 43
0.06660286338658682 0.10591018403392202 -0.34633971003817526 84 69 45
0.0676451612175457 0.10589328102785944 -0.3475828470548761 82 70 50
0.06413445528545894 0.10591926220517138 -0.3504197167461109 69 58 43
0.06294128283505833 0.10592337690888846 -0.35245396048662275 58 48 36
0.06126034726476966 0.1059320533371583 -0.3546663061562518 54 44 33
0.0615212710329775 0.10592245107685605 -0.35619632621739944 52 42 29
0.062155237998797325 0.10590934134890673 -0.3575943637607581 52 43 27
0.06271585504804254 0.10589692030312463 -0.35901857406242166 57 47 30
0.06505650025815184 0.10586780990301119 -0.3598023404655114 62 52 33
0.0662549883791802 0.10584942429724037 -0.36099340588349266 64 52 34
0.06713456278600832 0.10583403263231027 -0.3622983432367874 65 51 34
0.06870653600073037 0.10581216786697827 -0.36334990289975094 66 52 34
0.06790351410492175 0.10581251698221772 -0.3652681857647833 71 57 38
0.06846852270701907 0.1058000683707443 -0.3666877276771333 75 62 41
0.06915776576996244 0.1057864597538098 -0.36806148065081234 80 65 42
0.06975853378670288 0.10577367755398215 -0.36946777344510495 80 64 39
0.07052626992061643 0.10575933936714355 -0.3708118388757073 92 76 47
0.0713322120558193 0.10574464779066185 -0.37214106288632737 98 81 54
0.07107554581104418 0.1057398467564545 -0.37386902826788926 107 91 62
0.07204751608270983 0.10572360979278754 -0.37513595766168173 108 93 64
0.07274496902001806 0.10570992861906035 -0.3765057541559122 100 85 57
0.07328333443716306 0.10569772576660738 -0.377935799993894 97 82 53
0.07241225603705219 0.10569859686827082 -0.37990491699609946 103 86 58
0.0711040569634715 0.10570349885901906 -0.38204662721084115 95 77 50
0.07173671770057913 0.10569039675711718 -0.38344618338609354 93 77 48
0.07199224573499952 0.10568078552697074 -0.38499166082732095 110 95 66
0.07236703144914279 0.10567006645417927 -0.3864918915807209 110 95 66
0.06823425946485276 0.10570099768407892 -0.38975281606253864 121 105 76
0.0698689420021165 0.1056786063171063 -0.3907678899891307 128 111 81
0.07043969555171783 0.10566604605893819 -0.3921984776716582 118 101 71
0.06835726019861216 0.10567794578908066 -0.39467807777026326 116 99 69
0.06864646529792885 0.105667959117207 -0.3962249838080007 116 99 69
0.06873815435914943 0.10565978599367862 -0.39785165579557846 104 87 57
0.06883268056363928 0.10565157935679698 -0.3994788756891667 84 67 40
0.06880797748163457 0.1056444610950371 -0.40115568945694197 84 67 40
0.06886690906105113 0.10563656567237054 -0.40280082597616196 88 71 44
0.06864768484196357 0.10563121465254305 -0.40456046434039417 94 77 49
0.06803606265882281 0.10562944941679271 -0.4064824574539086 98 81 52
0.0675792761758431 0.10562624796288533 -0.40834522301425613 104 88 59
0.06789296737298396 0.1056159779659145 -0.409895515822393 107 91 62
0.06828421828513145 0.10560499424696615 -0.4114148463905397 106 89 60
0.06678225537117892 0.10561131051192846 -0.41371759728964114 105 88 60
0.06707890772795899 0.1056011705277378 -0.41528076990440865 108 92 62
0.0666191887205436 0.10559792782259822 -0.4171601913345282 108 91 61
0.06530500633253469 0.10560246015761252 -0.41940067188956737 104 87 57
0.06727646438300622 0.10557703104324975 -0.42026738397569785 98 79 51
0.06702108153592004 0.10557189277644813 -0.42206868596312397 100 81 55
0.06707140458713463 0.10556396118919069 -0.4237434430270603 91 73 47
0.06665487859609703 0.10556026421003288 -0.4256185118359011 97 78 50
0.0664903442550056 0.10555426376803122 -0.42738948472096705 99 82 52
0.06618393793507694 0.10554953915576043 -0.4292238353900812 98 81 51
0.06595005598888581 0.10554414345369958 -0.43103007454739173 101 83 52
0.0657471091077937 0.10553845499386048 -0.4328257993193841 98 79 48
0.06574572952803107 0.10553092997694363 -0.4345369020968687 101 82 52
0.06546379064557575 0.1055259332157786 -0.4363721497098692 113 94 62
0.06547965687822588 0.10551823200861303 -0.438080337009446 114 95 63
0.06517151107557476 0.10551344745789884 -0.43993261660571803 123 104 72
0.0652647866098209 0.10550502765016423 -0.44161132292816135 120 101 71
0.06528232122385488 0.10549728280575937 -0.4433252628555836 116 96 66
0.06476573748165702 0.1054943397574553 -0.4452781328294699 125 106 75
0.0642546864929154 0.10549133000388747 -0.4472323777315985 127 109 78
0.06423402800284841 0.1054838938127691 -0.4489712791317283 113 94 63
0.06421152171668862 0.10547646466266986 -0.45071317906884223 111 90 60
0.0643910219170092 0.10546721250084329 -0.45236629066244594 118 98 65
0.06445227114627103 0.1054590143929794 -0.454074351168224 114 94 61
0.06359504451173717 0.1054590392591813 -0.45620105039993447 115 95 62
0.06377063567326242 0.1054497936020874 -0.4578624095507713 139 120 86
0.0635552082042925 0.10544403966407659 -0.45970403877985255 142 124 86
0.06309095440475285 0.10544049748398998 -0.46166270106320895 152 134 96
0.06320360169177015 0.10543178612149333 -0.46335938361388207 160 142 102
0.06364070769573119 0.10542017148814505 -0.46490782512406037 151 133 95
0.06375516143846655 0.105411431061178 -0.46660660980889374 139 119 86
0.06433470183851846 0.1053985393914962 -0.468090548345436 143 122 89
0.06297146107647698 0.10540294095477538 -0.4704827374467204 154 135 98
0.06273800341790259 0.10539726405274077 -0.47235173461306657 144 125 91
0.06250418491314838 0.1053915773252213 -0.47422385910255405 147 129 93
0.062270008149499026 0.10538588071708173 -0.4760991169913149 144 126 90
0.06265644755511329 0.10537466539664972 -0.4776829740404522 130 108 74
0.06214384776979584 0.1053714151423554 -0.4796956489947338 122 101 67
0.061636754732406554 0.10536809873697697 -0.4817096378043414 131 112 75
0.06139755918272782 0.10536239455744019 -0.4835990980665199 140 120 81
0.06127968696303095 0.10535560453471846 -0.4854331809646991 148 127 89
0.06111543394211652 0.10534921276461999 -0.4872922591417959 161 142 103
0.06082632350036617 0.10534391074154635 -0.4892146197882668 157 139 98
0.06053672414650227 0.10533859892744472 -0.4911404185011466 157 139 99
0.05997006354542525 0.10533571387890761 -0.49320469209799667 160 142 100
0.05959542986333545 0.10533112012967968 -0.4951790605277543 165 146 104
0.059455424151794986 0.10532444742844575 -0.4970415761912284 148 128 91
0.05909635683032104 0.10531968767915263 -0.4990148942775848 129 110 78
0.05942652746106761 0.10530886171182752 -0.5006503624251892 101 81 52
0.05930609145596241 0.10530198350777653 -0.50251083392411 135 116 83
0.05917520257005318 0.10529518523958613 -0.5043791668067553 157 138 100
0.05863862149286116 0.10529192731065164 -0.5064532365962593 139 119 87
0.057967596627146734 0.10528982733573912 -0.5085989564572312 145 124 97
0.057980113942347006 0.10528173266929912 -0.5104047628600438 147 127 95
0.05785339471681769 0.10527484419802771 -0.5122831937695306 158 139 101
0.057868075769873295 0.10526671015877197 -0.5140925528698121 155 136 100
0.057424546257893755 0.10526256062243006 -0.5161374925955877 143 123 87
0.0571833698732063 0.10525663188553026 -0.5180828395332242 146 125 90
0.057377759332882444 0.10524689940695615 -0.5198079137439332 153 133 97
0.05787149632172184 0.10523455760870208 -0.5213805036464808 133 112 77
0.057586440187278876 0.10522897786879526 -0.5233558022285376 135 114 78
0.05745537097399314 0.10522204736420714 -0.5252545924132177 135 115 79
0.056761289076072224 0.10521998603723003 -0.5274488959242439 130 112 77
0.05735045871174135 0.10520678811894399 -0.5289783796080431 130 110 75
0.059333011344922054 0.10518153081578768 -0.5297785044862438 143 124 89
0.056597131700058034 0.10519709161700988 -0.5330527242421699 150 135 104
0.05228610776418477 0.10522620578453233 -0.5371693991199803 189 184 170
0.04380518741898584 0.10529122977258934 -0.5435095409517394 217 214 208
0.045916569921032185 0.10526477651215628 -0.5442606044987482 132 125 116
0.04063274581618159 0.10530205333250141 -0.5489447380887269 85 72 59
0.03953329070265402 0.10530322240068174 -0.5514143214547759 66 55 39
0.04095951902715772 0.10528264593652889 -0.5525360625506188 49 40 27
0.046679805811999986 0.10522519250869235 -0.5513449611411829 30 23 13
0.04898915892350439 0.10519709520635057 -0.5519766614732933 27 19 12
0.0510971160133456 0.10517075131930223 -0.552711425318585 30 20 10
0.0529480161697749 0.10514663290667403 -0.5535805830365647 54 42 25
0.05522702773899954 0.10511886960684393 -0.5542119616007736 92 80 56
0.054455346682222294 0.10511721834837305 -0.5565062343168263 121 107 77
0.05445074421361315 0.1051089913451619 -0.5583846575182838 151 135 94
0.05438146925069218 0.10510130583254917 -0.5603010710363281 144 124 82
0.0538818146497797 0.1050972785128945 -0.5624578863854801 141 119 82
0.05366999751293827 0.10509078071569807 -0.5644593407946235 149 127 91
0.053392527613115026 0.10508482778355298 -0.5665004581551781 170 150 110
0.05308087993443397 0.10507915048325354 -0.5685640425483212 168 150 110
0.05528086824766598 0.10505212266233377 -0.5692250865395457 169 150 111
0.053738810016050464 0.10505687627167776 -0.5719821915017335 167 149 109
0.05446685323890779 0.10504234785555815 -0.5734681618395426 177 158 116
0.05265943314920843 0.10504929643078648 -0.5763872424657002 177 158 115
0.05212294720595778 0.10504545039091334 -0.5785945371106448 174 155 113
0.05147918420953368 0.10504249191595834 -0.5808672649423673 179 159 118
0.051080777105380004 0.10503744009988529 -0.5830047197735786 180 160 118
0.050933124099395294 0.10503025535638481 -0.5850024570453498 178 159 117
0.05095583632072273 0.1050216214265972 -0.5869052801200215 174 154 113
0.051080435434893295 0.10501211913696883 -0.588751719717989 148 127 90
0.05126055431617621 0.10500214105942274 -0.5905680262362123 123 104 64
0.05133270053423661 0.10499306267565753 -0.5924487438304001 148 130 90
0.05067107166323298 0.1049901359682345 -0.5947587037498318 153 134 96
0.04994459614359556 0.10498773155823343 -0.5971114427488857 171 152 111
0.05068757023885953 0.10497299005500722 -0.5986086290946687 164 145 105
0.050506543339045445 0.1049659856680211 -0.600648454815022 163 144 105
0.050169441111852814 0.10496027280626423 -0.6027834271795347 165 146 108
0.050788358269866524 0.10494655548822747 -0.604356782913065 163 145 106
0.050352056523337546 0.10494164563427666 -0.6065562844433405 172 153 112
0.04991486874938467 0.10493672502062291 -0.6087604316840172 167 149 107
0.047915273101325234 0.10494480207506762 -0.611901458340215 148 131 89
0.047519960620600515 0.10493948356186301 -0.6140917375817927 117 98 58
0.04443697024872964 0.10495649290563158 -0.6179006701806066 122 102 63
0.044653107809227766 0.10494603828827882 -0.6197355229969018 125 106 66
0.04485646483211633 0.10493568222099073 -0.6215798030502696 115 100 63
0.04460958537450105 0.10492905045795027 -0.6236988758184938 116 98 61
0.04229658169200179 0.10493951235548475 -0.6270783031802868 136 113 72
0.04270761509417001 0.10492739029671261 -0.62880675134404 138 114 80
0.04166478620091063 0.10492727855354227 -0.6314261353399144 107 83 49
0.04310886795449781 0.1049066072630937 -0.6325249853905462 142 118 78
0.04585400394496217 0.10487521896442939 -0.6328195145272548 125 100 55
0.04452327789603805 0.10487744558628322 -0.6356243885725005 147 125 76
0.044377864075593715 0.10486988303250044 -0.6377022933351676 152 132 88
0.04424183844360688 0.1048622295485604 -0.6397774800885592 127 106 68
0.04478963605093897 0.10484894589635615 -0.6414293320695321 105 84 47
0.044534653400075036 0.10484224699022039 -0.6435837983973456 112 91 54
0.04375543924200001 0.10483982930742497 -0.646070736230126 165 146 107
0.04267653786618053 0.10483984090580051 -0.6487518599362087 134 117 76
0.04251097409139307 0.10483235205686023 -0.6508631614710794 168 151 108
0.04272970107445473 0.10482170887417686 -0.6527343647326993 174 156 113
0.04501075924285752 0.10479422397033662 -0.6532974752982537 164 145 102
0.04392174578569438 0.10479424626545232 -0.6560013252614222 172 154 111
0.0422559492944779 0.10479893671935764 -0.6590805598580335 174 158 115
0.04604390636332481 0.10475920994761374 -0.6586733533462352 176 159 116
0.04423263918270223 0.10476504947490953 -0.6618536826177115 167 150 107
0.04378221598871013 0.10475979653168803 -0.6641661692135117 153 133 90
0.04362897913010377 0.10475211370853099 -0.666290826733569 158 137 94
0.043448256805266344 0.1047446393534029 -0.6684365458838674 146 129 87
0.0434641834520777 0.10473555855179359 -0.6704576577540565 152 134 96
0.0439466657771688 0.10472269400885766 -0.6721768712840079 118 96 56
0.04358984455967607 0.10471660509485889 -0.6744462329128891 135 113 67
0.044255714358814785 0.10470224694675437 -0.6760482196336951 141 119 74
0.042764940876694524 0.10470527039266382 -0.6790703846806052 126 105 63
0.04214682199711775 0.10470123055421848 -0.6815247195900388 138 118 77
0.042437328621318215 0.10468986074415997 -0.6833822671387058 157 139 96
0.04176883055868505 0.10468618849473545 -0.6858785018283012 142 126 85
0.0414189203382444 0.10467993613906869 -0.6881677626555164 147 129 85
0.04169224112931175 0.10466866983320584 -0.6900445713137879 156 139 93
0.04187676600910814 0.10465810743951387 -0.6919825182955498 152 134 94
0.04082487096324269 0.10465742631433192 -0.6947536655474981 148 131 90
0.03967055965198185 0.10465753321228732 -0.697600744095696 168 150 107
0.039691135977422354 0.10464823071969202 -0.699660598834648 153 135 94
0.04031071201991365 0.1046341409740098 -0.7013168315458752 161 142 101
0.04130965026170502 0.10461702886889505 -0.7027152764576017 154 131 94
0.04164001472068646 0.10460524082749204 -0.704568588358974 96 74 46
0.04134970182661882 0.1045983786346727 -0.7068479933522225 60 38 11
0.041934500446024564 0.10458455304756141 -0.7085307883639093 115 93 58
0.042690700508293405 0.10456936667246718 -0.710096031152921 146 123 90
0.042722648265535984 0.1045599175134696 -0.7121608829525676 105 82 47
0.04340061067449391 0.10454534613249744 -0.7137811789074275 143 120 82
0.04271507522339876 0.10454154922168177 -0.716348083644749 159 138 95
0.041743546306560214 0.10453998543682447 -0.7191196251898198 145 126 81
0.041706402824045447 0.10453102507447173 -0.721245416860508 155 136 94
0.04178414699606067 0.10452114700197009 -0.7232936849874133 161 141 100
0.04155251437328397 0.10451369181987057 -0.7255616919813028 155 135 93
0.040450649523125465 0.10451305832920259 -0.7284463287721031 168 150 106
0.04033793784827311 0.1045046291281931 -0.7306395577368756 171 153 105
0.04081202608238077 0.10449158507716928 -0.7324203877029019 156 138 90
0.04182946718769248 0.10447428211982457 -0.7338161175158219 164 146 98
0.041819607066515496 0.1044650205893674 -0.7359423869522134 165 147 100
0.04203428486863611 0.10445399213348149 -0.7379110935291295 166 147 101
0.04218535444986432 0.10444345150012121 -0.739927322085016 161 142 95
0.0418722856217148 0.10443651914259468 -0.7422792548776374 166 147 101
0.0415519887506898 0.10442962494577432 -0.7446405074450019 160 141 96
0.04013809995529177 0.10443121746056211 -0.7477961474594559 170 151 105
0.03980780346045659 0.10442435446842144 -0.7501751926284927 173 154 110
0.0385932913091781 0.10442433360794158 -0.7532010126734175 168 150 106
0.03775253650163585 0.10442138153421167 -0.755962302904437 164 145 103
0.03848792893450631 0.10440620069262287 -0.7575780487190175 154 136 98
0.03725878340538699 0.10440621008087139 -0.7606334047161558 154 139 97
0.03621189492568705 0.10440477689975508 -0.7635627641396563 162 145 101
0.033540221215998145 0.10441584503585691 -0.7676968041497549 151 134 94
0.030675107968026222 0.10442834209237084 -0.7719877544474814 122 108 74
0.03227407228280166 0.10440642086245044 -0.772984987686303 128 115 85
0.03026603032853739 0.10441224060878815 -0.7766592810675779 128 115 83
