ply
format ascii 1.0
element vertex 850
property float x
property float y
property float z
property float nx
property float ny
property float nz
property uchar diffuse_red
property uchar diffuse_green
property uchar diffuse_blue
property uchar class
property uchar detection
end_header
-0.1547 -0.0072 -0.3754 -0.959 -0.116 0.260 39 25 14 0 0
-0.1564 -0.0071 -0.3811 -0.899 -0.206 0.386 62 49 33 0 0
-0.1570 -0.0071 -0.3824 -0.899 -0.206 0.386 63 51 35 0 0
-0.1575 -0.0071 -0.3838 -0.895 -0.065 0.442 70 59 42 0 0
-0.2049 -0.0088 -0.4714 -0.919 0.005 0.394 65 55 45 0 0
-0.1697 -0.0002 -0.5444 -0.973 0.225 0.054 27 22 19 0 0
-0.1700 -0.0001 -0.5461 -0.994 0.084 0.064 26 21 18 0 0
-0.1704 0.0002 -0.5531 -0.990 -0.036 0.138 43 38 35 0 0
-0.1737 0.0003 -0.5620 -0.820 -0.426 0.382 36 31 25 0 0
-0.1854 -0.0000 -0.5860 -0.877 -0.319 0.359 61 52 43 0 0
-0.1860 -0.0000 -0.5875 -0.898 -0.301 0.320 57 48 39 0 0
-0.1865 -0.0000 -0.5890 -0.916 -0.059 0.396 102 95 85 0 0
-0.1888 -0.0000 -0.5949 -0.960 -0.195 0.199 113 101 86 0 0
-0.1896 0.0003 -0.6036 -0.822 -0.292 0.488 59 50 35 0 0
-0.1904 0.0003 -0.6050 -0.822 -0.292 0.488 44 35 25 0 0
-0.1909 0.0003 -0.6066 -0.857 -0.165 0.488 30 21 11 0 0
-0.1619 0.0084 -0.6845 -0.714 -0.556 -0.426 8 7 5 0 0
-0.1615 0.0086 -0.6868 -0.802 -0.528 -0.280 9 8 6 0 0
-0.1732 0.0071 -0.6884 -0.430 -0.040 0.902 17 14 13 0 0
-0.1899 0.0055 -0.7000 -0.898 -0.432 0.088 51 44 30 0 0
-0.2133 0.0030 -0.7118 -0.901 -0.054 0.430 77 66 48 0 0
-0.2140 0.0029 -0.7132 -0.990 0.017 0.140 58 47 31 0 0
-0.2143 0.0030 -0.7150 -0.994 -0.098 0.044 59 47 31 0 0
-0.2145 0.0032 -0.7188 -0.987 -0.140 0.074 111 99 79 0 0
-0.2151 0.0032 -0.7204 -0.945 -0.108 0.310 81 68 46 0 0
-0.2156 0.0032 -0.7220 -0.945 -0.108 0.310 77 62 46 0 0
-0.2152 0.0034 -0.7243 -0.875 0.284 0.392 78 65 48 0 0
-0.1971 0.0095 -0.7932 -0.750 -0.307 0.586 84 72 48 0 0
-0.1986 0.0093 -0.7941 -0.952 -0.036 0.305 72 62 37 0 0
-0.1991 0.0094 -0.7957 -0.952 -0.036 0.305 65 54 28 0 0
-0.2083 0.0086 -0.8048 -0.993 0.115 0.042 116 98 65 0 0
-0.2137 0.0095 -0.8344 -0.934 0.358 0.005 91 82 54 0 0
-0.0981 -0.0045 -0.2554 -0.847 0.035 0.531 65 55 42 0 0
-0.0984 -0.0045 -0.2568 -0.931 -0.082 0.355 48 41 34 0 0
-0.1121 -0.0058 -0.2668 -0.921 -0.068 0.385 173 157 130 0 0
-0.1126 -0.0058 -0.2682 -0.921 -0.068 0.385 143 126 98 0 0
-0.1292 -0.0068 -0.2907 -0.898 -0.141 0.416 116 100 72 0 0
-0.1369 -0.0070 -0.3067 -0.732 0.181 0.657 75 69 57 0 0
-0.1467 -0.0080 -0.3127 -0.932 -0.163 0.323 29 23 20 0 0
-0.2051 -0.0072 -0.4730 -0.827 0.366 0.426 64 55 44 0 0
-0.1610 0.0006 -0.5065 -0.917 -0.119 0.380 75 68 60 0 0
-0.1698 0.0017 -0.5499 -0.988 0.073 0.135 35 30 27 0 0
-0.1704 0.0018 -0.5531 -0.990 -0.036 0.138 52 46 40 0 0
-0.1779 0.0014 -0.5650 -0.882 0.138 0.451 42 33 26 0 0
-0.1787 0.0014 -0.5664 -0.882 0.138 0.451 46 35 30 0 0
-0.1861 0.0014 -0.5856 -0.933 -0.020 0.360 72 64 53 0 0
-0.1865 0.0015 -0.5872 -0.961 0.046 0.274 59 51 40 0 0
-0.1890 0.0015 -0.5948 -0.964 -0.183 0.193 114 102 87 0 0
-0.1895 0.0016 -0.5963 -0.943 -0.096 0.319 79 65 51 0 0
-0.1903 0.0015 -0.5977 -0.900 0.091 0.425 64 50 41 0 0
-0.1909 0.0015 -0.5991 -0.868 0.047 0.495 79 67 54 0 0
-0.1637 0.0098 -0.6833 -0.714 -0.556 -0.426 8 6 6 0 0
-0.1628 0.0101 -0.6860 -0.757 -0.587 -0.286 8 7 5 0 0
-0.1623 0.0102 -0.6883 -0.705 -0.396 0.589 9 8 6 0 0
-0.1711 0.0089 -0.6860 -0.833 -0.203 0.515 11 10 8 0 0
-0.1881 0.0074 -0.7014 -0.804 -0.351 0.480 66 55 37 0 0
-0.1884 0.0075 -0.7031 -0.691 -0.147 0.708 44 36 24 0 0
-0.2130 0.0048 -0.7161 -0.932 0.345 0.106 71 58 42 0 0
-0.2140 0.0048 -0.7173 -0.940 0.342 -0.016 97 84 68 0 0
-0.2140 0.0050 -0.7214 -0.942 0.337 0.005 78 65 47 0 0
-0.2145 0.0050 -0.7229 -0.976 0.211 0.051 79 66 50 0 0
-0.2148 0.0051 -0.7247 -0.875 0.284 0.392 76 63 46 0 0
-0.2153 0.0051 -0.7263 -0.960 0.260 0.099 79 66 49 0 0
-0.2154 0.0052 -0.7283 -0.990 -0.028 -0.140 69 56 38 0 0
-0.2151 0.0054 -0.7305 -0.985 0.143 0.096 60 47 30 0 0
-0.2134 0.0058 -0.7339 -0.939 0.335 -0.076 77 64 48 0 0
-0.2080 0.0104 -0.8051 -0.967 0.253 0.016 113 97 63 0 0
0.0086 0.0073 -0.1764 -0.810 0.515 0.282 176 176 176 0 0
0.0007 0.0063 -0.1767 -0.957 0.107 0.269 177 177 177 0 0
-0.0004 0.0062 -0.1781 -0.921 0.045 0.387 176 176 177 0 0
-0.0013 0.0061 -0.1794 -0.882 -0.049 0.469 176 176 177 0 0
-0.0021 0.0061 -0.1809 -0.882 -0.049 0.469 176 176 176 0 0
-0.0028 0.0061 -0.1823 -0.882 -0.049 0.469 175 173 171 0 0
-0.0035 0.0062 -0.1852 -0.991 0.112 0.069 168 159 147 0 0
-0.0044 0.0069 -0.2006 -0.839 0.432 0.331 122 109 84 0 0
-0.0112 0.0069 -0.2180 -0.613 0.560 0.558 157 144 110 0 0
-0.0129 0.0067 -0.2193 -0.549 0.433 0.715 131 117 83 0 0
-0.1507 -0.0066 -0.3221 -0.839 -0.120 0.530 183 168 139 0 0
-0.1595 -0.0071 -0.3344 -0.917 -0.212 0.338 43 39 31 0 0
-0.1554 -0.0049 -0.3640 -0.866 -0.199 0.458 85 67 45 0 0
-0.1689 0.0033 -0.5468 -0.950 -0.063 0.305 23 18 15 0 0
-0.1694 0.0033 -0.5483 -0.950 -0.063 0.305 30 25 21 0 0
-0.1699 0.0033 -0.5498 -0.950 -0.063 0.305 38 33 29 0 0
-0.1699 0.0034 -0.5516 -0.988 0.073 0.135 40 35 31 0 0
-0.1746 0.0033 -0.5616 -0.890 -0.114 0.442 44 34 26 0 0
-0.1756 0.0032 -0.5628 -0.979 -0.080 0.188 41 33 25 0 0
-0.1832 0.0029 -0.5764 -0.932 0.031 0.360 58 45 31 0 0
-0.1839 0.0029 -0.5778 -0.968 -0.009 0.251 88 77 62 0 0
-0.1852 0.0031 -0.5844 -0.938 0.216 0.270 115 108 91 0 0
-0.1896 0.0031 -0.5963 -0.943 -0.096 0.319 67 54 41 0 0
-0.1900 0.0032 -0.5979 -0.753 0.056 0.655 61 48 38 0 0
-0.1641 0.0115 -0.6851 -0.753 -0.544 -0.371 7 6 4 0 0
-0.1718 0.0104 -0.6836 -0.753 -0.584 0.303 9 8 6 0 0
-0.2136 0.0064 -0.7157 -0.896 0.417 0.150 64 56 42 0 0
-0.2131 0.0069 -0.7241 -0.945 0.327 -0.022 72 59 42 0 0
-0.2136 0.0069 -0.7258 -0.820 0.421 0.387 74 61 43 0 0
-0.2134 0.0071 -0.7279 -0.799 0.514 0.313 78 65 46 0 0
-0.2138 0.0071 -0.7296 -0.827 0.514 0.228 74 61 41 0 0
-0.1943 0.0131 -0.7894 -0.812 -0.144 0.566 37 29 18 0 0
-0.2079 0.0119 -0.8031 -0.951 0.295 -0.094 94 78 44 0 0
-0.2076 0.0121 -0.8056 -0.967 0.253 0.016 108 92 59 0 0
-0.2074 0.0123 -0.8078 -0.987 0.122 0.101 108 92 60 0 0
-0.0044 0.0081 -0.1943 -0.991 -0.059 -0.117 166 161 155 0 0
-0.0041 0.0083 -0.1975 -0.978 -0.201 -0.051 161 156 150 0 0
-0.0034 0.0085 -0.1992 -0.960 0.035 -0.276 155 150 139 0 0
-0.1149 -0.0030 -0.2706 -0.938 -0.191 0.291 97 81 59 0 0
-0.1597 -0.0057 -0.3343 -0.890 -0.071 0.451 26 19 10 0 0
-0.1553 -0.0042 -0.3499 -0.969 0.214 -0.125 66 53 40 0 0
-0.1552 -0.0041 -0.3515 -0.974 0.215 0.076 78 65 51 0 0
-0.1556 -0.0035 -0.3639 -0.866 -0.199 0.458 88 70 46 0 0
-0.1581 -0.0031 -0.3772 -0.892 -0.145 0.429 72 59 44 0 0
-0.2139 -0.0057 -0.4685 -0.652 -0.616 0.442 81 72 58 0 0
-0.2144 -0.0057 -0.4699 -0.778 -0.499 0.382 53 45 37 0 0
-0.1627 0.0041 -0.5181 -0.925 0.314 0.216 59 53 45 0 0
-0.1720 0.0050 -0.5577 -0.710 -0.107 0.696 39 32 27 0 0
-0.1850 0.0047 -0.5845 -0.969 0.117 0.216 67 61 45 0 0
-0.1692 0.0121 -0.6775 -0.754 -0.144 -0.640 6 4 5 0 0
-0.2039 0.0150 -0.8176 -0.860 -0.508 0.051 100 85 55 0 0
-0.2075 0.0147 -0.8208 -0.881 -0.253 0.400 134 119 88 0 0
-0.1513 -0.0038 -0.3203 -0.911 -0.243 0.334 144 133 110 0 0
-0.1600 -0.0042 -0.3357 -0.966 -0.074 0.248 55 47 31 0 0
-0.1548 -0.0026 -0.3500 -1.000 0.022 0.008 88 75 65 0 0
-0.1626 -0.0008 -0.4011 -0.878 0.324 0.352 86 75 54 0 0
-0.2091 -0.0039 -0.4627 -0.650 -0.207 0.731 150 137 101 0 0
-0.1649 0.0059 -0.5276 -0.962 0.046 0.268 10 6 2 0 0
-0.1651 0.0060 -0.5293 -0.884 0.181 0.432 35 28 24 0 0
-0.1664 0.0061 -0.5339 -0.940 0.047 0.337 32 25 20 0 0
-0.1669 0.0062 -0.5372 -0.992 -0.026 0.122 47 40 35 0 0
-0.1688 0.0067 -0.5505 -0.980 0.161 0.113 34 29 26 0 0
-0.1720 0.0067 -0.5596 -0.974 0.108 0.198 37 30 26 0 0
-0.1880 0.0063 -0.5919 -0.947 -0.024 0.321 58 50 42 0 0
-0.1893 0.0064 -0.5966 -0.983 0.117 0.142 59 49 35 0 0
-0.2098 0.0169 -0.8362 -0.982 -0.165 -0.096 107 94 64 0 0
-0.2272 0.0163 -0.8681 0.122 0.063 0.991 173 172 170 0 0
-0.1131 -0.0000 -0.2650 -0.910 -0.407 0.077 239 224 183 0 0
-0.1523 -0.0023 -0.3231 -0.880 -0.157 0.448 71 57 42 0 0
-0.1546 -0.0024 -0.3269 -0.880 -0.273 0.389 122 109 91 0 0
-0.1585 -0.0006 -0.3691 -0.913 0.007 0.407 44 32 19 0 0
-0.1653 0.0004 -0.4032 -0.529 -0.072 0.845 68 59 37 0 0
-0.1790 -0.0001 -0.4281 -0.638 -0.277 0.719 95 83 59 0 0
-0.1802 -0.0002 -0.4292 -0.638 -0.277 0.719 91 79 55 0 0
-0.1910 -0.0005 -0.4520 -0.323 -0.734 0.598 85 75 61 0 0
-0.2151 -0.0029 -0.4695 -0.944 -0.321 0.071 78 69 58 0 0
-0.1666 0.0078 -0.5374 -0.985 -0.162 0.051 39 32 27 0 0
-0.1670 0.0078 -0.5390 -0.966 -0.255 0.034 29 24 21 0 0
-0.1684 0.0082 -0.5490 -0.980 0.161 0.113 29 24 20 0 0
-0.1681 0.0084 -0.5509 -0.978 -0.077 0.196 36 32 29 0 0
-0.1688 0.0084 -0.5524 -0.805 -0.400 0.438 20 16 13 0 0
-0.1685 0.0085 -0.5543 -0.904 -0.373 0.209 11 9 6 0 0
-0.1719 0.0083 -0.5597 -0.955 0.267 0.132 32 24 21 0 0
-0.1829 0.0077 -0.5767 -0.844 -0.117 0.524 19 16 12 0 0
-0.1686 0.0157 -0.6821 -0.490 -0.536 0.688 7 5 6 0 0
-0.1684 0.0159 -0.6841 -0.596 -0.327 0.734 7 5 6 0 0
-0.1874 0.0137 -0.6941 -0.809 0.200 0.553 68 57 33 0 0
-0.1842 0.0189 -0.7770 -0.931 0.005 -0.366 42 34 23 0 0
-0.1987 0.0182 -0.8008 -0.548 0.522 0.654 47 35 17 0 0
-0.2007 0.0181 -0.8033 -0.749 0.086 0.657 68 54 30 0 0
-0.2067 0.0178 -0.8130 -0.976 0.045 0.213 100 84 57 0 0
-0.2064 0.0182 -0.8198 -0.969 -0.063 -0.240 154 137 104 0 0
-0.1108 0.0017 -0.2641 -0.801 0.317 0.508 222 204 163 0 0
-0.1117 0.0017 -0.2653 -0.838 0.274 0.472 242 227 187 0 0
-0.1229 0.0013 -0.2865 -0.865 -0.228 0.448 52 43 35 0 0
-0.1334 0.0007 -0.3031 -0.939 -0.219 0.265 93 82 72 0 0
-0.1369 0.0003 -0.3051 -0.602 0.109 0.791 104 100 92 0 0
-0.1568 -0.0003 -0.3431 -0.908 0.354 -0.225 28 22 18 0 0
-0.1539 0.0005 -0.3504 -0.992 -0.098 0.078 32 21 13 0 0
-0.1542 0.0006 -0.3518 -0.944 -0.222 0.243 48 38 27 0 0
-0.1594 0.0011 -0.3735 -0.790 -0.355 0.501 49 36 22 0 0
-0.1652 0.0018 -0.4016 -0.578 -0.257 0.775 78 67 46 0 0
-0.1742 0.0014 -0.4156 -0.919 -0.323 0.225 86 73 42 0 0
-0.1749 0.0014 -0.4185 -0.905 -0.343 0.252 111 96 70 0 0
-0.1935 0.0007 -0.4525 -0.641 -0.509 0.574 130 114 88 0 0
-0.2035 -0.0004 -0.4574 -0.753 -0.131 0.645 149 130 101 0 0
-0.1679 0.0099 -0.5493 -0.987 -0.043 0.152 41 36 32 0 0
-0.1713 0.0098 -0.5564 -0.982 0.011 0.188 44 40 36 0 0
-0.1735 0.0097 -0.5605 -0.946 0.141 0.293 32 26 20 0 0
-0.1840 0.0093 -0.5798 -0.943 -0.232 0.238 17 15 11 0 0
-0.1856 0.0098 -0.5916 -0.970 0.008 0.244 43 36 29 0 0
-0.1949 0.0142 -0.6926 -0.992 0.053 0.118 76 63 43 0 0
-0.2086 0.0146 -0.7321 -0.988 -0.061 0.141 88 77 56 0 0
-0.2087 0.0147 -0.7341 -0.925 0.247 0.288 95 83 61 0 0
-0.1848 0.0205 -0.7765 -0.879 0.058 -0.474 44 36 24 0 0
-0.1842 0.0211 -0.7856 -0.801 -0.592 0.096 43 35 20 0 0
-0.2014 0.0197 -0.8049 -0.891 0.107 0.440 88 72 42 0 0
-0.2068 0.0196 -0.8152 -0.801 0.516 0.303 129 112 72 0 0
-0.0945 0.0055 -0.2638 -0.791 0.077 0.608 134 118 95 0 0
-0.1088 0.0035 -0.2646 -0.729 0.329 0.600 218 199 156 0 0
-0.1106 0.0033 -0.2656 -0.691 0.330 0.643 237 220 180 0 0
-0.1171 0.0028 -0.2729 -0.788 -0.034 0.615 60 43 30 0 0
-0.1198 0.0026 -0.2752 -0.841 -0.335 0.424 194 184 153 0 0
-0.1336 0.0021 -0.3015 -0.796 -0.422 0.435 81 71 57 0 0
-0.1344 0.0020 -0.3028 -0.804 -0.344 0.485 110 100 86 0 0
-0.1537 0.0020 -0.3504 -0.935 0.023 0.355 47 37 27 0 0
-0.1542 0.0020 -0.3518 -0.928 -0.028 0.371 67 55 42 0 0
-0.1753 0.0028 -0.4183 -0.919 -0.323 0.225 116 101 73 0 0
-0.1943 0.0021 -0.4521 -0.641 -0.509 0.574 131 115 83 0 0
-0.2043 0.0009 -0.4570 -0.783 -0.084 0.616 165 150 117 0 0
-0.2155 -0.0002 -0.4661 -0.869 -0.011 0.494 70 57 47 0 0
-0.1639 0.0111 -0.5318 -0.906 0.280 0.318 71 67 63 0 0
-0.1646 0.0110 -0.5332 -0.791 0.317 0.523 34 29 27 0 0
-0.1660 0.0110 -0.5360 -0.787 0.309 0.534 69 64 57 0 0
-0.1673 0.0114 -0.5461 -0.808 -0.580 0.105 18 16 14 0 0
-0.1684 0.0114 -0.5490 -0.644 -0.604 0.470 55 50 46 0 0
-0.1705 0.0115 -0.5551 -0.948 0.249 0.199 38 35 30 0 0
-0.1707 0.0115 -0.5568 -0.957 0.126 0.262 33 29 23 0 0
-0.1715 0.0115 -0.5582 -0.818 0.316 0.482 27 23 19 0 0
-0.1876 0.0111 -0.5923 -0.917 -0.324 0.234 36 29 21 0 0
-0.1880 0.0112 -0.5939 -0.917 -0.324 0.234 38 30 22 0 0
-0.1873 0.0115 -0.5980 -0.890 -0.181 0.418 44 36 25 0 0
-0.1893 0.0115 -0.6023 -0.922 -0.334 0.197 55 46 32 0 0
-0.2088 0.0162 -0.7320 -0.985 -0.158 0.074 94 83 64 0 0
-0.2088 0.0163 -0.7340 -0.942 0.029 0.336 96 85 65 0 0
-0.1429 0.0026 -0.3078 -0.983 -0.120 0.137 232 217 181 0 0
-0.1456 0.0023 -0.3099 -0.814 -0.063 0.578 80 69 46 0 0
-0.1542 0.0034 -0.3503 -0.904 0.101 0.415 61 50 41 0 0
-0.1560 0.0033 -0.3527 -0.792 -0.283 0.540 88 73 55 0 0
-0.1567 0.0035 -0.3572 -0.998 0.056 -0.029 64 46 32 0 0
-0.1780 0.0035 -0.4107 -0.845 -0.035 0.534 94 80 52 0 0
-0.1785 0.0035 -0.4121 -0.953 0.013 0.304 86 72 45 0 0
-0.2051 0.0023 -0.4566 -0.902 -0.065 0.426 167 152 118 0 0
-0.1634 0.0127 -0.5321 -0.922 0.307 0.237 23 19 17 0 0
-0.1640 0.0127 -0.5336 -0.854 0.327 0.405 18 14 13 0 0
-0.1644 0.0128 -0.5351 -0.774 0.395 0.495 24 20 19 0 0
-0.1654 0.0127 -0.5364 -0.777 0.380 0.502 23 19 17 0 0
-0.1655 0.0128 -0.5381 -0.943 0.151 0.296 24 19 17 0 0
-0.1664 0.0128 -0.5412 -0.998 -0.065 0.013 20 16 15 0 0
-0.1663 0.0131 -0.5449 -0.912 0.075 0.404 16 12 11 0 0
-0.1678 0.0130 -0.5476 -0.957 -0.158 0.243 15 11 10 0 0
-0.1687 0.0129 -0.5489 -0.792 -0.293 0.536 15 10 9 0 0
-0.1693 0.0129 -0.5504 -0.857 -0.360 0.370 14 10 8 0 0
-0.1698 0.0129 -0.5519 -0.833 -0.483 0.271 18 14 13 0 0
-0.1881 0.0126 -0.5920 -0.974 -0.018 0.226 46 36 27 0 0
-0.1884 0.0127 -0.5936 -0.974 -0.018 0.226 55 46 35 0 0
-0.1873 0.0130 -0.5962 -0.892 -0.282 0.353 66 58 42 0 0
-0.1879 0.0130 -0.5977 -0.892 -0.282 0.353 61 53 36 0 0
-0.1895 0.0132 -0.6041 -0.979 -0.168 0.119 101 91 73 0 0
-0.1902 0.0131 -0.6055 -0.975 -0.069 0.213 92 82 64 0 0
-0.1733 0.0177 -0.6416 -0.737 -0.111 -0.667 32 27 25 0 0
-0.1671 0.0196 -0.6594 -0.940 -0.312 -0.139 3 3 3 0 0
-0.1807 0.0195 -0.6914 -0.546 0.021 0.837 34 27 22 0 0
-0.1914 0.0182 -0.6954 -0.937 -0.106 0.333 49 37 21 0 0
-0.1916 0.0183 -0.6972 -0.925 0.225 0.305 48 37 20 0 0
-0.2000 0.0176 -0.7067 -0.801 -0.402 0.443 51 43 34 0 0
-0.2009 0.0176 -0.7080 -0.775 -0.256 0.578 41 33 26 0 0
-0.2023 0.0174 -0.7090 -0.838 -0.254 0.482 38 29 22 0 0
-0.2044 0.0172 -0.7113 -0.872 -0.187 0.453 37 27 19 0 0
-0.2054 0.0173 -0.7146 -0.937 0.013 0.349 39 31 21 0 0
-0.2081 0.0180 -0.7326 -0.995 0.068 -0.078 78 68 50 0 0
-0.2079 0.0181 -0.7348 -0.995 0.068 -0.078 81 71 54 0 0
-0.2076 0.0183 -0.7371 -0.988 0.053 -0.146 60 51 32 0 0
-0.2075 0.0184 -0.7392 -0.995 0.068 -0.078 71 63 43 0 0
-0.1928 0.0237 -0.7934 -0.760 0.337 0.556 127 111 83 0 0
-0.1946 0.0239 -0.8004 -0.826 -0.418 0.379 55 41 22 0 0
0.0006 0.0208 -0.2346 -0.974 0.108 0.199 77 62 38 0 0
0.0001 0.0208 -0.2361 -0.802 0.132 0.583 72 58 33 0 0
-0.1420 0.0041 -0.3065 -0.824 -0.190 0.534 219 203 168 0 0
-0.1428 0.0041 -0.3078 -0.876 -0.103 0.470 207 193 155 0 0
-0.1442 0.0040 -0.3089 -0.961 -0.077 0.266 160 145 112 0 0
-0.1565 0.0056 -0.3667 -0.975 0.063 0.214 36 26 17 0 0
-0.1697 0.0056 -0.3998 -0.715 0.088 0.693 62 47 30 0 0
-0.1712 0.0055 -0.4023 -0.754 -0.398 0.522 53 40 24 0 0
-0.1718 0.0055 -0.4037 -0.772 -0.438 0.461 69 54 36 0 0
-0.1786 0.0050 -0.4120 -0.971 -0.069 0.229 113 99 72 0 0
-0.2119 0.0030 -0.4614 -0.803 0.080 0.590 91 79 49 0 0
-0.1566 0.0141 -0.5109 -0.737 0.340 0.584 24 23 19 0 0
-0.1622 0.0144 -0.5310 -0.892 0.077 0.445 12 9 8 0 0
-0.1629 0.0144 -0.5324 -0.892 0.077 0.445 13 10 9 0 0
-0.1636 0.0144 -0.5338 -0.892 0.077 0.445 14 11 9 0 0
-0.1642 0.0144 -0.5353 -0.719 0.140 0.681 14 11 10 0 0
-0.1653 0.0143 -0.5364 -0.719 0.140 0.681 16 14 12 0 0
-0.1675 0.0146 -0.5478 -0.824 0.004 0.567 13 9 8 0 0
-0.1893 0.0146 -0.6005 -0.975 -0.195 0.103 116 105 86 0 0
-0.1874 0.0155 -0.6111 -0.990 0.122 -0.076 95 83 62 0 0
-0.2033 0.0190 -0.7103 -0.929 0.177 0.326 38 29 22 0 0
-0.2053 0.0188 -0.7127 -0.816 0.063 0.575 36 27 18 0 0
-0.2055 0.0189 -0.7146 -0.936 -0.047 0.348 38 29 19 0 0
-0.2056 0.0190 -0.7165 -0.946 -0.028 0.322 41 33 21 0 0
-0.2062 0.0190 -0.7181 -0.944 -0.014 0.331 46 37 24 0 0
-0.2067 0.0190 -0.7196 -0.944 -0.014 0.331 50 38 23 0 0
-0.2090 0.0192 -0.7280 -0.980 0.201 0.003 76 62 46 0 0
-0.2080 0.0195 -0.7308 -0.991 -0.015 -0.134 66 54 37 0 0
-0.2073 0.0200 -0.7374 -0.980 0.179 -0.087 57 49 30 0 0
-0.2074 0.0201 -0.7394 -0.970 -0.194 -0.145 71 63 44 0 0
-0.1940 0.0253 -0.7945 -0.899 -0.113 0.424 105 92 67 0 0
0.0010 0.0220 -0.2266 -0.595 0.294 0.748 167 150 106 0 0
-0.1222 0.0070 -0.2805 -0.947 -0.083 0.310 106 95 77 0 0
-0.1226 0.0070 -0.2819 -0.947 -0.083 0.310 87 72 52 0 0
-0.1271 0.0067 -0.2882 -0.878 -0.191 0.439 165 150 119 0 0
-0.1543 0.0054 -0.3331 -0.938 0.230 0.258 34 24 20 0 0
-0.1546 0.0054 -0.3345 -0.938 0.277 0.210 21 15 10 0 0
-0.1621 0.0068 -0.3756 -0.924 -0.143 0.354 48 35 26 0 0
-0.1677 0.0067 -0.3893 -0.915 -0.307 0.262 86 75 57 0 0
-0.1736 0.0067 -0.4029 -0.887 -0.154 0.436 80 68 52 0 0
-0.1899 0.0064 -0.4378 -0.869 0.224 0.442 161 149 118 0 0
-0.1908 0.0064 -0.4407 -0.721 -0.455 0.523 147 125 93 0 0
-0.2097 0.0045 -0.4560 -0.928 -0.233 0.290 176 161 126 0 0
-0.1604 0.0158 -0.5231 -0.953 0.168 0.253 21 17 14 0 0
-0.1608 0.0158 -0.5246 -0.953 0.168 0.253 21 17 14 0 0
-0.1620 0.0157 -0.5258 -0.919 0.170 0.356 25 21 18 0 0
-0.1644 0.0159 -0.5352 -0.778 0.141 0.612 13 12 10 0 0
-0.1654 0.0159 -0.5364 -0.760 0.163 0.629 14 13 11 0 0
-0.1651 0.0160 -0.5384 -0.885 0.285 0.367 16 15 13 0 0
-0.1636 0.0166 -0.5446 -0.934 -0.025 0.357 16 12 11 0 0
-0.1648 0.0165 -0.5458 -0.765 -0.560 0.317 15 11 10 0 0
-0.1820 0.0148 -0.5592 -0.080 -0.997 -0.005 42 35 30 0 0
-0.1833 0.0146 -0.5602 -0.038 -0.997 0.071 37 32 26 0 0
-0.1875 0.0143 -0.5650 -0.103 -0.989 0.103 29 24 21 0 0
-0.1883 0.0143 -0.5663 -0.116 -0.989 0.090 22 17 14 0 0
-0.1889 0.0143 -0.5678 -0.152 -0.986 0.072 18 13 11 0 0
-0.2049 0.0206 -0.7131 -0.801 0.217 0.559 36 27 18 0 0
-0.2057 0.0205 -0.7145 -0.944 -0.020 0.329 37 29 18 0 0
-0.2067 0.0208 -0.7217 -0.919 -0.101 0.382 67 55 34 0 0
-0.2064 0.0210 -0.7240 -0.924 -0.159 0.347 65 54 34 0 0
-0.2068 0.0216 -0.7359 -0.987 0.162 0.005 63 54 39 0 0
-0.2068 0.0218 -0.7379 -0.987 0.162 0.005 65 56 38 0 0
-0.2069 0.0219 -0.7399 -0.984 0.153 0.095 67 59 40 0 0
-0.1909 0.0273 -0.7909 -0.878 -0.264 0.400 55 43 27 0 0
0.0047 0.0240 -0.2241 -0.647 -0.151 0.747 154 140 101 0 0
0.0032 0.0239 -0.2254 -0.647 -0.151 0.747 165 152 111 0 0
0.0027 0.0239 -0.2269 -0.652 0.169 0.739 164 148 105 0 0
0.0013 0.0238 -0.2283 -0.748 0.368 0.553 140 123 82 0 0
-0.0788 0.0134 -0.2539 -0.161 0.402 0.902 107 98 81 0 0
-0.0875 0.0123 -0.2579 -0.822 0.493 0.283 79 70 53 0 0
-0.1287 0.0080 -0.2892 -0.958 -0.015 0.286 183 168 143 0 0
-0.1557 0.0061 -0.3234 -0.827 -0.330 0.456 49 40 27 0 0
-0.1623 0.0082 -0.3756 -0.924 -0.143 0.354 42 29 21 0 0
-0.1629 0.0083 -0.3785 -0.859 -0.266 0.438 54 41 25 0 0
-0.1649 0.0083 -0.3825 -0.832 -0.339 0.439 91 79 66 0 0
-0.1656 0.0082 -0.3838 -0.832 -0.339 0.439 93 81 63 0 0
-0.1679 0.0082 -0.3893 -0.842 -0.365 0.398 89 76 59 0 0
-0.1709 0.0083 -0.3976 -0.961 -0.240 0.141 96 80 63 0 0
-0.1698 0.0086 -0.3997 -0.884 -0.004 0.468 65 49 32 0 0
-0.1733 0.0082 -0.4031 -0.794 0.032 0.607 66 54 39 0 0
-0.1783 0.0078 -0.4073 -0.995 0.023 0.097 101 89 64 0 0
-0.2101 0.0059 -0.4558 -0.913 -0.276 0.300 145 130 99 0 0
-0.1585 0.0179 -0.5259 -0.910 0.224 0.350 27 23 19 0 0
-0.1590 0.0179 -0.5275 -0.905 -0.098 0.414 34 30 27 0 0
-0.1595 0.0179 -0.5290 -0.853 0.053 0.520 35 31 29 0 0
-0.1599 0.0179 -0.5305 -0.925 0.160 0.345 25 21 20 0 0
-0.1608 0.0179 -0.5318 -0.888 0.160 0.430 14 10 9 0 0
-0.1603 0.0181 -0.5339 -0.911 0.412 0.012 13 12 10 0 0
-0.1598 0.0185 -0.5396 -0.809 0.454 0.373 14 13 11 0 0
-0.1612 0.0186 -0.5443 -0.899 0.357 0.254 17 16 14 0 0
-0.1795 0.0213 -0.6355 -0.855 0.021 -0.519 25 21 18 0 0
-0.1666 0.0245 -0.6560 -0.903 -0.282 0.325 4 4 4 0 0
-0.1680 0.0243 -0.6570 -0.710 -0.325 0.624 4 4 4 0 0
-0.1802 0.0225 -0.6563 -0.890 0.037 0.454 6 6 5 0 0
-0.1810 0.0224 -0.6577 -0.932 0.049 0.360 8 7 5 0 0
-0.1976 0.0223 -0.6969 -0.906 -0.157 0.393 70 59 44 0 0
-0.1982 0.0223 -0.6984 -0.906 -0.157 0.393 55 46 33 0 0
-0.1989 0.0223 -0.6999 -0.906 -0.157 0.393 58 50 42 0 0
-0.2008 0.0223 -0.7044 -0.947 -0.198 0.252 79 66 47 0 0
-0.2057 0.0224 -0.7186 -0.631 -0.424 0.649 85 78 60 0 0
-0.2056 0.0226 -0.7207 -0.910 -0.216 0.354 122 115 97 0 0
-0.2064 0.0225 -0.7220 -0.876 -0.207 0.437 77 67 49 0 0
-0.2064 0.0227 -0.7241 -0.779 0.051 0.625 71 62 44 0 0
-0.2075 0.0228 -0.7293 -0.925 0.314 0.215 68 57 41 0 0
-0.2078 0.0229 -0.7311 -0.934 0.325 0.149 83 72 56 0 0
-0.2064 0.0235 -0.7383 -0.955 0.284 -0.082 72 63 45 0 0
-0.1941 0.0268 -0.7628 -0.833 0.220 -0.507 67 55 36 0 0
-0.1912 0.0289 -0.7907 -0.816 0.070 0.574 59 46 29 0 0
-0.1947 0.0287 -0.7963 -0.876 0.048 0.481 74 62 44 0 0
-0.2079 0.0287 -0.8277 -0.881 0.266 0.392 124 108 75 0 0
-0.2062 0.0295 -0.8380 -0.966 -0.257 0.034 122 107 76 0 0
-0.2063 0.0297 -0.8401 -0.966 -0.257 0.034 122 107 76 0 0
0.0206 0.0274 -0.2128 -0.447 0.498 0.743 179 166 141 0 0
0.0186 0.0271 -0.2141 -0.682 0.542 0.490 172 157 124 0 0
0.0031 0.0256 -0.2270 -0.614 -0.042 0.789 176 160 121 0 0
-0.0873 0.0139 -0.2579 -0.940 0.206 -0.271 81 71 56 0 0
-0.1039 0.0118 -0.2658 -0.571 0.102 0.815 123 103 74 0 0
-0.1305 0.0095 -0.2933 -0.841 0.054 0.539 100 88 75 0 0
-0.1329 0.0093 -0.2956 -0.759 -0.213 0.615 69 58 45 0 0
-0.1528 0.0087 -0.3352 -0.975 -0.217 -0.047 34 24 15 0 0
-0.1573 0.0098 -0.3648 -0.831 -0.066 0.553 34 23 16 0 0
-0.1629 0.0097 -0.3769 -0.885 -0.261 0.386 59 46 32 0 0
-0.1632 0.0098 -0.3784 -0.834 -0.233 0.500 73 60 43 0 0
-0.1654 0.0097 -0.3823 -0.828 -0.316 0.462 55 43 32 0 0
-0.1661 0.0096 -0.3836 -0.884 -0.350 0.309 124 112 97 0 0
-0.1668 0.0096 -0.3849 -0.832 -0.339 0.439 85 73 55 0 0
-0.1689 0.0096 -0.3905 -0.784 -0.294 0.547 82 70 54 0 0
-0.1702 0.0100 -0.3995 -0.797 -0.206 0.568 66 50 33 0 0
-0.1740 0.0096 -0.4028 -0.635 -0.242 0.734 63 51 35 0 0
-0.1767 0.0094 -0.4064 -0.831 -0.402 0.384 86 76 52 0 0
-0.1805 0.0095 -0.4161 -0.918 -0.217 0.331 115 100 69 0 0
-0.1854 0.0091 -0.4220 -0.893 -0.044 0.447 107 92 62 0 0
-0.1865 0.0090 -0.4231 -0.788 -0.098 0.608 113 102 71 0 0
-0.1985 0.0087 -0.4484 -0.900 -0.198 0.388 173 154 118 0 0
-0.2102 0.0075 -0.4574 -0.866 -0.107 0.488 71 56 36 0 0
-0.1561 0.0188 -0.5095 -0.704 -0.623 0.341 31 28 24 0 0
-0.1581 0.0195 -0.5262 -0.857 0.430 0.285 19 15 14 0 0
-0.1584 0.0196 -0.5278 -0.686 0.574 0.447 23 19 18 0 0
-0.1589 0.0196 -0.5294 -0.545 0.611 0.574 31 27 26 0 0
-0.1594 0.0196 -0.5309 -0.906 0.420 0.050 26 22 21 0 0
-0.1594 0.0197 -0.5327 -0.872 0.487 0.059 20 16 15 0 0
-0.1605 0.0198 -0.5374 -0.876 0.459 -0.152 11 10 8 0 0
-0.1962 0.0158 -0.5597 -0.199 -0.976 0.084 31 24 19 0 0
-0.1968 0.0158 -0.5611 -0.210 -0.974 0.085 34 27 22 0 0
-0.1974 0.0158 -0.5626 -0.209 -0.973 0.095 44 38 32 0 0
-0.1793 0.0242 -0.6551 -0.653 0.129 0.746 7 7 6 0 0
-0.1843 0.0251 -0.6830 -0.964 -0.187 0.192 13 9 7 0 0
-0.1847 0.0252 -0.6847 -0.964 -0.187 0.192 12 8 6 0 0
-0.1973 0.0241 -0.6991 -0.869 0.442 0.223 54 45 35 0 0
-0.1999 0.0240 -0.7031 -0.968 0.062 0.242 48 39 27 0 0
-0.2003 0.0240 -0.7048 -0.968 0.062 0.242 81 69 52 0 0
-0.2054 0.0239 -0.7149 -0.942 0.223 0.251 56 49 36 0 0
-0.2054 0.0240 -0.7169 -0.988 0.115 0.098 64 57 40 0 0
-0.2061 0.0240 -0.7183 -0.571 -0.543 0.616 112 102 85 0 0
-0.2058 0.0242 -0.7206 -0.799 -0.554 0.234 117 108 91 0 0
-0.2065 0.0242 -0.7221 -0.678 -0.614 0.405 83 76 56 0 0
-0.2063 0.0243 -0.7242 -0.779 0.051 0.625 85 79 58 0 0
-0.1873 0.0301 -0.7728 -0.852 0.212 -0.478 73 60 36 0 0
-0.1940 0.0305 -0.7948 -0.878 0.037 0.478 65 50 32 0 0
-0.1955 0.0304 -0.7977 -0.872 0.137 0.471 56 41 21 0 0
-0.1973 0.0302 -0.7983 -0.395 0.260 0.881 56 40 18 0 0
-0.2053 0.0304 -0.8214 -0.896 0.036 0.442 89 76 44 0 0
0.0212 0.0291 -0.2129 -0.563 -0.616 0.550 168 160 140 0 0
0.0192 0.0289 -0.2141 -0.828 -0.465 0.312 175 163 130 0 0
0.0045 0.0274 -0.2272 -0.831 -0.021 0.556 121 106 75 0 0
0.0035 0.0274 -0.2287 -0.831 -0.021 0.556 100 86 56 0 0
0.0037 0.0275 -0.2303 -0.913 -0.125 0.389 95 80 55 0 0
0.0056 0.0287 -0.2452 -0.898 0.211 0.386 78 64 43 0 0
-0.1235 0.0114 -0.2831 -0.862 0.104 0.496 102 93 73 0 0
-0.1286 0.0109 -0.2877 -0.753 -0.256 0.606 188 176 153 0 0
-0.1558 0.0115 -0.3638 -0.929 -0.083 0.361 36 25 14 0 0
-0.1679 0.0111 -0.3877 -0.908 -0.323 0.267 54 41 24 0 0
-0.1689 0.0110 -0.3889 -0.854 -0.313 0.415 54 38 23 0 0
-0.1693 0.0111 -0.3903 -0.784 -0.294 0.547 92 79 63 0 0
-0.1701 0.0110 -0.3915 -0.784 -0.294 0.547 78 65 49 0 0
-0.1729 0.0111 -0.4000 -0.779 -0.150 0.609 41 24 13 0 0
-0.1757 0.0109 -0.4036 -0.754 -0.064 0.654 115 103 84 0 0
-0.1756 0.0110 -0.4053 -0.838 -0.341 0.427 69 57 39 0 0
-0.1779 0.0107 -0.4059 -0.859 0.153 0.489 74 62 41 0 0
-0.1859 0.0106 -0.4234 -0.843 0.120 0.525 136 127 89 0 0
-0.2106 0.0088 -0.4556 -0.944 -0.143 0.296 71 55 37 0 0
-0.1571 0.0213 -0.5268 -0.815 0.524 0.248 18 14 13 0 0
-0.1573 0.0214 -0.5284 -0.686 0.574 0.447 17 13 12 0 0
-0.1576 0.0214 -0.5301 -0.581 0.551 0.599 16 12 11 0 0
-0.1598 0.0216 -0.5379 -0.824 0.566 -0.001 11 10 8 0 0
-0.2013 0.0171 -0.5674 -0.374 -0.907 -0.193 33 24 16 0 0
-0.1899 0.0206 -0.5966 -0.992 -0.082 0.095 81 69 54 0 0
-0.1832 0.0234 -0.6255 -0.931 0.111 0.348 51 44 36 0 0
-0.1826 0.0259 -0.6645 -0.881 -0.377 0.285 40 32 23 0 0
-0.1868 0.0268 -0.6892 -0.817 -0.233 0.527 34 28 21 0 0
-0.2038 0.0259 -0.7162 -0.811 0.525 0.258 63 54 39 0 0
-0.2042 0.0260 -0.7199 -0.592 -0.061 0.804 134 122 102 0 0
-0.2050 0.0264 -0.7274 -0.793 -0.307 0.526 93 88 63 0 0
0.0198 0.0305 -0.2126 -0.485 -0.643 0.593 175 171 162 0 0
0.0186 0.0304 -0.2140 -0.621 -0.490 0.612 165 155 132 0 0
0.0132 0.0297 -0.2161 -0.721 0.252 0.645 161 146 110 0 0
-0.1246 0.0128 -0.2843 -0.524 0.193 0.830 83 74 53 0 0
-0.1394 0.0116 -0.3012 -0.653 -0.040 0.756 101 92 75 0 0
-0.1567 0.0103 -0.3230 -0.888 -0.307 0.341 40 31 22 0 0
-0.1569 0.0107 -0.3291 -0.975 -0.219 -0.016 81 69 56 0 0
-0.1579 0.0117 -0.3489 -0.931 -0.362 -0.037 33 22 16 0 0
-0.1565 0.0121 -0.3510 -0.890 -0.402 0.217 37 25 15 0 0
-0.1552 0.0126 -0.3561 -0.961 0.268 -0.061 87 75 54 0 0
-0.1637 0.0122 -0.3703 -0.764 -0.038 0.644 67 50 31 0 0
-0.1664 0.0120 -0.3740 -0.819 -0.062 0.570 82 66 47 0 0
-0.1723 0.0124 -0.3955 -0.919 -0.355 0.171 54 43 24 0 0
-0.1828 0.0124 -0.4215 -0.942 0.002 0.335 87 71 44 0 0
-0.1546 0.0233 -0.5264 -0.847 0.215 0.486 19 15 14 0 0
-0.1573 0.0231 -0.5303 -0.793 0.123 0.597 16 12 11 0 0
-0.1577 0.0234 -0.5355 -0.977 0.210 -0.044 15 14 12 0 0
-0.1584 0.0233 -0.5369 -0.936 0.332 -0.118 13 12 10 0 0
-0.1888 0.0229 -0.6048 -0.982 0.069 -0.176 114 103 81 0 0
-0.1824 0.0249 -0.6222 -0.987 0.136 -0.086 77 69 57 0 0
-0.1825 0.0251 -0.6241 -0.993 0.056 0.103 51 42 33 0 0
-0.1830 0.0251 -0.6256 -0.931 0.111 0.348 47 40 31 0 0
-0.1622 0.0301 -0.6553 -0.470 -0.113 0.876 16 14 15 0 0
-0.1850 0.0280 -0.6786 -0.936 -0.287 0.203 127 112 89 0 0
-0.1849 0.0282 -0.6806 -0.929 -0.117 0.352 111 97 75 0 0
-0.1850 0.0283 -0.6826 -0.938 -0.262 0.227 90 77 57 0 0
-0.1871 0.0284 -0.6890 -0.817 -0.233 0.527 41 32 20 0 0
-0.1948 0.0276 -0.6952 -0.852 0.014 0.524 66 53 41 0 0
-0.1959 0.0276 -0.6983 -0.970 -0.008 0.243 61 50 38 0 0
-0.1787 0.0357 -0.7865 -0.908 -0.024 0.419 80 66 40 0 0
0.0300 0.0338 -0.2129 -0.477 -0.044 0.878 176 175 176 0 0
0.0174 0.0319 -0.2137 -0.662 -0.547 0.512 173 166 155 0 0
0.0153 0.0316 -0.2149 -0.784 -0.590 0.193 164 153 130 0 0
0.0137 0.0314 -0.2162 -0.721 0.252 0.645 147 132 99 0 0
-0.1550 0.0141 -0.3562 -0.940 0.319 -0.120 90 76 55 0 0
-0.1646 0.0136 -0.3715 -0.813 -0.002 0.582 69 49 30 0 0
-0.1715 0.0140 -0.3942 -0.952 -0.031 0.306 66 54 36 0 0
-0.1831 0.0139 -0.4214 -0.900 -0.286 0.329 85 71 47 0 0
-0.1842 0.0138 -0.4225 -0.926 0.028 0.377 152 138 114 0 0
-0.1863 0.0135 -0.4232 -0.996 0.053 0.077 114 100 74 0 0
-0.1901 0.0133 -0.4296 -0.868 -0.318 0.381 117 101 75 0 0
-0.1542 0.0248 -0.5248 -0.952 -0.079 0.296 24 20 19 0 0
-0.1551 0.0248 -0.5261 -0.874 -0.048 0.483 21 17 16 0 0
-0.1558 0.0248 -0.5276 -0.960 -0.004 0.279 18 14 13 0 0
-0.1581 0.0252 -0.5407 -0.691 0.704 0.166 22 21 19 0 0
-0.1824 0.0267 -0.6242 -0.983 0.016 0.184 50 43 34 0 0
-0.1834 0.0267 -0.6273 -0.919 0.138 0.370 29 22 18 0 0
-0.1620 0.0318 -0.6555 -0.404 0.004 0.915 12 10 11 0 0
-0.1855 0.0296 -0.6783 -0.936 -0.287 0.203 129 112 85 0 0
-0.1851 0.0298 -0.6806 -0.929 -0.117 0.352 99 82 58 0 0
-0.1857 0.0298 -0.6821 -0.929 -0.117 0.352 98 82 59 0 0
-0.1863 0.0298 -0.6837 -0.929 -0.117 0.352 88 74 50 0 0
-0.1963 0.0292 -0.6981 -0.949 -0.136 0.284 61 51 40 0 0
-0.1934 0.0361 -0.8020 -0.726 0.194 0.660 75 61 37 0 0
-0.2015 0.0390 -0.8672 -0.923 0.351 0.156 118 114 107 0 0
-0.2041 0.0385 -0.8669 -0.720 0.257 0.644 137 133 129 0 0
-0.2171 0.0360 -0.8590 -0.488 0.037 0.872 159 155 153 0 0
-0.2196 0.0356 -0.8588 -0.363 -0.208 0.908 165 161 160 0 0
-0.1384 0.0148 -0.3014 -0.655 0.081 0.751 143 126 106 0 0
-0.1548 0.0135 -0.3221 -0.889 -0.155 0.431 66 53 37 0 0
-0.1567 0.0136 -0.3276 -0.785 -0.395 0.476 63 51 32 0 0
-0.1557 0.0153 -0.3528 -0.961 -0.261 -0.093 71 58 41 0 0
-0.1557 0.0154 -0.3544 -0.962 -0.164 -0.216 91 78 56 0 0
-0.1549 0.0157 -0.3563 -0.957 0.198 -0.210 88 75 53 0 0
-0.1708 0.0156 -0.3945 -0.850 0.397 0.346 76 62 45 0 0
-0.1853 0.0151 -0.4221 -0.888 -0.047 0.457 96 81 59 0 0
-0.1858 0.0151 -0.4234 -0.977 -0.061 0.205 106 90 66 0 0
-0.1861 0.0151 -0.4250 -0.910 0.118 0.397 83 69 42 0 0
-0.1896 0.0148 -0.4282 -0.744 -0.115 0.658 108 94 66 0 0
-0.1916 0.0148 -0.4338 -0.913 -0.139 0.384 151 133 91 0 0
-0.1593 0.0261 -0.5329 -0.815 -0.267 0.515 21 20 18 0 0
-0.1849 0.0273 -0.6150 -0.898 -0.065 -0.435 87 78 64 0 0
-0.1816 0.0285 -0.6248 -0.956 0.189 0.226 59 52 41 0 0
-0.1857 0.0312 -0.6782 -0.945 -0.207 0.255 96 80 54 0 0
-0.1853 0.0314 -0.6805 -0.929 -0.117 0.352 74 59 37 0 0
-0.1858 0.0315 -0.6821 -0.961 -0.086 0.263 70 56 35 0 0
-0.1865 0.0314 -0.6836 -0.929 -0.117 0.352 76 63 39 0 0
-0.1931 0.0312 -0.6966 -0.960 0.064 0.272 55 44 35 0 0
-0.1928 0.0316 -0.7008 -0.947 -0.319 0.040 61 51 41 0 0
-0.1965 0.0317 -0.7120 -0.870 -0.204 0.449 46 36 29 0 0
-0.2003 0.0313 -0.7151 -0.720 0.142 0.680 59 50 39 0 0
-0.2013 0.0408 -0.8675 -0.897 0.412 0.162 126 121 116 0 0
-0.2034 0.0405 -0.8678 -0.878 0.409 0.247 144 140 136 0 0
0.0146 0.0348 -0.2147 -0.900 -0.028 0.435 170 165 153 0 0
0.0063 0.0347 -0.2339 -0.863 0.317 0.394 48 34 13 0 0
0.0056 0.0347 -0.2354 -0.863 0.317 0.394 54 42 20 0 0
0.0051 0.0347 -0.2369 -0.940 0.228 0.256 69 56 36 0 0
0.0044 0.0347 -0.2384 -0.997 -0.072 -0.017 57 44 25 0 0
0.0079 0.0361 -0.2522 -0.929 0.337 -0.151 100 85 62 0 0
0.0078 0.0363 -0.2554 -0.851 0.441 -0.287 81 67 43 0 0
-0.1246 0.0174 -0.2858 -0.734 0.283 0.617 135 123 101 0 0
-0.1246 0.0175 -0.2873 -0.896 -0.026 0.443 93 82 62 0 0
-0.1373 0.0163 -0.3003 -0.709 -0.168 0.685 164 144 120 0 0
-0.1557 0.0149 -0.3234 -0.880 -0.171 0.444 87 75 55 0 0
-0.1582 0.0149 -0.3286 -0.894 -0.218 0.391 57 42 24 0 0
-0.1559 0.0168 -0.3528 -0.941 -0.302 -0.151 71 59 41 0 0
-0.1555 0.0169 -0.3545 -0.948 -0.242 -0.206 98 87 66 0 0
-0.1605 0.0179 -0.3811 -0.812 -0.006 0.584 80 64 43 0 0
-0.1759 0.0169 -0.4036 -0.879 0.139 0.455 70 51 31 0 0
-0.1766 0.0169 -0.4049 -0.904 0.221 0.367 58 38 16 0 0
-0.1888 0.0163 -0.4270 -0.744 -0.115 0.658 117 106 79 0 0
-0.1918 0.0163 -0.4337 -0.944 -0.045 0.326 165 145 103 0 0
-0.2066 0.0150 -0.4494 -0.808 0.158 0.567 98 76 49 0 0
-0.1568 0.0279 -0.5289 -0.654 0.313 0.688 27 25 23 0 0
-0.1879 0.0275 -0.5999 -0.944 0.189 -0.271 81 74 64 0 0
-0.1873 0.0281 -0.6078 -0.996 0.083 0.030 78 70 59 0 0
-0.1851 0.0289 -0.6149 -0.902 -0.057 -0.428 81 73 62 0 0
-0.1818 0.0299 -0.6228 -0.995 0.075 -0.066 70 62 52 0 0
-0.1822 0.0300 -0.6244 -0.980 0.163 0.118 55 48 38 0 0
-0.1826 0.0300 -0.6260 -0.865 0.158 0.476 47 40 30 0 0
-0.1860 0.0331 -0.6820 -0.929 -0.117 0.352 49 36 19 0 0
-0.1866 0.0331 -0.6835 -0.929 -0.117 0.352 77 63 42 0 0
-0.2000 0.0426 -0.8665 -0.838 0.376 0.396 110 106 97 0 0
-0.2008 0.0426 -0.8681 -0.838 0.376 0.396 134 129 125 0 0
-0.2016 0.0426 -0.8696 -0.834 0.383 0.398 148 144 141 0 0
0.0151 0.0365 -0.2148 -0.860 0.135 0.492 171 167 161 0 0
0.0117 0.0367 -0.2270 -0.841 0.456 0.291 69 57 39 0 0
0.0111 0.0367 -0.2285 -0.841 0.456 0.291 66 54 39 0 0
0.0075 0.0365 -0.2342 -0.752 0.538 0.382 95 80 55 0 0
0.0062 0.0372 -0.2485 -0.968 -0.089 0.237 83 67 45 0 0
-0.1164 0.0200 -0.2821 -0.595 0.719 0.358 166 152 112 0 0
-0.1256 0.0191 -0.2916 -0.995 -0.041 0.089 129 120 105 0 0
-0.1581 0.0163 -0.3271 -0.833 -0.060 0.550 96 85 66 0 0
-0.1588 0.0163 -0.3299 -0.872 0.054 0.487 105 93 76 0 0
-0.1593 0.0164 -0.3328 -0.988 -0.123 0.099 91 76 61 0 0
-0.1563 0.0182 -0.3526 -0.898 -0.408 -0.164 77 65 47 0 0
-0.1559 0.0184 -0.3543 -0.948 -0.242 -0.206 87 78 58 0 0
-0.1643 0.0190 -0.3843 -0.871 -0.120 0.477 90 73 56 0 0
-0.1926 0.0175 -0.4317 -0.921 0.021 0.389 130 110 83 0 0
-0.1870 0.0298 -0.6081 -0.977 0.210 0.021 84 77 64 0 0
-0.1870 0.0299 -0.6099 -0.980 0.090 0.175 100 91 75 0 0
-0.1863 0.0302 -0.6123 -0.966 0.199 -0.168 93 84 68 0 0
-0.1808 0.0319 -0.6254 -0.993 0.111 0.047 54 47 40 0 0
-0.1881 0.0335 -0.6687 -0.874 0.077 0.481 64 51 31 0 0
-0.1854 0.0346 -0.6785 -0.892 0.136 0.431 66 53 33 0 0
-0.1857 0.0347 -0.6803 -0.863 -0.031 0.505 68 56 38 0 0
-0.1862 0.0347 -0.6819 -0.940 -0.016 0.341 61 48 31 0 0
-0.1881 0.0348 -0.6885 -0.948 -0.034 0.317 118 102 78 0 0
-0.1886 0.0348 -0.6901 -0.916 -0.016 0.401 100 88 67 0 0
-0.1975 0.0418 -0.8203 -0.731 0.263 0.629 93 82 52 0 0
-0.1997 0.0445 -0.8669 -0.758 0.347 0.552 120 115 109 0 0
-0.2002 0.0445 -0.8687 -0.838 0.376 0.396 142 137 134 0 0
-0.1153 0.0217 -0.2823 -0.587 0.670 0.454 124 110 84 0 0
-0.1160 0.0216 -0.2837 -0.506 0.605 0.615 127 114 90 0 0
-0.1308 0.0202 -0.2977 -0.669 0.182 0.720 111 100 84 0 0
-0.1322 0.0200 -0.2988 -0.561 0.085 0.823 54 43 30 0 0
-0.1563 0.0197 -0.3526 -0.923 0.048 -0.381 79 66 47 0 0
-0.1527 0.0209 -0.3618 -0.870 -0.258 0.420 45 37 27 0 0
-0.1780 0.0197 -0.4059 -0.804 -0.077 0.590 69 48 27 0 0
-0.1789 0.0196 -0.4071 -0.804 -0.077 0.590 76 55 34 0 0
-0.1801 0.0197 -0.4114 -0.923 -0.256 0.288 72 55 33 0 0
-0.1819 0.0196 -0.4139 -0.784 -0.133 0.607 85 70 42 0 0
-0.2075 0.0180 -0.4523 -0.833 0.048 0.552 93 77 55 0 0
-0.2096 0.0180 -0.4578 -0.934 0.245 0.261 118 103 83 0 0
-0.1887 0.0311 -0.6070 -0.763 -0.592 -0.259 94 85 71 0 0
-0.1868 0.0316 -0.6101 -0.987 -0.123 -0.107 104 92 76 0 0
-0.1843 0.0323 -0.6156 -0.943 0.160 -0.292 88 79 62 0 0
-0.1614 0.0384 -0.6522 -0.888 0.371 0.271 38 33 28 0 0
-0.1590 0.0390 -0.6558 -0.703 -0.379 0.602 45 40 34 0 0
-0.1864 0.0437 -0.7955 -0.872 -0.171 0.458 77 63 35 0 0
-0.1871 0.0437 -0.7970 -0.872 -0.171 0.458 100 83 51 0 0
-0.1875 0.0437 -0.7988 -0.835 -0.170 0.524 92 73 42 0 0
-0.1918 0.0437 -0.8081 -0.998 0.063 0.007 103 88 58 0 0
-0.1969 0.0437 -0.8210 -0.909 -0.141 0.392 102 89 56 0 0
-0.1996 0.0451 -0.8493 -0.919 0.303 0.251 109 96 64 0 0
-0.2007 0.0456 -0.8594 -0.738 0.298 0.606 59 54 39 0 0
-0.1992 0.0463 -0.8675 -0.637 0.340 0.692 129 124 119 0 0
-0.2006 0.0462 -0.8685 -0.673 0.367 0.643 145 141 138 0 0
0.0140 0.0401 -0.2225 -0.994 0.096 0.053 100 91 75 0 0
0.0139 0.0402 -0.2241 -0.994 0.096 0.053 68 53 34 0 0
0.0137 0.0403 -0.2273 -0.929 0.283 0.239 70 53 31 0 0
0.0133 0.0404 -0.2289 -0.929 0.283 0.239 66 49 30 0 0
0.0115 0.0403 -0.2317 -0.795 0.357 0.491 59 43 22 0 0
-0.1317 0.0216 -0.2989 -0.669 0.182 0.720 53 38 23 0 0
-0.1428 0.0206 -0.3107 -0.924 0.044 0.381 163 152 126 0 0
-0.1547 0.0223 -0.3658 -0.918 -0.215 0.332 48 38 28 0 0
-0.1790 0.0210 -0.4055 -0.908 -0.410 0.085 74 52 31 0 0
-0.1794 0.0212 -0.4101 -0.976 -0.098 0.195 71 53 28 0 0
-0.1804 0.0212 -0.4113 -0.932 -0.241 0.270 74 55 30 0 0
-0.2152 0.0240 -0.5396 -0.726 -0.370 0.579 48 37 22 0 0
-0.2155 0.0240 -0.5412 -0.954 -0.235 0.184 41 30 16 0 0
-0.2161 0.0246 -0.5514 -0.925 -0.363 0.111 72 60 39 0 0
-0.1888 0.0326 -0.6069 -0.689 -0.577 -0.439 89 81 68 0 0
-0.1777 0.0360 -0.6314 -0.861 0.398 -0.317 54 49 39 0 0
-0.1772 0.0377 -0.6550 -0.372 -0.017 0.928 35 31 24 0 0
-0.1830 0.0370 -0.6588 -0.705 0.011 0.709 64 53 39 0 0
-0.1866 0.0379 -0.6818 -0.917 -0.146 0.372 74 61 42 0 0
-0.1864 0.0385 -0.6899 -1.000 -0.030 -0.008 86 69 54 0 0
-0.1870 0.0454 -0.7972 -0.880 0.063 0.471 75 58 29 0 0
-0.1874 0.0455 -0.7990 -0.667 0.248 0.702 68 51 23 0 0
-0.1886 0.0454 -0.8001 -0.491 0.169 0.855 63 47 20 0 0
-0.1899 0.0452 -0.8012 -0.657 0.208 0.725 65 48 19 0 0
-0.1906 0.0452 -0.8027 -0.992 0.037 0.117 81 66 36 0 0
-0.1988 0.0482 -0.8680 -0.637 0.340 0.692 137 132 130 0 0
-0.2001 0.0480 -0.8690 -0.707 0.381 0.595 151 147 145 0 0
0.0205 0.0423 -0.2157 -0.725 0.376 0.577 176 174 178 0 0
-0.1414 0.0222 -0.3081 -0.967 0.056 0.247 117 101 71 0 0
-0.1594 0.0207 -0.3297 -0.928 -0.079 0.363 61 52 39 0 0
-0.1796 0.0224 -0.4052 -0.956 -0.280 0.082 71 51 30 0 0
-0.1801 0.0225 -0.4082 -0.810 -0.333 0.483 67 46 25 0 0
-0.1808 0.0225 -0.4095 -0.810 -0.333 0.483 73 51 27 0 0
-0.1813 0.0225 -0.4109 -0.884 -0.313 0.347 71 52 27 0 0
-0.1811 0.0226 -0.4127 -0.826 -0.102 0.555 126 112 87 0 0
-0.1891 0.0223 -0.4269 -0.787 -0.366 0.497 67 52 31 0 0
-0.2084 0.0214 -0.4618 -0.977 -0.209 -0.050 49 41 30 0 0
-0.2047 0.0227 -0.4720 -0.866 0.444 0.231 17 15 13 0 0
-0.2169 0.0260 -0.5510 -0.863 -0.040 0.503 111 100 75 0 0
-0.2154 0.0268 -0.5590 -0.860 -0.294 0.417 95 80 59 0 0
-0.2153 0.0278 -0.5751 -0.921 -0.377 -0.097 104 92 70 0 0
-0.1743 0.0384 -0.6337 -0.796 0.487 -0.360 49 42 33 0 0
-0.1773 0.0393 -0.6550 -0.372 -0.017 0.928 40 34 26 0 0
-0.1803 0.0389 -0.6568 -0.574 -0.156 0.804 71 63 48 0 0
-0.1817 0.0388 -0.6578 -0.651 -0.098 0.752 49 39 26 0 0
-0.1818 0.0389 -0.6596 -0.704 -0.563 0.432 70 60 43 0 0
-0.1829 0.0388 -0.6609 -0.608 -0.654 0.450 69 60 43 0 0
-0.1851 0.0386 -0.6632 -0.965 0.109 0.240 60 50 35 0 0
-0.1855 0.0386 -0.6648 -0.965 0.109 0.240 68 59 42 0 0
-0.1865 0.0401 -0.6899 -0.988 0.140 0.068 83 67 52 0 0
-0.1869 0.0402 -0.6916 -0.905 0.381 0.191 96 83 69 0 0
-0.1966 0.0421 -0.7450 -0.981 0.004 -0.192 69 58 39 0 0
-0.1867 0.0471 -0.7954 -0.986 -0.050 0.158 68 51 26 0 0
-0.1901 0.0484 -0.8228 -0.920 0.083 0.384 138 121 86 0 0
-0.1975 0.0501 -0.8671 -0.731 0.381 0.566 125 120 116 0 0
-0.1985 0.0500 -0.8684 -0.526 0.342 0.779 143 138 138 0 0
-0.2006 0.0497 -0.8686 -0.642 0.372 0.670 153 149 147 0 0
-0.1558 0.0222 -0.3217 -0.849 -0.019 0.529 116 101 76 0 0
-0.1588 0.0221 -0.3284 -0.940 -0.101 0.325 47 38 23 0 0
-0.1597 0.0221 -0.3296 -0.794 -0.242 0.558 106 98 80 0 0
-0.1558 0.0253 -0.3686 -0.885 0.242 0.397 22 13 9 0 0
-0.1596 0.0250 -0.3735 -0.847 0.030 0.531 90 77 61 0 0
-0.1588 0.0256 -0.3802 -0.725 -0.645 0.239 85 66 37 0 0
-0.1796 0.0239 -0.4053 -0.818 0.119 0.563 86 68 46 0 0
-0.1805 0.0238 -0.4065 -0.885 -0.141 0.444 77 60 38 0 0
-0.1813 0.0238 -0.4077 -0.911 0.021 0.412 92 71 50 0 0
-0.1815 0.0238 -0.4092 -0.943 -0.036 0.330 79 61 37 0 0
-0.1822 0.0238 -0.4106 -0.848 -0.044 0.528 108 94 70 0 0
-0.1836 0.0240 -0.4164 -0.825 -0.216 0.522 123 106 84 0 0
-0.1858 0.0237 -0.4170 -0.872 -0.147 0.467 90 72 49 0 0
-0.1883 0.0234 -0.4191 -0.938 -0.098 0.333 118 99 76 0 0
-0.1879 0.0237 -0.4226 -0.804 -0.295 0.517 81 65 38 0 0
-0.1946 0.0230 -0.4292 -0.651 -0.400 0.645 140 126 96 0 0
-0.2064 0.0225 -0.4496 -0.903 -0.254 0.347 66 49 24 0 0
-0.2059 0.0227 -0.4515 -0.959 -0.159 0.233 117 102 74 0 0
-0.2087 0.0228 -0.4600 -0.910 -0.318 0.265 68 54 40 0 0
-0.2081 0.0232 -0.4652 -0.906 -0.276 -0.322 28 22 17 0 0
-0.2026 0.0247 -0.4731 -0.966 0.258 0.021 16 15 12 0 0
-0.2013 0.0254 -0.4805 -0.825 0.565 0.025 31 27 24 0 0
-0.2130 0.0271 -0.5358 -0.714 -0.114 0.691 96 85 68 0 0
-0.2166 0.0276 -0.5511 -0.920 -0.000 0.391 108 98 69 0 0
-0.1792 0.0384 -0.6209 -0.839 0.541 -0.061 78 70 58 0 0
-0.1780 0.0388 -0.6237 -0.886 0.459 -0.064 58 49 37 0 0
-0.1719 0.0405 -0.6354 -0.755 0.569 -0.325 50 41 33 0 0
-0.1703 0.0410 -0.6385 -0.749 0.571 -0.336 37 30 23 0 0
-0.1572 0.0443 -0.6552 -0.618 0.462 0.637 56 48 39 0 0
-0.1585 0.0441 -0.6563 -0.607 0.448 0.656 68 59 49 0 0
-0.1789 0.0408 -0.6559 -0.358 -0.041 0.933 74 65 53 0 0
-0.1797 0.0407 -0.6573 -0.494 0.139 0.858 72 64 49 0 0
-0.1819 0.0404 -0.6577 -0.675 0.159 0.720 51 43 28 0 0
-0.1833 0.0402 -0.6587 -0.938 -0.182 0.295 67 59 42 0 0
-0.1840 0.0402 -0.6601 -0.935 -0.342 0.090 48 40 26 0 0
-0.1842 0.0403 -0.6619 -0.978 -0.143 0.151 68 59 47 0 0
-0.1893 0.0409 -0.6839 -0.852 0.111 0.512 53 42 30 0 0
-0.1859 0.0419 -0.6904 -0.905 0.381 0.191 85 73 55 0 0
-0.1883 0.0428 -0.7087 -0.795 0.091 0.600 47 39 28 0 0
-0.1867 0.0488 -0.7955 -0.999 -0.046 0.011 61 44 21 0 0
-0.1856 0.0492 -0.7986 -0.838 0.478 0.264 53 36 20 0 0
-0.1876 0.0493 -0.8055 -0.744 0.658 0.120 85 68 41 0 0
-0.1894 0.0503 -0.8235 -0.858 -0.318 0.402 124 108 77 0 0
-0.1972 0.0519 -0.8675 -0.714 0.336 0.614 133 127 125 0 0
-0.1980 0.0519 -0.8689 -0.526 0.342 0.779 147 142 142 0 0
0.0210 0.0458 -0.2174 -0.837 0.133 0.530 176 176 176 0 0
0.0148 0.0449 -0.2194 -0.995 0.098 -0.032 176 176 176 0 0
0.0155 0.0453 -0.2227 -0.992 0.068 -0.106 174 174 174 0 0
0.0156 0.0464 -0.2390 -0.819 0.552 0.155 77 62 39 0 0
0.0148 0.0464 -0.2405 -0.874 0.477 0.097 79 63 39 0 0
-0.1554 0.0235 -0.3188 -0.965 -0.103 0.242 129 110 87 0 0
-0.1598 0.0240 -0.3357 -0.904 0.297 0.308 57 45 33 0 0
-0.1606 0.0242 -0.3416 -0.997 0.069 -0.033 109 95 73 0 0
-0.1797 0.0254 -0.4052 -0.703 0.046 0.710 51 33 12 0 0
-0.1855 0.0250 -0.4140 -0.805 0.285 0.520 118 106 80 0 0
-0.1911 0.0249 -0.4260 -0.760 0.167 0.628 84 67 41 0 0
-0.2069 0.0239 -0.4494 -0.928 -0.263 0.265 63 46 25 0 0
-0.2064 0.0241 -0.4513 -0.855 -0.352 0.381 101 84 62 0 0
-0.2089 0.0246 -0.4648 -0.993 0.121 -0.001 62 55 44 0 0
-0.2131 0.0287 -0.5357 -0.884 0.126 0.449 99 88 73 0 0
-0.2148 0.0288 -0.5417 -0.932 0.333 0.141 68 57 39 0 0
-0.2172 0.0297 -0.5615 -0.899 0.017 0.438 81 61 37 0 0
-0.1569 0.0462 -0.6575 -0.616 0.680 0.398 62 53 42 0 0
-0.1822 0.0421 -0.6595 -0.847 0.029 0.531 70 61 47 0 0
-0.1891 0.0425 -0.6821 -0.791 0.108 0.602 58 47 31 0 0
-0.1891 0.0426 -0.6840 -0.852 0.111 0.512 61 48 33 0 0
-0.1855 0.0438 -0.6928 -0.952 0.196 0.234 88 79 63 0 0
-0.1858 0.0439 -0.6945 -0.856 -0.064 0.513 105 95 80 0 0
-0.1860 0.0440 -0.6964 -0.914 -0.067 0.400 98 87 70 0 0
-0.1877 0.0446 -0.7092 -0.682 0.306 0.665 60 51 41 0 0
-0.1911 0.0441 -0.7106 -0.452 -0.125 0.883 49 40 29 0 0
-0.1927 0.0440 -0.7134 -0.849 0.032 0.527 56 47 33 0 0
-0.1921 0.0443 -0.7159 -0.999 0.034 0.036 60 50 38 0 0
-0.1963 0.0443 -0.7269 -0.775 -0.146 0.615 84 71 54 0 0
-0.1974 0.0444 -0.7301 -0.928 0.133 0.348 80 72 53 0 0
-0.1978 0.0444 -0.7318 -0.978 -0.045 0.203 86 78 58 0 0
-0.1756 0.0516 -0.7835 -0.824 -0.142 0.548 112 96 65 0 0
-0.1859 0.0504 -0.7919 -0.992 0.090 -0.090 75 61 31 0 0
-0.1871 0.0518 -0.8147 -0.904 0.063 0.423 97 82 49 0 0
-0.1975 0.0536 -0.8673 -0.441 0.189 0.877 139 134 132 0 0
-0.1990 0.0534 -0.8681 -0.441 0.216 0.871 151 147 145 0 0
0.0190 0.0472 -0.2186 -0.929 0.001 0.371 176 176 176 0 0
0.0149 0.0466 -0.2194 -0.891 -0.452 0.037 176 176 176 0 0
0.0154 0.0469 -0.2227 -0.983 -0.138 -0.123 176 176 176 0 0
0.0156 0.0471 -0.2244 -0.983 -0.138 -0.123 175 175 175 0 0
0.0170 0.0483 -0.2393 -0.852 0.520 0.070 76 65 47 0 0
0.0169 0.0484 -0.2409 -0.850 0.524 0.058 76 65 45 0 0
0.0158 0.0483 -0.2423 -0.927 0.313 0.205 76 64 41 0 0
0.0203 0.0499 -0.2548 -0.951 0.306 -0.047 85 73 46 0 0
0.0187 0.0501 -0.2611 -0.874 0.053 0.483 47 36 19 0 0
-0.1577 0.0253 -0.3288 -0.823 0.323 0.467 38 28 18 0 0
-0.1598 0.0255 -0.3373 -0.904 0.297 0.308 73 61 46 0 0
-0.1604 0.0256 -0.3402 -0.987 0.143 0.074 93 80 63 0 0
-0.1885 0.0264 -0.4207 -0.986 -0.069 0.153 103 86 63 0 0
-0.1884 0.0266 -0.4224 -0.949 0.098 0.301 88 71 46 0 0
-0.2002 0.0254 -0.4347 -0.817 0.033 0.575 141 121 90 0 0
-0.2068 0.0270 -0.4743 -0.969 -0.181 -0.168 15 14 10 0 0
-0.1554 0.0480 -0.6565 -0.591 0.430 0.682 60 51 40 0 0
-0.1568 0.0479 -0.6576 -0.641 0.370 0.672 61 53 43 0 0
-0.1584 0.0477 -0.6585 -0.569 0.205 0.796 61 52 43 0 0
-0.1817 0.0441 -0.6639 -0.849 0.462 0.258 134 124 109 0 0
-0.1827 0.0443 -0.6690 -0.910 0.256 0.327 66 54 37 0 0
-0.1827 0.0445 -0.6710 -0.798 0.190 0.571 77 66 49 0 0
-0.1836 0.0444 -0.6723 -0.784 0.180 0.594 83 72 54 0 0
-0.1848 0.0462 -0.7014 -0.942 0.336 0.016 58 50 40 0 0
-0.1873 0.0463 -0.7096 -0.682 0.306 0.665 65 57 46 0 0
-0.1909 0.0468 -0.7251 -0.862 0.186 0.471 93 82 64 0 0
-0.1848 0.0529 -0.7994 -0.893 0.002 0.449 49 36 19 0 0
-0.1867 0.0535 -0.8130 -0.796 -0.424 0.432 90 75 42 0 0
-0.1943 0.0558 -0.8659 -0.918 0.392 -0.063 101 96 88 0 0
-0.1959 0.0556 -0.8667 -0.631 0.268 0.728 125 120 119 0 0
-0.1973 0.0554 -0.8676 -0.488 0.173 0.855 143 139 138 0 0
-0.1988 0.0552 -0.8684 -0.488 0.173 0.855 153 151 148 0 0
0.0178 0.0489 -0.2215 -0.962 0.150 0.227 176 176 176 0 0
0.0168 0.0503 -0.2441 -0.866 0.397 0.304 113 107 93 0 0
0.0213 0.0518 -0.2550 -0.984 0.178 0.013 70 58 34 0 0
0.0220 0.0520 -0.2568 -0.937 0.118 0.328 81 69 46 0 0
0.0211 0.0520 -0.2583 -0.990 -0.002 0.141 71 60 39 0 0
-0.1063 0.0327 -0.2895 -0.438 0.545 0.715 97 86 72 0 0
-0.1565 0.0269 -0.3276 -0.823 0.248 0.510 62 49 34 0 0
-0.1585 0.0267 -0.3300 -0.869 0.150 0.472 40 30 20 0 0
-0.1592 0.0268 -0.3328 -0.873 0.350 0.339 53 43 33 0 0
-0.1589 0.0270 -0.3345 -0.936 0.312 0.164 55 45 35 0 0
-0.1495 0.0305 -0.3630 -0.890 0.321 0.323 71 64 49 0 0
-0.1535 0.0302 -0.3679 -0.830 0.217 0.514 68 59 47 0 0
-0.1844 0.0282 -0.4144 -0.910 0.316 0.269 108 92 66 0 0
-0.1879 0.0281 -0.4210 -0.909 0.013 0.417 86 70 47 0 0
-0.2011 0.0269 -0.4359 -0.911 0.088 0.402 195 183 146 0 0
-0.2070 0.0286 -0.4759 -0.756 -0.652 0.050 21 20 16 0 0
-0.2115 0.0313 -0.5263 -0.867 -0.485 0.110 53 42 29 0 0
-0.1771 0.0435 -0.6187 -0.980 -0.056 -0.191 64 54 42 0 0
-0.1765 0.0437 -0.6210 -0.973 -0.110 -0.203 77 67 52 0 0
-0.1914 0.0475 -0.7125 -0.906 0.200 0.374 58 48 32 0 0
-0.1916 0.0476 -0.7144 -0.978 0.138 0.158 50 38 24 0 0
-0.1951 0.0480 -0.7280 -0.905 0.316 0.286 95 83 64 0 0
-0.1789 0.0549 -0.7894 -0.473 -0.040 0.880 125 108 75 0 0
-0.1988 0.0570 -0.8685 -0.454 0.053 0.889 155 154 152 0 0
0.0170 0.0507 -0.2262 -0.962 0.132 0.241 176 176 176 0 0
-0.1584 0.0286 -0.3347 -0.936 0.312 0.164 52 41 32 0 0
-0.1485 0.0321 -0.3618 -0.797 0.357 0.486 21 15 7 0 0
-0.1490 0.0321 -0.3632 -0.890 0.321 0.323 73 66 52 0 0
-0.1495 0.0321 -0.3646 -0.890 0.321 0.323 76 67 51 0 0
-0.1692 0.0316 -0.4049 -0.417 0.099 0.903 87 68 36 0 0
-0.1796 0.0301 -0.4085 -0.846 0.106 0.523 148 127 96 0 0
-0.1834 0.0298 -0.4133 -0.877 0.272 0.397 113 97 67 0 0
-0.2093 0.0282 -0.4532 -0.945 -0.185 0.270 86 72 53 0 0
-0.2121 0.0333 -0.5347 -0.951 0.232 0.206 34 24 20 0 0
-0.2126 0.0334 -0.5362 -0.911 0.286 0.297 69 57 49 0 0
-0.2124 0.0335 -0.5380 -0.987 -0.004 0.160 30 17 9 0 0
-0.2140 0.0363 -0.5816 -0.998 -0.035 0.047 102 87 62 0 0
-0.1771 0.0451 -0.6187 -0.999 0.053 -0.008 72 62 50 0 0
-0.1946 0.0497 -0.7284 -0.905 0.316 0.286 102 89 69 0 0
-0.1756 0.0572 -0.7902 -0.870 0.227 0.437 126 107 75 0 0
-0.1811 0.0564 -0.7919 -0.811 -0.501 0.300 72 60 33 0 0
-0.1845 0.0559 -0.7934 -0.843 -0.463 0.273 51 38 20 0 0
-0.1928 0.0595 -0.8653 -0.855 0.444 0.270 95 90 77 0 0
-0.1949 0.0592 -0.8656 -0.477 0.303 0.825 120 117 112 0 0
-0.2102 0.0564 -0.8623 -0.217 -0.205 0.954 169 165 162 0 0
-0.1566 0.0308 -0.3415 -0.981 -0.165 0.105 99 88 70 0 0
-0.1474 0.0334 -0.3559 -0.991 0.043 -0.123 63 54 43 0 0
-0.1491 0.0336 -0.3632 -0.835 0.086 0.544 42 34 20 0 0
-0.1494 0.0337 -0.3647 -0.979 0.201 -0.026 75 66 52 0 0
-0.1791 0.0314 -0.4039 -0.940 -0.037 0.340 105 88 60 0 0
-0.1786 0.0316 -0.4057 -0.926 -0.029 0.377 96 78 47 0 0
-0.1837 0.0312 -0.4132 -0.840 -0.026 0.543 100 85 54 0 0
-0.1845 0.0313 -0.4160 -0.913 0.003 0.408 115 99 74 0 0
-0.1938 0.0304 -0.4264 -0.663 0.607 0.438 90 72 45 0 0
-0.2096 0.0296 -0.4531 -0.945 -0.185 0.270 55 42 24 0 0
-0.2118 0.0309 -0.4768 -0.996 -0.049 -0.072 36 27 22 0 0
-0.2115 0.0311 -0.4786 -0.953 -0.059 0.298 33 24 22 0 0
-0.2118 0.0311 -0.4801 -0.762 -0.289 0.579 26 18 17 0 0
-0.2075 0.0339 -0.5096 -0.834 -0.079 0.546 59 51 44 0 0
-0.2072 0.0341 -0.5115 -0.933 -0.037 0.357 31 23 17 0 0
-0.2081 0.0340 -0.5127 -0.839 -0.060 0.540 38 29 23 0 0
-0.2090 0.0340 -0.5140 -0.752 0.101 0.652 38 29 20 0 0
-0.2147 0.0336 -0.5227 -0.952 0.066 0.300 75 65 53 0 0
-0.2134 0.0341 -0.5270 -0.944 -0.316 -0.093 82 71 55 0 0
-0.2120 0.0349 -0.5348 -0.962 0.128 0.241 36 23 17 0 0
-0.2142 0.0358 -0.5528 -0.980 -0.061 0.191 60 44 26 0 0
