ply
format ascii 1.0
element vertex 827
property float x
property float y
property float z
property float nx
property float ny
property float nz
property uchar diffuse_red
property uchar diffuse_green
property uchar diffuse_blue
property uchar class
property uchar detection
end_header
-0.0247 -0.0375 -0.2931 -0.955 -0.259 -0.145 10 9 7 0 0
-0.1454 -0.1027 -0.4914 -0.706 -0.638 0.306 120 105 76 0 0
-0.1561 -0.1087 -0.5055 -0.797 -0.471 0.378 109 93 70 0 0
-0.1583 -0.1095 -0.5181 -0.785 -0.480 0.391 84 69 48 0 0
-0.1595 -0.1101 -0.5209 -0.785 -0.487 0.382 68 55 31 0 0
-0.1600 -0.1103 -0.5223 -0.785 -0.487 0.382 53 40 21 0 0
-0.1605 -0.1106 -0.5237 -0.785 -0.487 0.382 45 32 18 0 0
-0.1611 -0.1108 -0.5251 -0.785 -0.487 0.382 47 33 19 0 0
-0.1412 -0.0929 -0.6442 -0.785 -0.166 -0.597 32 28 20 0 0
-0.1849 -0.1166 -0.7156 -0.458 -0.730 0.507 118 102 69 0 0
-0.1868 -0.1176 -0.7179 -0.540 -0.714 0.445 115 98 67 0 0
-0.1749 -0.1090 -0.7457 -0.571 -0.752 -0.330 75 64 47 0 0
-0.1741 -0.1083 -0.7486 -0.571 -0.752 -0.330 71 58 43 0 0
-0.1733 -0.1077 -0.7515 -0.571 -0.752 -0.330 67 56 40 0 0
-0.1708 -0.1059 -0.7560 -0.750 -0.561 -0.350 63 54 35 0 0
-0.1697 -0.1051 -0.7592 -0.786 -0.505 -0.358 70 61 38 0 0
-0.1595 -0.0978 -0.7799 -0.372 -0.925 0.083 97 83 54 0 0
-0.1621 -0.0993 -0.7838 -0.665 -0.670 0.330 117 104 71 0 0
-0.1793 -0.1090 -0.8029 -0.550 -0.733 0.401 188 170 125 0 0
-0.1799 -0.1093 -0.8044 -0.738 -0.471 0.483 179 161 113 0 0
-0.1807 -0.1097 -0.8057 -0.766 -0.476 0.432 170 154 108 0 0
-0.1962 -0.1180 -0.8325 -0.709 -0.557 0.431 114 99 63 0 0
-0.1969 -0.1184 -0.8339 -0.822 -0.260 0.506 113 97 64 0 0
-0.2050 -0.1221 -0.8623 -0.395 -0.724 0.566 96 89 77 0 0
-0.2018 -0.1198 -0.8683 -0.852 -0.512 0.105 127 122 115 0 0
-0.2010 -0.1189 -0.8761 -0.891 -0.452 -0.047 176 174 175 0 0
-0.0228 -0.0408 -0.1603 -0.839 -0.087 0.537 85 70 45 0 0
-0.0373 -0.0479 -0.2005 -0.954 -0.094 0.285 45 29 16 0 0
-0.0392 -0.0481 -0.2212 -0.838 -0.388 0.384 52 36 22 0 0
-0.0403 -0.0486 -0.2240 -0.830 -0.429 0.356 56 42 27 0 0
-0.0409 -0.0481 -0.2423 -0.792 -0.364 0.491 54 36 20 0 0
-0.0408 -0.0479 -0.2439 -0.919 -0.347 0.188 68 50 32 0 0
-0.0366 -0.0449 -0.2544 -0.720 -0.427 -0.547 15 14 11 0 0
-0.0342 -0.0432 -0.2583 -0.892 0.060 -0.447 8 7 5 0 0
-0.0252 -0.0364 -0.2834 -0.855 -0.469 0.221 10 6 5 0 0
-0.0248 -0.0361 -0.2851 -0.751 -0.646 0.135 10 7 5 0 0
-0.0235 -0.0351 -0.2888 -0.919 0.057 0.391 9 8 6 0 0
-0.0248 -0.0359 -0.2900 -0.987 -0.070 0.147 8 7 5 0 0
-0.1332 -0.0981 -0.3928 -0.755 -0.611 -0.237 94 79 55 0 0
-0.1279 -0.0937 -0.4151 -0.651 -0.758 -0.028 104 90 63 0 0
-0.1288 -0.0931 -0.4414 -0.496 -0.853 0.163 70 57 34 0 0
-0.1293 -0.0933 -0.4429 -0.379 -0.792 0.478 72 58 35 0 0
-0.1347 -0.0957 -0.4620 -0.758 -0.628 0.176 90 75 55 0 0
-0.1489 -0.1029 -0.4949 -0.672 -0.444 0.593 141 126 98 0 0
-0.1664 -0.1117 -0.5379 -0.626 -0.709 0.324 69 55 35 0 0
-0.1677 -0.1124 -0.5406 -0.787 -0.469 0.401 70 54 34 0 0
-0.1696 -0.1123 -0.5662 -0.738 -0.674 0.041 129 115 91 0 0
-0.1677 -0.1109 -0.5730 -0.465 -0.840 -0.280 104 93 74 0 0
-0.1668 -0.1102 -0.5756 -0.370 -0.892 -0.260 103 92 74 0 0
-0.1412 -0.0910 -0.6448 -0.747 -0.242 -0.619 29 24 16 0 0
-0.1864 -0.1157 -0.7149 -0.557 -0.674 0.485 125 108 75 0 0
-0.1882 -0.1166 -0.7173 -0.649 -0.650 0.395 120 105 72 0 0
-0.1765 -0.1081 -0.7449 -0.541 -0.770 -0.338 80 67 50 0 0
-0.1757 -0.1074 -0.7478 -0.534 -0.782 -0.321 77 64 47 0 0
-0.1743 -0.1064 -0.7512 -0.519 -0.818 -0.249 84 72 52 0 0
-0.1710 -0.1040 -0.7587 -0.700 -0.631 -0.333 100 86 60 0 0
-0.1630 -0.0981 -0.7773 -0.425 -0.902 -0.074 92 79 47 0 0
-0.1634 -0.0983 -0.7790 -0.550 -0.828 0.105 95 81 52 0 0
-0.1640 -0.0986 -0.7805 -0.680 -0.731 0.054 95 80 53 0 0
-0.1701 -0.1017 -0.7938 -0.797 -0.344 0.496 106 92 68 0 0
-0.1956 -0.1161 -0.8253 -0.367 -0.847 0.385 72 59 35 0 0
-0.1987 -0.1174 -0.8372 -0.881 -0.231 0.412 98 84 52 0 0
-0.2055 -0.1205 -0.8605 -0.612 -0.780 0.132 66 61 45 0 0
-0.2025 -0.1181 -0.8708 -0.826 -0.554 -0.105 146 142 138 0 0
-0.0289 -0.0420 -0.1784 -0.884 -0.318 0.341 137 124 93 0 0
-0.0400 -0.0468 -0.2212 -0.781 -0.530 0.329 51 37 21 0 0
-0.0412 -0.0464 -0.2439 -0.944 -0.328 0.043 65 47 28 0 0
-0.0280 -0.0373 -0.2634 -0.899 -0.172 0.403 17 13 11 0 0
-0.0285 -0.0375 -0.2649 -0.976 -0.183 0.121 17 12 8 0 0
-0.0254 -0.0346 -0.2851 -0.827 -0.511 0.234 13 10 9 0 0
-0.1341 -0.0970 -0.3927 -0.755 -0.611 -0.237 103 92 65 0 0
-0.1302 -0.0934 -0.4160 -0.626 -0.774 0.096 101 87 60 0 0
-0.1327 -0.0935 -0.4464 -0.374 -0.864 0.337 68 56 31 0 0
-0.1385 -0.0955 -0.4791 -0.617 -0.474 0.629 134 122 100 0 0
-0.1458 -0.0995 -0.4886 -0.698 -0.582 0.417 90 77 46 0 0
-0.1531 -0.1035 -0.4997 -0.800 -0.443 0.405 127 111 86 0 0
-0.1540 -0.1040 -0.5009 -0.796 -0.475 0.376 102 83 60 0 0
-0.1579 -0.1062 -0.5071 -0.922 -0.184 0.340 114 98 76 0 0
-0.1691 -0.1117 -0.5365 -0.616 -0.682 0.396 57 44 24 0 0
-0.1696 -0.1120 -0.5379 -0.616 -0.682 0.396 72 58 39 0 0
-0.1892 -0.1154 -0.7170 -0.649 -0.650 0.395 110 95 66 0 0
-0.1785 -0.1074 -0.7438 -0.510 -0.822 -0.253 86 73 55 0 0
-0.1779 -0.1069 -0.7464 -0.593 -0.743 -0.310 93 80 59 0 0
-0.1647 -0.0972 -0.7764 -0.697 -0.709 0.107 90 76 46 0 0
-0.1654 -0.0974 -0.7821 -0.697 -0.709 0.107 111 97 68 0 0
-0.1660 -0.0976 -0.7858 -0.880 -0.342 0.328 62 54 33 0 0
-0.1685 -0.0989 -0.7919 -0.596 -0.649 0.473 85 72 43 0 0
-0.1698 -0.0997 -0.7927 -0.696 -0.609 0.381 102 89 56 0 0
-0.1957 -0.1141 -0.8261 -0.754 -0.535 0.381 74 62 38 0 0
-0.1961 -0.1143 -0.8279 -0.708 -0.471 0.526 66 54 30 0 0
-0.1968 -0.1147 -0.8293 -0.708 -0.471 0.526 65 53 30 0 0
-0.1987 -0.1157 -0.8315 -0.611 -0.706 0.357 92 78 48 0 0
-0.2025 -0.1175 -0.8449 -0.755 -0.555 0.348 107 94 58 0 0
-0.0035 -0.0256 -0.1519 -0.352 0.292 0.889 202 190 171 0 0
-0.0376 -0.0445 -0.2006 -0.954 -0.094 0.285 56 41 20 0 0
-0.0379 -0.0446 -0.2021 -0.957 -0.196 0.213 78 64 39 0 0
-0.0372 -0.0437 -0.2113 -0.782 -0.297 0.548 40 26 13 0 0
-0.0418 -0.0450 -0.2424 -0.934 -0.348 0.075 62 45 26 0 0
-0.0419 -0.0450 -0.2439 -0.897 -0.431 0.102 73 55 33 0 0
-0.0404 -0.0440 -0.2459 -0.927 -0.260 -0.271 73 56 32 0 0
-0.0269 -0.0338 -0.2816 -0.553 -0.824 -0.124 12 8 7 0 0
-0.0724 -0.0590 -0.3454 0.012 -0.360 0.933 56 51 48 0 0
-0.1345 -0.0961 -0.3783 -0.562 -0.524 0.640 73 58 38 0 0
-0.1354 -0.0966 -0.3795 -0.529 -0.599 0.601 65 50 31 0 0
-0.1349 -0.0957 -0.3926 -0.916 -0.373 -0.148 96 84 59 0 0
-0.1315 -0.0921 -0.4223 -0.883 -0.432 -0.184 88 74 50 0 0
-0.1328 -0.0919 -0.4434 -0.466 -0.769 0.436 86 73 54 0 0
-0.1336 -0.0923 -0.4447 -0.715 -0.551 0.430 74 62 42 0 0
-0.1341 -0.0926 -0.4460 -0.715 -0.551 0.430 72 60 36 0 0
-0.1594 -0.1050 -0.5135 -0.957 -0.178 0.229 78 62 38 0 0
-0.1704 -0.1106 -0.5379 -0.648 -0.700 0.300 91 76 57 0 0
-0.1727 -0.1112 -0.5559 -0.839 -0.419 0.346 110 95 66 0 0
-0.1294 -0.0773 -0.6962 -0.455 -0.861 0.226 27 22 16 0 0
-0.1299 -0.0775 -0.6979 -0.455 -0.861 0.226 26 22 15 0 0
-0.1756 -0.1053 -0.7104 -0.660 -0.138 0.739 95 85 64 0 0
-0.1903 -0.1142 -0.7168 -0.659 -0.625 0.418 106 91 60 0 0
-0.1903 -0.1141 -0.7187 -0.845 -0.504 0.179 102 87 59 0 0
-0.1802 -0.1066 -0.7429 -0.510 -0.822 -0.253 101 88 68 0 0
-0.1662 -0.0961 -0.7779 -0.435 -0.891 -0.125 99 85 56 0 0
-0.1985 -0.1137 -0.8305 -0.563 -0.762 0.320 61 49 27 0 0
-0.1979 -0.1132 -0.8333 -0.585 -0.683 0.437 74 61 35 0 0
-0.2035 -0.1161 -0.8447 -0.755 -0.555 0.348 90 76 42 0 0
-0.2097 -0.1197 -0.8508 -0.484 -0.829 0.281 117 101 67 0 0
-0.0423 -0.0435 -0.2424 -0.979 -0.201 0.032 88 72 50 0 0
-0.0284 -0.0342 -0.2557 -0.961 0.017 -0.275 13 12 11 0 0
-0.0284 -0.0341 -0.2573 -0.983 0.016 0.182 9 8 6 0 0
-0.0276 -0.0335 -0.2591 -0.749 0.252 0.612 10 8 6 0 0
-0.1219 -0.0869 -0.3700 -0.004 -0.388 0.922 105 97 85 0 0
-0.1322 -0.0911 -0.4156 -0.548 -0.780 0.302 108 95 67 0 0
-0.1328 -0.0914 -0.4170 -0.530 -0.778 0.337 109 95 68 0 0
-0.1325 -0.0910 -0.4221 -0.692 -0.722 -0.016 89 75 52 0 0
-0.1402 -0.0929 -0.4790 -0.751 -0.320 0.578 101 89 67 0 0
-0.1416 -0.0937 -0.4815 -0.744 -0.507 0.435 109 94 65 0 0
-0.1428 -0.0944 -0.4826 -0.689 -0.486 0.538 93 76 46 0 0
-0.1478 -0.0972 -0.4882 -0.839 -0.040 0.543 111 95 66 0 0
-0.1496 -0.0983 -0.4888 -0.821 -0.370 0.434 114 99 69 0 0
-0.1502 -0.0986 -0.4902 -0.821 -0.370 0.434 130 115 86 0 0
-0.1512 -0.0992 -0.4913 -0.715 -0.569 0.407 129 111 80 0 0
-0.1513 -0.0991 -0.4930 -0.851 -0.430 0.300 138 116 85 0 0
-0.1654 -0.1064 -0.5241 -0.684 -0.515 0.516 79 62 39 0 0
-0.1670 -0.1073 -0.5266 -0.764 -0.550 0.338 111 91 66 0 0
-0.1675 -0.1075 -0.5280 -0.816 -0.472 0.334 73 56 31 0 0
-0.1679 -0.1077 -0.5295 -0.836 -0.329 0.439 71 55 31 0 0
-0.1684 -0.1079 -0.5309 -0.804 -0.480 0.352 69 52 32 0 0
-0.1696 -0.1085 -0.5336 -0.744 -0.595 0.304 60 44 26 0 0
-0.1726 -0.1101 -0.5404 -0.748 -0.423 0.511 77 60 42 0 0
-0.1732 -0.1104 -0.5418 -0.833 -0.322 0.451 76 59 41 0 0
-0.1737 -0.1106 -0.5432 -0.821 -0.422 0.384 67 50 31 0 0
-0.1752 -0.1113 -0.5493 -0.833 -0.467 0.297 75 58 37 0 0
-0.1649 -0.0969 -0.7066 -0.554 -0.246 0.795 65 56 45 0 0
-0.1764 -0.1040 -0.7103 -0.582 -0.234 0.779 82 74 55 0 0
-0.1928 -0.1139 -0.7171 -0.671 -0.651 0.354 107 92 60 0 0
-0.1679 -0.0953 -0.7770 -0.528 -0.849 -0.008 92 80 52 0 0
-0.1685 -0.0955 -0.7806 -0.724 -0.684 -0.096 86 77 47 0 0
-0.1704 -0.0961 -0.7917 -0.590 -0.666 0.457 162 141 95 0 0
-0.0247 -0.0347 -0.1632 -0.926 -0.100 0.363 116 100 70 0 0
-0.0252 -0.0349 -0.1646 -0.942 0.076 0.326 129 115 85 0 0
-0.0256 -0.0352 -0.1660 -0.978 0.098 0.185 137 122 89 0 0
-0.0259 -0.0353 -0.1674 -0.978 0.098 0.185 107 92 64 0 0
-0.0390 -0.0411 -0.2142 -0.648 -0.381 0.660 70 57 37 0 0
-0.0409 -0.0416 -0.2290 -0.834 -0.395 0.385 73 58 39 0 0
-0.0435 -0.0430 -0.2329 -0.971 -0.215 0.104 78 62 42 0 0
-0.0274 -0.0316 -0.2577 -0.382 -0.887 -0.258 10 8 5 0 0
-0.0271 -0.0307 -0.2706 -0.996 0.003 0.086 14 13 11 0 0
-0.0708 -0.0556 -0.3204 -0.279 -0.928 0.248 55 50 45 0 0
-0.1334 -0.0896 -0.4253 -0.778 -0.628 -0.028 99 86 65 0 0
-0.1339 -0.0897 -0.4284 -0.548 -0.808 0.217 70 56 36 0 0
-0.1520 -0.0978 -0.4930 -0.851 -0.430 0.300 139 119 87 0 0
-0.1524 -0.0980 -0.4945 -0.851 -0.430 0.300 139 119 86 0 0
-0.1658 -0.1050 -0.5225 -0.803 -0.339 0.490 119 105 79 0 0
-0.1759 -0.1098 -0.5528 -0.873 -0.488 -0.013 84 66 41 0 0
-0.1731 -0.1068 -0.5767 -0.676 -0.654 -0.339 104 95 76 0 0
-0.1712 -0.1040 -0.6079 -0.732 -0.586 -0.347 117 102 70 0 0
-0.1600 -0.0959 -0.6282 -0.702 -0.358 -0.616 55 47 27 0 0
-0.1582 -0.0946 -0.6317 -0.736 -0.316 -0.598 44 38 26 0 0
-0.1943 -0.1128 -0.7185 -0.495 -0.753 0.433 108 93 56 0 0
-0.1696 -0.0940 -0.7847 -0.622 -0.772 0.132 128 111 75 0 0
-0.1705 -0.0943 -0.7881 -0.364 -0.849 0.383 154 136 97 0 0
-0.2069 -0.1143 -0.8449 -0.698 -0.640 0.320 109 93 55 0 0
-0.0245 -0.0327 -0.1648 -0.884 0.071 0.462 144 128 95 0 0
-0.0417 -0.0403 -0.2289 -0.748 -0.531 0.397 55 39 22 0 0
-0.0321 -0.0326 -0.2613 -0.967 0.213 -0.141 18 14 10 0 0
-0.0321 -0.0323 -0.2661 -0.928 -0.098 0.361 24 20 17 0 0
-0.0278 -0.0293 -0.2706 -0.857 0.450 0.250 12 11 9 0 0
-0.1378 -0.0932 -0.3745 -0.758 -0.479 0.443 135 121 82 0 0
-0.1387 -0.0936 -0.3772 -0.691 -0.697 0.190 55 43 24 0 0
-0.1390 -0.0937 -0.3787 -0.691 -0.697 0.190 65 49 32 0 0
-0.1360 -0.0909 -0.3979 -0.930 -0.329 0.163 85 73 54 0 0
-0.1350 -0.0890 -0.4215 -0.780 -0.626 -0.004 102 90 67 0 0
-0.1344 -0.0885 -0.4235 -0.778 -0.628 -0.028 79 67 45 0 0
-0.1364 -0.0885 -0.4476 -0.827 -0.551 0.113 34 26 17 0 0
-0.1370 -0.0888 -0.4490 -0.695 -0.701 0.157 42 32 24 0 0
-0.1473 -0.0935 -0.4841 -0.739 -0.078 0.669 111 97 66 0 0
-0.1600 -0.1004 -0.5058 -0.824 -0.314 0.471 114 92 61 0 0
-0.1612 -0.1010 -0.5085 -0.913 -0.376 0.157 86 70 45 0 0
-0.1664 -0.1035 -0.5226 -0.806 -0.323 0.495 117 104 79 0 0
-0.1719 -0.1063 -0.5348 -0.836 -0.442 0.326 71 55 35 0 0
-0.1773 -0.1081 -0.5668 -0.876 -0.372 0.307 87 77 60 0 0
-0.1754 -0.1065 -0.5755 -0.593 -0.785 -0.182 95 84 60 0 0
-0.1744 -0.1045 -0.6003 -0.863 -0.503 0.046 125 109 76 0 0
-0.1494 -0.0836 -0.7015 -0.569 -0.660 0.491 80 72 61 0 0
-0.1661 -0.0938 -0.7069 -0.289 -0.213 0.933 65 56 46 0 0
-0.1754 -0.0996 -0.7086 -0.274 -0.312 0.909 74 64 50 0 0
-0.0181 -0.0271 -0.1601 -0.801 0.469 0.372 121 106 73 0 0
-0.0196 -0.0280 -0.1613 -0.750 0.413 0.516 109 95 65 0 0
-0.0211 -0.0289 -0.1625 -0.749 0.358 0.558 109 96 68 0 0
-0.0219 -0.0294 -0.1639 -0.753 0.374 0.541 133 119 89 0 0
-0.0231 -0.0301 -0.1651 -0.770 0.395 0.502 138 122 89 0 0
-0.0361 -0.0365 -0.1984 -0.980 -0.039 0.195 59 47 29 0 0
-0.0355 -0.0333 -0.2526 -0.909 0.226 -0.350 30 26 22 0 0
-0.0283 -0.0285 -0.2578 -0.672 -0.470 -0.573 14 13 9 0 0
-0.0320 -0.0307 -0.2599 -0.977 0.165 -0.135 22 18 15 0 0
-0.0318 -0.0305 -0.2616 -0.975 0.196 -0.104 16 12 10 0 0
-0.0271 -0.0271 -0.2694 -0.925 0.086 -0.370 11 10 8 0 0
-0.1397 -0.0925 -0.3771 -0.778 -0.579 0.242 59 48 28 0 0
-0.1366 -0.0894 -0.3980 -0.930 -0.329 0.163 79 66 48 0 0
-0.1355 -0.0874 -0.4233 -0.915 -0.394 -0.090 81 69 47 0 0
-0.1661 -0.1015 -0.5233 -0.876 -0.325 0.357 113 97 73 0 0
-0.1677 -0.1024 -0.5257 -0.780 -0.409 0.474 95 78 53 0 0
-0.1779 -0.1067 -0.5669 -0.778 -0.512 0.365 135 125 104 0 0
-0.1769 -0.1056 -0.5749 -0.445 -0.888 -0.117 91 78 56 0 0
-0.1761 -0.1048 -0.5810 -0.635 -0.738 0.226 149 137 110 0 0
-0.1381 -0.0755 -0.6813 -0.588 -0.380 0.714 21 17 14 0 0
-0.1682 -0.0932 -0.7058 -0.868 -0.019 0.496 60 51 42 0 0
-0.1689 -0.0936 -0.7071 -0.868 -0.019 0.496 62 54 43 0 0
-0.1764 -0.0983 -0.7084 -0.274 -0.312 0.909 64 55 45 0 0
-0.1960 -0.1102 -0.7163 -0.446 -0.616 0.650 135 118 89 0 0
-0.1728 -0.0923 -0.7788 -0.572 -0.792 -0.214 107 92 61 0 0
-0.1844 -0.0991 -0.7905 -0.641 -0.527 0.558 168 150 104 0 0
-0.2136 -0.1143 -0.8501 -0.655 -0.486 0.579 110 97 62 0 0
-0.0192 -0.0259 -0.1630 -0.808 0.516 0.286 102 90 65 0 0
-0.0342 -0.0338 -0.1929 -0.878 -0.057 0.476 53 39 25 0 0
-0.0349 -0.0342 -0.1943 -0.940 -0.056 0.338 57 42 24 0 0
-0.0400 -0.0365 -0.2113 -0.727 -0.463 0.507 117 97 68 0 0
-0.0415 -0.0373 -0.2140 -0.719 -0.571 0.397 55 39 29 0 0
-0.0416 -0.0359 -0.2417 -0.672 -0.579 0.461 78 63 38 0 0
-0.0350 -0.0311 -0.2529 -0.898 0.200 -0.393 24 22 17 0 0
-0.0303 -0.0279 -0.2574 -0.955 0.259 -0.148 17 15 13 0 0
-0.0317 -0.0286 -0.2602 -0.973 0.176 -0.151 16 13 11 0 0
-0.0345 -0.0301 -0.2658 -0.179 -0.514 0.839 8 8 6 0 0
-0.0503 -0.0397 -0.2737 -0.323 -0.472 0.820 18 17 14 0 0
-0.0517 -0.0405 -0.2748 -0.313 -0.452 0.835 19 19 17 0 0
-0.1404 -0.0913 -0.3754 -0.866 -0.437 0.243 82 69 48 0 0
-0.1408 -0.0914 -0.3769 -0.866 -0.437 0.243 64 52 33 0 0
-0.1411 -0.0916 -0.3783 -0.866 -0.437 0.243 72 58 41 0 0
-0.1412 -0.0915 -0.3815 -0.942 -0.089 -0.323 69 55 39 0 0
-0.1397 -0.0904 -0.3838 -0.955 -0.225 -0.191 59 47 33 0 0
-0.1374 -0.0861 -0.4377 -0.517 -0.753 0.407 40 30 16 0 0
-0.1381 -0.0862 -0.4441 -0.866 -0.448 0.221 48 34 25 0 0
-0.1785 -0.1054 -0.5634 -0.838 -0.475 0.269 118 110 83 0 0
-0.1787 -0.1054 -0.5668 -0.778 -0.512 0.365 128 116 92 0 0
-0.1765 -0.1032 -0.5813 -0.526 -0.685 0.504 106 94 70 0 0
-0.1423 -0.0752 -0.7009 -0.794 -0.607 0.041 56 47 37 0 0
-0.1784 -0.0976 -0.7093 -0.632 -0.141 0.762 71 62 50 0 0
-0.1865 -0.0982 -0.7935 -0.849 -0.358 0.387 87 75 48 0 0
-0.1878 -0.0990 -0.7943 -0.734 -0.461 0.498 77 64 39 0 0
-0.0349 -0.0322 -0.1974 -0.983 -0.181 0.036 52 39 25 0 0
-0.0430 -0.0360 -0.2214 -0.852 -0.473 0.225 93 77 50 0 0
-0.0446 -0.0364 -0.2333 -0.954 -0.270 -0.127 32 23 13 0 0
-0.0291 -0.0253 -0.2579 -0.961 0.134 -0.240 14 12 10 0 0
-0.0286 -0.0248 -0.2597 -0.961 0.134 -0.240 18 14 13 0 0
-0.0281 -0.0244 -0.2614 -0.957 0.186 -0.222 11 8 7 0 0
-0.0276 -0.0240 -0.2631 -0.957 0.186 -0.222 11 10 8 0 0
-0.0259 -0.0227 -0.2669 -0.902 0.127 -0.412 19 18 16 0 0
-0.0254 -0.0223 -0.2686 -0.916 0.297 -0.269 6 6 4 0 0
-0.0467 -0.0357 -0.2702 -0.857 0.428 0.289 18 16 14 0 0
-0.0476 -0.0363 -0.2715 -0.801 0.444 0.401 35 31 29 0 0
-0.0497 -0.0375 -0.2741 -0.713 0.387 0.584 45 43 40 0 0
-0.0530 -0.0395 -0.2746 -0.313 -0.230 0.922 32 31 27 0 0
-0.1305 -0.0836 -0.3691 -0.527 -0.116 0.842 115 101 79 0 0
-0.1415 -0.0903 -0.3752 -0.834 -0.444 0.328 64 52 31 0 0
-0.1416 -0.0902 -0.3768 -0.940 -0.329 0.086 64 51 33 0 0
-0.1394 -0.0853 -0.4420 -0.911 -0.340 0.235 57 45 34 0 0
-0.1422 -0.0865 -0.4523 -0.784 -0.615 -0.085 43 35 25 0 0
-0.1418 -0.0862 -0.4543 -0.731 -0.669 0.133 36 28 19 0 0
-0.1422 -0.0863 -0.4557 -0.824 -0.566 0.017 33 24 16 0 0
-0.1422 -0.0863 -0.4574 -0.764 -0.638 0.097 25 16 10 0 0
-0.1421 -0.0861 -0.4592 -0.799 -0.558 0.225 39 28 20 0 0
-0.1418 -0.0856 -0.4662 -0.664 -0.678 0.315 58 45 35 0 0
-0.1400 -0.0839 -0.4760 -0.745 -0.355 0.564 53 40 25 0 0
-0.1697 -0.0999 -0.5289 -0.770 -0.359 0.528 144 129 107 0 0
-0.1715 -0.1009 -0.5312 -0.684 -0.468 0.559 81 68 46 0 0
-0.1789 -0.1028 -0.5837 -0.614 -0.681 0.399 101 85 59 0 0
-0.1799 -0.1033 -0.5848 -0.585 -0.733 0.347 111 96 70 0 0
-0.1429 -0.0736 -0.7011 -0.894 -0.444 -0.063 69 63 51 0 0
-0.1449 -0.0748 -0.7014 -0.805 0.002 0.594 68 62 51 0 0
-0.1790 -0.0960 -0.7095 -0.572 -0.278 0.772 66 58 47 0 0
-0.1818 -0.0979 -0.7089 -0.105 -0.616 0.780 74 64 53 0 0
-0.2076 -0.1082 -0.8214 -0.816 -0.422 0.395 97 81 49 0 0
-0.2082 -0.1085 -0.8229 -0.816 -0.422 0.395 113 97 63 0 0
0.0027 -0.0088 -0.1534 -0.459 0.027 0.888 178 178 178 0 0
0.0063 -0.0065 -0.1555 -0.292 0.299 0.908 178 178 178 0 0
-0.0408 -0.0334 -0.2114 -0.874 -0.088 0.478 125 104 71 0 0
-0.0441 -0.0348 -0.2243 -0.909 -0.396 0.126 79 62 33 0 0
-0.0446 -0.0349 -0.2273 -0.975 -0.195 0.110 60 45 27 0 0
-0.0277 -0.0223 -0.2617 -0.975 0.077 -0.207 25 24 24 0 0
-0.0273 -0.0219 -0.2634 -0.975 0.077 -0.207 42 41 40 0 0
-0.0262 -0.0211 -0.2654 -0.926 0.111 -0.361 39 38 36 0 0
-0.0252 -0.0204 -0.2672 -0.846 0.080 -0.527 8 7 5 0 0
-0.0527 -0.0376 -0.2733 0.070 -0.742 0.666 76 72 64 0 0
-0.0595 -0.0416 -0.2775 -0.254 -0.766 0.590 18 17 14 0 0
-0.0609 -0.0423 -0.2818 -0.575 -0.818 -0.023 15 14 11 0 0
-0.0689 -0.0469 -0.2918 -0.183 -0.968 0.173 45 39 29 0 0
-0.0931 -0.0597 -0.3389 -0.243 -0.951 0.191 41 35 29 0 0
-0.1389 -0.0870 -0.3720 -0.462 -0.280 0.841 212 201 172 0 0
-0.1403 -0.0843 -0.4385 -0.865 -0.467 0.185 47 38 23 0 0
-0.1415 -0.0847 -0.4446 -0.745 -0.577 0.336 59 45 34 0 0
-0.1429 -0.0844 -0.4660 -0.688 -0.723 0.062 71 59 44 0 0
-0.1821 -0.1050 -0.5474 -0.449 -0.887 0.110 155 143 114 0 0
-0.1824 -0.1033 -0.5815 -0.842 -0.523 0.136 95 83 55 0 0
-0.1823 -0.1030 -0.5853 -0.538 -0.811 0.228 113 100 73 0 0
-0.1438 -0.0721 -0.7011 -0.733 -0.671 -0.109 67 62 50 0 0
-0.1454 -0.0731 -0.7017 -0.709 -0.284 0.646 67 61 49 0 0
-0.1803 -0.0950 -0.7090 -0.261 -0.660 0.704 54 45 37 0 0
-0.1818 -0.0926 -0.7699 -0.561 -0.715 -0.417 87 71 42 0 0
-0.1955 -0.0995 -0.8029 -0.772 -0.541 0.334 85 70 45 0 0
-0.0312 -0.0263 -0.1954 -0.928 0.140 0.346 186 163 119 0 0
-0.0345 -0.0281 -0.2008 -0.922 -0.034 0.386 56 41 24 0 0
-0.0382 -0.0303 -0.2045 -0.776 -0.305 0.552 102 89 62 0 0
-0.0382 -0.0301 -0.2075 -0.781 -0.565 0.267 170 156 116 0 0
-0.0406 -0.0314 -0.2115 -0.784 -0.433 0.444 144 129 91 0 0
-0.0322 -0.0237 -0.2542 -0.816 0.071 -0.574 27 25 22 0 0
-0.0706 -0.0462 -0.2915 -0.257 -0.907 0.333 49 40 33 0 0
-0.0705 -0.0460 -0.2931 -0.413 -0.907 0.087 38 34 29 0 0
-0.1379 -0.0830 -0.4019 -0.928 -0.365 -0.070 71 56 35 0 0
-0.1387 -0.0834 -0.4032 -0.836 -0.541 -0.091 77 62 43 0 0
-0.1368 -0.0816 -0.4140 -0.813 -0.562 -0.151 64 49 30 0 0
-0.1362 -0.0810 -0.4177 -0.835 -0.286 0.470 66 53 35 0 0
-0.1380 -0.0818 -0.4234 -0.977 -0.212 -0.005 73 62 44 0 0
-0.1389 -0.0823 -0.4246 -0.918 -0.145 0.368 64 53 35 0 0
-0.1466 -0.0841 -0.4832 -0.816 -0.111 0.567 95 79 62 0 0
-0.1845 -0.1039 -0.5623 -0.532 -0.846 -0.048 104 87 64 0 0
-0.1828 -0.1018 -0.5800 -0.742 -0.561 0.367 132 121 92 0 0
-0.1835 -0.1022 -0.5813 -0.656 -0.730 0.192 144 133 105 0 0
-0.1841 -0.1024 -0.5827 -0.749 -0.652 0.121 140 129 101 0 0
-0.1842 -0.1023 -0.5863 -0.498 -0.735 0.461 103 91 65 0 0
-0.1837 -0.1017 -0.5922 -0.401 -0.916 0.013 106 95 65 0 0
-0.1715 -0.0875 -0.7076 -0.557 -0.469 0.686 49 42 34 0 0
-0.1833 -0.0916 -0.7693 -0.536 -0.706 -0.463 88 73 46 0 0
-0.1968 -0.0984 -0.8024 -0.776 -0.527 0.347 96 83 54 0 0
-0.1983 -0.0993 -0.8030 -0.718 -0.383 0.581 80 66 40 0 0
-0.2159 -0.1086 -0.8380 -0.803 -0.504 0.318 137 123 82 0 0
-0.2163 -0.1087 -0.8418 -0.898 -0.422 0.125 124 108 79 0 0
-0.2168 -0.1089 -0.8435 -0.801 -0.594 0.080 101 86 56 0 0
-0.2175 -0.1091 -0.8471 -0.803 -0.581 0.137 205 189 158 0 0
-0.2181 -0.1095 -0.8486 -0.790 -0.345 0.507 160 143 109 0 0
-0.2182 -0.1086 -0.8641 -0.819 -0.528 0.223 99 92 81 0 0
-0.0344 -0.0262 -0.2009 -0.841 -0.087 0.534 106 89 62 0 0
-0.0394 -0.0291 -0.2074 -0.800 -0.523 0.292 135 120 86 0 0
-0.0403 -0.0295 -0.2102 -0.800 -0.523 0.292 183 167 133 0 0
-0.1394 -0.0839 -0.3708 -0.466 -0.049 0.883 210 195 163 0 0
-0.1373 -0.0802 -0.4141 -0.970 -0.195 -0.144 61 48 31 0 0
-0.1373 -0.0800 -0.4158 -0.833 -0.546 -0.091 61 48 30 0 0
-0.1367 -0.0795 -0.4177 -0.835 -0.286 0.470 58 45 28 0 0
-0.1376 -0.0801 -0.4189 -0.970 -0.120 0.212 60 47 29 0 0
-0.1424 -0.0816 -0.4466 -0.878 -0.309 0.365 55 41 27 0 0
-0.1478 -0.0828 -0.4864 -0.937 -0.155 0.312 100 85 59 0 0
-0.1486 -0.0832 -0.4877 -0.863 -0.249 0.439 104 89 66 0 0
-0.1497 -0.0838 -0.4905 -0.760 -0.093 0.644 102 90 66 0 0
-0.1547 -0.0864 -0.4997 -0.788 -0.213 0.578 110 93 65 0 0
-0.1641 -0.0915 -0.5164 -0.894 -0.179 0.410 115 98 68 0 0
-0.1684 -0.0940 -0.5224 -0.866 -0.167 0.471 137 115 77 0 0
-0.1845 -0.0984 -0.6260 -0.065 -0.995 -0.070 61 52 37 0 0
-0.1842 -0.0981 -0.6282 -0.196 -0.963 -0.183 49 41 26 0 0
-0.1451 -0.0695 -0.6930 -0.878 -0.476 0.043 23 21 14 0 0
-0.1456 -0.0696 -0.6967 -0.747 -0.609 -0.266 49 43 35 0 0
-0.1672 -0.0829 -0.7062 -0.251 -0.187 0.950 51 43 32 0 0
-0.1688 -0.0839 -0.7068 -0.251 -0.187 0.950 45 38 30 0 0
-0.1824 -0.0925 -0.7085 -0.522 -0.068 0.850 50 41 32 0 0
-0.1939 -0.0996 -0.7119 -0.172 -0.262 0.949 126 113 84 0 0
-0.2172 -0.1073 -0.8417 -0.909 -0.410 0.069 122 109 78 0 0
-0.2175 -0.1074 -0.8436 -0.891 -0.438 0.118 96 83 55 0 0
-0.2177 -0.1074 -0.8457 -0.800 -0.545 0.253 122 109 70 0 0
-0.0415 -0.0284 -0.2101 -0.690 -0.621 0.372 115 99 72 0 0
-0.0425 -0.0278 -0.2329 -0.603 -0.701 0.380 76 65 45 0 0
-0.0430 -0.0280 -0.2343 -0.725 -0.618 0.306 79 65 43 0 0
-0.1406 -0.0827 -0.3753 -0.779 -0.355 0.516 83 68 49 0 0
-0.1419 -0.0834 -0.3779 -0.802 -0.345 0.487 57 45 31 0 0
-0.1383 -0.0792 -0.4106 -0.973 0.097 0.209 100 87 70 0 0
-0.1388 -0.0789 -0.4220 -0.998 -0.061 -0.012 54 41 26 0 0
-0.1385 -0.0786 -0.4238 -0.985 -0.146 0.095 62 50 34 0 0
-0.1381 -0.0778 -0.4324 -0.986 0.147 -0.078 40 27 17 0 0
-0.1407 -0.0791 -0.4394 -0.920 -0.042 0.389 64 54 39 0 0
-0.1425 -0.0796 -0.4503 -0.935 -0.301 0.186 73 60 45 0 0
-0.1550 -0.0848 -0.4999 -0.666 -0.369 0.648 110 92 68 0 0
-0.1661 -0.0908 -0.5191 -0.667 -0.488 0.563 118 99 66 0 0
-0.1669 -0.0913 -0.5204 -0.734 -0.148 0.663 129 107 70 0 0
-0.1678 -0.0918 -0.5215 -0.734 -0.148 0.663 135 114 76 0 0
-0.1685 -0.0922 -0.5228 -0.772 -0.320 0.550 132 110 73 0 0
-0.1692 -0.0926 -0.5241 -0.554 -0.592 0.585 132 109 73 0 0
-0.1780 -0.0977 -0.5322 -0.680 -0.496 0.540 106 94 71 0 0
-0.1857 -0.0971 -0.6313 -0.204 -0.957 -0.205 49 42 30 0 0
-0.1475 -0.0690 -0.6937 -0.824 -0.426 0.375 36 32 26 0 0
-0.1487 -0.0697 -0.6947 -0.463 -0.831 0.309 33 28 22 0 0
-0.1499 -0.0704 -0.6957 -0.227 -0.899 0.374 34 27 21 0 0
-0.1683 -0.0817 -0.7059 -0.276 -0.768 0.577 56 48 37 0 0
-0.1697 -0.0825 -0.7067 -0.240 -0.526 0.816 45 37 29 0 0
-0.1813 -0.0899 -0.7082 -0.249 -0.049 0.967 55 46 37 0 0
-0.1834 -0.0912 -0.7083 -0.471 -0.178 0.864 55 46 37 0 0
-0.1889 -0.0947 -0.7092 -0.504 -0.266 0.822 71 63 47 0 0
-0.1829 -0.0869 -0.7777 -0.891 -0.396 0.222 91 75 42 0 0
-0.1873 -0.0890 -0.7904 -0.717 -0.532 0.451 115 100 70 0 0
-0.1884 -0.0897 -0.7914 -0.716 -0.501 0.487 114 100 66 0 0
-0.2210 -0.1066 -0.8627 -0.597 -0.750 0.285 84 80 71 0 0
-0.2211 -0.1065 -0.8648 -0.702 -0.679 0.213 118 114 105 0 0
-0.0469 -0.0283 -0.2427 -0.507 -0.748 0.428 46 37 26 0 0
-0.1400 -0.0805 -0.3759 -0.932 0.060 0.357 83 69 48 0 0
-0.1384 -0.0765 -0.4276 -0.916 -0.217 -0.338 60 51 36 0 0
-0.1381 -0.0762 -0.4294 -0.996 0.085 -0.009 52 41 28 0 0
-0.1430 -0.0781 -0.4504 -0.935 -0.301 0.186 58 45 29 0 0
-0.1431 -0.0781 -0.4521 -0.829 -0.383 0.407 77 64 48 0 0
-0.1407 -0.0752 -0.4759 -0.937 -0.348 -0.011 54 40 29 0 0
-0.1417 -0.0758 -0.4770 -0.837 -0.491 0.242 49 35 25 0 0
-0.1452 -0.0774 -0.4872 -0.546 -0.337 0.767 100 85 64 0 0
-0.1538 -0.0825 -0.4958 -0.831 -0.379 0.408 98 83 63 0 0
-0.1544 -0.0828 -0.4972 -0.831 -0.379 0.408 95 80 58 0 0
-0.1562 -0.0837 -0.5014 -0.857 -0.134 0.497 118 100 75 0 0
-0.1663 -0.0891 -0.5195 -0.815 -0.229 0.533 114 98 69 0 0
-0.1674 -0.0898 -0.5205 -0.779 -0.259 0.571 119 100 71 0 0
-0.1682 -0.0902 -0.5217 -0.779 -0.259 0.571 129 110 79 0 0
-0.1692 -0.0908 -0.5228 -0.804 -0.361 0.473 143 121 86 0 0
-0.1710 -0.0918 -0.5251 -0.613 -0.560 0.558 124 103 73 0 0
-0.1862 -0.0987 -0.5754 -0.751 -0.655 -0.085 93 85 61 0 0
-0.1887 -0.0998 -0.5845 -0.762 -0.558 0.330 136 120 95 0 0
-0.1892 -0.1000 -0.5859 -0.627 -0.694 0.353 125 109 84 0 0
-0.1869 -0.0958 -0.6348 -0.404 -0.905 -0.134 53 44 30 0 0
-0.1861 -0.0951 -0.6374 -0.676 -0.717 -0.170 44 39 27 0 0
-0.1859 -0.0948 -0.6395 -0.676 -0.717 -0.170 36 32 23 0 0
-0.1841 -0.0935 -0.6429 -0.674 -0.655 -0.341 37 33 24 0 0
-0.1711 -0.0815 -0.7061 -0.367 -0.631 0.683 55 48 37 0 0
-0.1900 -0.0935 -0.7090 -0.544 -0.306 0.782 80 71 55 0 0
-0.1882 -0.0877 -0.7903 -0.717 -0.532 0.451 134 115 78 0 0
-0.1889 -0.0880 -0.7917 -0.717 -0.532 0.451 131 114 75 0 0
-0.2108 -0.1006 -0.8179 -0.770 -0.623 0.139 61 50 31 0 0
-0.2235 -0.1060 -0.8653 -0.524 -0.416 0.743 144 141 136 0 0
-0.0478 -0.0271 -0.2411 -0.513 -0.856 0.058 41 30 23 0 0
-0.0481 -0.0272 -0.2426 -0.498 -0.827 0.262 25 20 15 0 0
-0.0570 -0.0320 -0.2587 -0.677 -0.574 -0.462 37 38 38 0 0
-0.0582 -0.0327 -0.2600 -0.919 -0.370 -0.138 34 34 32 0 0
-0.0647 -0.0364 -0.2674 -0.388 -0.568 0.726 111 100 75 0 0
-0.0659 -0.0372 -0.2686 -0.388 -0.568 0.726 112 101 76 0 0
-0.1400 -0.0787 -0.3762 -0.932 0.060 0.357 77 63 40 0 0
-0.1438 -0.0767 -0.4521 -0.829 -0.383 0.407 70 57 40 0 0
-0.1421 -0.0743 -0.4755 -0.837 -0.491 0.242 46 34 24 0 0
-0.1425 -0.0744 -0.4770 -0.837 -0.491 0.242 49 36 26 0 0
-0.1433 -0.0749 -0.4783 -0.822 -0.308 0.479 73 57 40 0 0
-0.1459 -0.0761 -0.4854 -0.808 -0.254 0.532 94 79 55 0 0
-0.1568 -0.0822 -0.5032 -0.651 -0.442 0.618 111 94 66 0 0
-0.1596 -0.0837 -0.5067 -0.756 -0.560 0.338 98 83 59 0 0
-0.1606 -0.0843 -0.5095 -0.821 -0.380 0.427 103 86 59 0 0
-0.1661 -0.0873 -0.5182 -0.853 0.042 0.521 104 92 67 0 0
-0.1677 -0.0881 -0.5208 -0.827 0.043 0.560 108 92 68 0 0
-0.1740 -0.0918 -0.5289 -0.780 -0.406 0.476 135 121 97 0 0
-0.1746 -0.0921 -0.5302 -0.799 -0.384 0.463 134 120 96 0 0
-0.1597 -0.0725 -0.7008 -0.581 -0.428 0.692 74 64 50 0 0
-0.1710 -0.0795 -0.7049 -0.363 -0.725 0.586 59 51 39 0 0
-0.1719 -0.0800 -0.7061 -0.387 -0.792 0.473 65 58 45 0 0
-0.1730 -0.0807 -0.7072 -0.523 -0.764 0.377 48 41 31 0 0
-0.1746 -0.0817 -0.7077 -0.342 -0.514 0.787 40 33 24 0 0
-0.1986 -0.0970 -0.7116 -0.374 -0.785 0.493 143 124 88 0 0
-0.1993 -0.0973 -0.7130 -0.381 -0.782 0.494 135 117 76 0 0
-0.2124 -0.0999 -0.8148 -0.804 -0.522 0.285 66 54 35 0 0
-0.2129 -0.1001 -0.8165 -0.804 -0.522 0.285 57 45 27 0 0
-0.2205 -0.1032 -0.8474 -0.930 -0.191 0.313 111 99 65 0 0
-0.2230 -0.1044 -0.8534 -0.728 -0.487 0.483 91 85 60 0 0
-0.2241 -0.1045 -0.8655 -0.581 -0.510 0.634 141 137 133 0 0
-0.0585 -0.0316 -0.2507 -0.443 -0.628 0.640 74 64 52 0 0
-0.0598 -0.0321 -0.2566 -0.461 -0.722 -0.516 17 16 12 0 0
-0.0592 -0.0316 -0.2583 -0.474 -0.820 -0.320 15 15 15 0 0
-0.0650 -0.0349 -0.2659 -0.650 -0.433 0.625 132 121 101 0 0
-0.0659 -0.0354 -0.2672 -0.650 -0.433 0.625 105 94 69 0 0
-0.1123 -0.0603 -0.3551 -0.782 -0.623 0.015 52 46 35 0 0
-0.1321 -0.0723 -0.3689 -0.375 0.183 0.909 119 107 86 0 0
-0.1369 -0.0737 -0.3975 -0.855 0.105 0.508 66 53 37 0 0
-0.1421 -0.0743 -0.4432 -0.529 0.024 0.848 117 104 87 0 0
-0.1450 -0.0760 -0.4466 -0.839 -0.404 0.365 63 51 35 0 0
-0.1455 -0.0763 -0.4481 -0.839 -0.404 0.365 49 35 22 0 0
-0.1449 -0.0756 -0.4519 -0.839 -0.541 0.065 85 72 55 0 0
-0.1450 -0.0756 -0.4535 -0.868 -0.416 0.270 71 58 41 0 0
-0.1432 -0.0730 -0.4770 -0.897 -0.216 0.386 25 15 10 0 0
-0.1437 -0.0733 -0.4784 -0.897 -0.216 0.386 54 43 31 0 0
-0.1465 -0.0747 -0.4855 -0.788 -0.273 0.553 77 63 42 0 0
-0.1581 -0.0812 -0.5028 -0.820 -0.153 0.552 109 93 68 0 0
-0.1621 -0.0833 -0.5108 -0.589 -0.641 0.492 99 84 63 0 0
-0.1624 -0.0833 -0.5141 -0.837 -0.087 0.540 91 79 57 0 0
-0.1663 -0.0855 -0.5186 -0.853 0.042 0.521 85 74 56 0 0
-0.1860 -0.0973 -0.5352 -0.674 -0.419 0.609 123 108 86 0 0
-0.1882 -0.0985 -0.5389 -0.629 -0.637 0.445 120 102 78 0 0
-0.1887 -0.0988 -0.5403 -0.393 -0.649 0.652 122 108 84 0 0
-0.1917 -0.0980 -0.5869 -0.587 -0.801 0.119 138 123 96 0 0
-0.1928 -0.0985 -0.5898 -0.330 -0.919 0.215 126 111 83 0 0
-0.1633 -0.0728 -0.7024 -0.428 -0.358 0.830 47 37 28 0 0
-0.1723 -0.0785 -0.7044 -0.363 -0.725 0.586 65 57 46 0 0
-0.1732 -0.0790 -0.7056 -0.413 -0.740 0.532 62 53 43 0 0
-0.1744 -0.0797 -0.7066 -0.521 -0.760 0.388 58 50 40 0 0
-0.1911 -0.0904 -0.7093 -0.575 -0.250 0.779 86 75 56 0 0
-0.2009 -0.0965 -0.7122 -0.286 -0.916 0.281 157 137 100 0 0
-0.1858 -0.0824 -0.7858 -0.907 -0.414 0.077 103 85 46 0 0
-0.2133 -0.0984 -0.8169 -0.794 -0.410 0.450 64 51 34 0 0
-0.2210 -0.1017 -0.8455 -0.651 -0.742 -0.159 79 71 43 0 0
-0.2210 -0.1015 -0.8477 -0.930 -0.191 0.313 82 72 44 0 0
-0.2214 -0.1017 -0.8495 -0.882 -0.110 0.458 99 86 54 0 0
-0.2225 -0.1023 -0.8505 -0.671 -0.046 0.740 103 88 52 0 0
-0.2233 -0.1026 -0.8540 -0.843 -0.375 0.385 86 79 53 0 0
-0.2238 -0.1028 -0.8556 -0.761 -0.587 0.274 54 50 37 0 0
-0.2232 -0.1018 -0.8675 -0.715 -0.697 -0.059 139 134 129 0 0
-0.0518 -0.0258 -0.2434 -0.185 -0.791 0.583 26 22 18 0 0
-0.0517 -0.0257 -0.2450 0.014 -0.896 0.443 41 34 27 0 0
-0.0540 -0.0271 -0.2474 0.176 -0.911 0.373 90 82 70 0 0
-0.0603 -0.0310 -0.2503 -0.327 -0.867 0.376 99 86 67 0 0
-0.0609 -0.0313 -0.2517 -0.358 -0.929 0.097 103 91 73 0 0
-0.0606 -0.0310 -0.2534 -0.512 -0.838 0.189 85 75 61 0 0
-0.0606 -0.0309 -0.2549 -0.572 -0.796 -0.198 69 62 50 0 0
-0.0607 -0.0309 -0.2564 -0.479 -0.874 -0.077 34 30 21 0 0
-0.0604 -0.0305 -0.2581 -0.487 -0.816 -0.311 13 12 10 0 0
-0.0650 -0.0331 -0.2645 -0.619 -0.699 0.359 100 90 73 0 0
-0.1131 -0.0590 -0.3551 -0.645 -0.757 -0.102 61 54 44 0 0
-0.1117 -0.0572 -0.3703 -0.548 -0.695 0.466 65 60 48 0 0
-0.1436 -0.0734 -0.4445 -0.623 -0.042 0.781 117 102 80 0 0
-0.1451 -0.0740 -0.4521 -0.829 -0.546 0.121 83 70 53 0 0
-0.1454 -0.0741 -0.4536 -0.765 -0.589 0.261 72 59 43 0 0
-0.1436 -0.0719 -0.4702 -0.985 -0.117 -0.129 44 31 22 0 0
-0.1585 -0.0796 -0.5030 -0.831 -0.177 0.527 111 97 76 0 0
-0.1596 -0.0802 -0.5041 -0.709 -0.373 0.599 98 85 59 0 0
-0.1872 -0.0963 -0.5349 -0.582 -0.769 0.264 123 112 91 0 0
-0.1874 -0.0964 -0.5365 -0.652 -0.644 0.400 163 152 129 0 0
-0.1949 -0.0980 -0.5905 -0.518 -0.814 0.263 117 102 76 0 0
-0.1968 -0.0992 -0.5909 -0.702 -0.629 0.333 105 91 64 0 0
-0.1973 -0.0994 -0.5924 -0.606 -0.627 0.490 182 168 138 0 0
-0.1727 -0.0767 -0.7048 -0.588 -0.293 0.754 73 65 54 0 0
-0.1999 -0.0941 -0.7098 -0.489 -0.742 0.458 103 89 63 0 0
-0.1876 -0.0823 -0.7741 -0.627 -0.667 0.402 92 76 41 0 0
-0.2145 -0.0966 -0.8253 -0.716 -0.579 0.391 56 42 26 0 0
-0.2230 -0.1015 -0.8375 -0.794 -0.584 0.172 114 100 64 0 0
-0.2218 -0.1000 -0.8500 -0.824 -0.451 0.342 120 107 79 0 0
-0.2225 -0.1003 -0.8514 -0.667 -0.389 0.636 102 88 55 0 0
-0.2233 -0.1008 -0.8527 -0.620 -0.329 0.712 107 94 61 0 0
-0.2235 -0.1007 -0.8547 -0.761 -0.525 0.381 86 76 52 0 0
-0.2245 -0.1013 -0.8558 -0.672 -0.636 0.380 59 52 39 0 0
-0.0386 -0.0175 -0.2098 -0.865 -0.266 0.426 172 152 114 0 0
-0.0445 -0.0203 -0.2269 -0.718 -0.591 0.368 86 72 46 0 0
-0.0525 -0.0246 -0.2418 -0.004 -0.577 0.817 21 17 11 0 0
-0.0533 -0.0250 -0.2432 -0.271 -0.764 0.586 60 51 42 0 0
-0.0541 -0.0254 -0.2445 -0.254 -0.857 0.448 89 79 63 0 0
-0.0549 -0.0259 -0.2458 -0.157 -0.896 0.416 91 80 61 0 0
-0.1115 -0.0554 -0.3674 -0.668 -0.652 0.359 47 40 29 0 0
-0.1121 -0.0557 -0.3688 -0.668 -0.652 0.359 61 55 43 0 0
-0.1129 -0.0561 -0.3701 -0.548 -0.695 0.466 58 53 41 0 0
-0.1140 -0.0568 -0.3713 -0.532 -0.365 0.764 70 65 53 0 0
-0.1165 -0.0584 -0.3718 -0.058 -0.472 0.879 71 62 53 0 0
-0.1359 -0.0689 -0.4069 -0.982 0.191 0.014 42 32 24 0 0
-0.1429 -0.0692 -0.4763 -0.818 -0.058 0.572 33 27 20 0 0
-0.1438 -0.0698 -0.4775 -0.814 -0.165 0.557 34 27 21 0 0
-0.1605 -0.0787 -0.5092 -0.804 -0.073 0.590 75 61 51 0 0
-0.1715 -0.0850 -0.5232 -0.838 -0.336 0.430 112 100 84 0 0
-0.1839 -0.0927 -0.5288 -0.164 -0.756 0.634 123 110 96 0 0
-0.1849 -0.0934 -0.5298 -0.164 -0.756 0.634 126 113 95 0 0
-0.1879 -0.0951 -0.5330 -0.582 -0.769 0.264 117 105 79 0 0
-0.1883 -0.0953 -0.5345 -0.582 -0.769 0.264 115 103 80 0 0
-0.1896 -0.0960 -0.5371 -0.449 -0.723 0.525 132 117 91 0 0
-0.1976 -0.0981 -0.5872 -0.572 -0.800 -0.180 135 120 92 0 0
-0.1978 -0.0980 -0.5907 -0.780 -0.540 0.316 108 94 68 0 0
-0.1868 -0.0837 -0.7088 -0.308 -0.138 0.941 42 35 27 0 0
-0.2240 -0.1001 -0.8373 -0.794 -0.584 0.172 131 117 76 0 0
-0.2235 -0.0990 -0.8513 -0.585 -0.728 0.358 84 71 42 0 0
0.0069 0.0121 -0.1779 -0.734 0.502 0.457 177 177 177 0 0
-0.0455 -0.0186 -0.2345 -0.736 -0.434 0.519 63 53 36 0 0
-0.0449 -0.0181 -0.2378 -0.703 -0.698 0.138 45 39 32 0 0
-0.0502 -0.0214 -0.2395 -0.372 -0.321 0.871 27 20 16 0 0
-0.1129 -0.0546 -0.3655 -0.452 -0.885 0.110 36 27 18 0 0
-0.1400 -0.0675 -0.4438 -0.640 0.027 0.768 114 99 81 0 0
-0.1415 -0.0684 -0.4447 -0.661 0.022 0.750 111 97 79 0 0
-0.1441 -0.0680 -0.4778 -0.818 -0.058 0.572 58 48 38 0 0
-0.1869 -0.0929 -0.5290 -0.081 -0.820 0.567 133 123 99 0 0
-0.1900 -0.0946 -0.5338 -0.275 -0.923 0.269 125 113 88 0 0
-0.1905 -0.0949 -0.5352 -0.275 -0.923 0.269 137 123 96 0 0
-0.1917 -0.0955 -0.5379 -0.556 -0.621 0.552 122 108 84 0 0
-0.1953 -0.0959 -0.5694 -0.606 -0.795 0.000 114 101 72 0 0
-0.1993 -0.0971 -0.5919 -0.504 -0.773 0.385 110 99 71 0 0
-0.1992 -0.0970 -0.5938 -0.556 -0.570 0.604 185 174 145 0 0
-0.2251 -0.0988 -0.8392 -0.835 -0.519 0.182 142 127 82 0 0
-0.0918 -0.0436 -0.2909 -0.428 -0.727 0.537 106 96 81 0 0
-0.0922 -0.0438 -0.2923 -0.400 -0.753 0.522 68 57 44 0 0
-0.1351 -0.0650 -0.4030 -0.990 0.023 -0.136 46 36 26 0 0
-0.1403 -0.0658 -0.4441 -0.640 0.027 0.768 109 95 70 0 0
-0.1585 -0.0739 -0.5062 -0.812 -0.093 0.576 68 55 44 0 0
-0.2006 -0.0962 -0.5914 -0.424 -0.687 0.591 118 105 75 0 0
-0.2004 -0.0959 -0.5934 -0.691 -0.474 0.545 149 137 107 0 0
-0.1736 -0.0716 -0.7020 -0.355 -0.689 0.631 89 83 70 0 0
-0.1746 -0.0722 -0.7032 -0.319 -0.564 0.762 98 90 76 0 0
-0.2032 -0.0905 -0.7090 -0.815 -0.469 0.340 107 91 65 0 0
-0.2130 -0.0909 -0.8078 -0.749 -0.570 0.339 103 88 59 0 0
-0.2193 -0.0938 -0.8270 -0.782 -0.590 0.203 56 48 31 0 0
-0.2266 -0.0969 -0.8539 -0.664 -0.562 0.493 73 59 39 0 0
-0.2275 -0.0974 -0.8551 -0.795 -0.364 0.485 47 38 25 0 0
0.0030 0.0139 -0.1868 -0.677 0.608 0.416 177 177 175 0 0
-0.0932 -0.0427 -0.2906 -0.643 -0.695 0.321 136 121 98 0 0
-0.0935 -0.0428 -0.2920 -0.568 -0.659 0.493 120 105 85 0 0
-0.0943 -0.0432 -0.2933 -0.508 -0.790 0.345 85 70 50 0 0
-0.1447 -0.0663 -0.4539 -0.951 0.300 0.079 36 31 25 0 0
-0.1568 -0.0710 -0.5042 -0.820 -0.010 0.572 60 50 39 0 0
-0.1576 -0.0715 -0.5054 -0.820 -0.010 0.572 60 50 41 0 0
-0.1604 -0.0728 -0.5142 -0.931 0.137 0.337 21 20 20 0 0
-0.1984 -0.0938 -0.5772 -0.748 -0.520 0.413 115 99 71 0 0
-0.1990 -0.0941 -0.5786 -0.872 -0.235 0.430 109 92 64 0 0
-0.2034 -0.0966 -0.5843 -0.482 -0.405 0.777 137 123 94 0 0
-0.2036 -0.0889 -0.7092 -0.927 -0.214 0.307 110 93 63 0 0
-0.2110 -0.0882 -0.7980 -0.707 -0.505 0.495 137 124 81 0 0
-0.2124 -0.0886 -0.8051 -0.783 -0.431 0.448 132 117 83 0 0
-0.2129 -0.0889 -0.8067 -0.841 -0.453 0.294 98 83 57 0 0
-0.2202 -0.0924 -0.8269 -0.830 -0.545 0.116 62 54 34 0 0
-0.2255 -0.0946 -0.8473 -0.670 -0.721 0.177 87 78 54 0 0
-0.2259 -0.0947 -0.8491 -0.670 -0.721 0.177 76 66 39 0 0
-0.2275 -0.0955 -0.8538 -0.601 -0.621 0.504 68 54 35 0 0
-0.2283 -0.0960 -0.8551 -0.786 -0.343 0.514 43 34 24 0 0
-0.2295 -0.0965 -0.8582 -0.928 -0.362 0.091 31 26 23 0 0
-0.0771 -0.0323 -0.2587 -0.610 -0.459 0.647 127 110 85 0 0
-0.0951 -0.0422 -0.2901 -0.276 -0.806 0.523 143 125 99 0 0
-0.0958 -0.0425 -0.2915 -0.304 -0.783 0.543 125 109 83 0 0
-0.0967 -0.0431 -0.2927 -0.304 -0.783 0.543 79 65 41 0 0
-0.1059 -0.0482 -0.3066 -0.444 -0.737 0.510 120 105 78 0 0
-0.1378 -0.0607 -0.4411 -0.616 -0.122 0.778 86 75 60 0 0
-0.1485 -0.0647 -0.4886 -0.725 -0.469 0.505 86 75 58 0 0
-0.1493 -0.0652 -0.4899 -0.693 -0.521 0.499 83 71 57 0 0
-0.1583 -0.0699 -0.5090 -0.966 0.132 0.223 23 21 19 0 0
-0.1587 -0.0700 -0.5105 -0.968 0.103 0.227 22 19 18 0 0
-0.1589 -0.0701 -0.5122 -0.845 0.258 0.469 24 23 21 0 0
-0.1997 -0.0928 -0.5768 -0.894 -0.449 -0.017 108 90 64 0 0
-0.2005 -0.0931 -0.5816 -0.801 -0.567 0.193 137 120 89 0 0
-0.2041 -0.0946 -0.5935 -0.528 -0.804 0.273 158 145 108 0 0
-0.2072 -0.0964 -0.5983 -0.701 -0.547 0.458 119 104 70 0 0
-0.2030 -0.0818 -0.7837 -0.409 -0.913 0.014 120 103 70 0 0
-0.2286 -0.0943 -0.8535 -0.603 -0.594 0.533 67 55 37 0 0
-0.2295 -0.0948 -0.8546 -0.780 -0.512 0.359 40 32 24 0 0
-0.0969 -0.0416 -0.2897 -0.579 -0.784 0.225 140 122 93 0 0
-0.0976 -0.0420 -0.2910 -0.477 -0.725 0.498 151 135 105 0 0
-0.0978 -0.0420 -0.2925 -0.492 -0.664 0.563 84 71 47 0 0
-0.0988 -0.0426 -0.2938 -0.271 -0.920 0.283 126 111 85 0 0
-0.1443 -0.0606 -0.4811 -0.740 -0.107 0.665 67 57 47 0 0
-0.1491 -0.0632 -0.4887 -0.787 -0.300 0.539 51 42 30 0 0
-0.1504 -0.0639 -0.4915 -0.731 -0.312 0.608 37 26 19 0 0
-0.1513 -0.0644 -0.4927 -0.664 -0.262 0.700 33 23 16 0 0
-0.1593 -0.0690 -0.5035 -0.938 0.020 0.347 35 30 27 0 0
-0.1586 -0.0685 -0.5057 -0.807 0.121 0.578 29 25 21 0 0
-0.1586 -0.0683 -0.5075 -0.765 -0.293 0.573 22 21 18 0 0
-0.1594 -0.0688 -0.5087 -0.765 -0.293 0.573 18 17 15 0 0
-0.1602 -0.0692 -0.5100 -0.765 -0.293 0.573 19 18 16 0 0
-0.2019 -0.0922 -0.5811 -0.801 -0.463 0.380 148 131 102 0 0
-0.2105 -0.0834 -0.8046 -0.651 -0.699 0.294 84 74 43 0 0
-0.2235 -0.0905 -0.8294 -0.954 -0.273 0.125 74 59 32 0 0
-0.2288 -0.0924 -0.8542 -0.804 -0.315 0.505 54 45 30 0 0
-0.2299 -0.0930 -0.8552 -0.814 -0.531 0.236 32 26 20 0 0
-0.1376 -0.0558 -0.4575 -0.817 0.571 -0.079 12 10 9 0 0
-0.1363 -0.0548 -0.4599 -0.803 0.574 -0.163 46 41 39 0 0
-0.1352 -0.0539 -0.4623 -0.803 0.574 -0.163 24 19 16 0 0
-0.1510 -0.0625 -0.4915 -0.731 -0.312 0.608 64 53 47 0 0
-0.1518 -0.0629 -0.4928 -0.638 -0.251 0.728 59 49 41 0 0
-0.1594 -0.0671 -0.5056 -0.814 0.257 0.521 30 26 23 0 0
-0.1593 -0.0669 -0.5075 -0.752 -0.249 0.610 18 16 14 0 0
-0.2139 -0.1003 -0.5507 -0.438 -0.897 0.058 121 107 81 0 0
-0.2133 -0.0960 -0.6112 -0.597 -0.787 0.156 142 128 89 0 0
-0.2104 -0.0930 -0.6269 -0.536 -0.791 -0.296 142 124 87 0 0
-0.2101 -0.0926 -0.6290 -0.480 -0.843 -0.244 140 122 88 0 0
-0.1845 -0.0726 -0.6768 -0.321 -0.867 -0.382 61 53 42 0 0
-0.2175 -0.0903 -0.7407 -0.472 -0.772 -0.426 104 86 54 0 0
-0.2125 -0.0832 -0.7989 -0.816 -0.430 0.388 92 77 42 0 0
-0.2315 -0.0915 -0.8654 -0.923 -0.168 0.346 104 99 90 0 0
-0.1267 -0.0534 -0.3562 -0.555 -0.770 -0.316 40 32 23 0 0
-0.1356 -0.0527 -0.4556 -0.768 0.631 0.108 8 7 5 0 0
-0.1353 -0.0524 -0.4574 -0.781 0.624 0.034 8 7 5 0 0
-0.1349 -0.0520 -0.4594 -0.822 0.548 -0.155 13 10 9 0 0
-0.1591 -0.0650 -0.5063 -0.907 0.151 0.393 15 14 12 0 0
-0.2124 -0.0943 -0.5996 -0.355 -0.719 0.598 125 109 75 0 0
-0.2126 -0.0928 -0.6237 -0.637 -0.747 -0.191 131 115 81 0 0
-0.2121 -0.0923 -0.6260 -0.662 -0.665 -0.346 136 120 85 0 0
-0.2116 -0.0919 -0.6283 -0.593 -0.755 -0.278 146 131 92 0 0
-0.2112 -0.0914 -0.6306 -0.566 -0.801 -0.196 149 133 96 0 0
-0.2231 -0.0934 -0.7196 -0.643 -0.661 0.388 91 78 46 0 0
-0.2217 -0.0916 -0.7332 -0.635 -0.698 -0.331 131 112 74 0 0
-0.2109 -0.0801 -0.7994 -0.739 -0.564 0.369 102 87 48 0 0
-0.2137 -0.0816 -0.8050 -0.468 -0.663 0.584 110 94 61 0 0
-0.2305 -0.0909 -0.8341 -0.797 -0.546 0.257 149 129 78 0 0
-0.2340 -0.0909 -0.8680 -0.565 -0.814 -0.133 166 162 161 0 0
-0.2333 -0.0902 -0.8711 -0.781 -0.578 -0.236 179 176 177 0 0
-0.0668 -0.0197 -0.2361 -0.439 -0.897 0.054 125 110 88 0 0
-0.0752 -0.0245 -0.2475 -0.741 -0.434 0.512 91 74 52 0 0
-0.0758 -0.0248 -0.2489 -0.660 -0.635 0.402 53 39 22 0 0
-0.1323 -0.0485 -0.4578 -0.754 0.648 0.107 8 7 5 0 0
-0.1322 -0.0484 -0.4596 -0.803 0.595 -0.028 9 6 7 0 0
-0.1961 -0.0879 -0.5050 -0.114 -0.881 0.459 43 38 27 0 0
-0.2130 -0.0910 -0.6278 -0.593 -0.755 -0.278 130 115 80 0 0
-0.2125 -0.0905 -0.6301 -0.671 -0.714 -0.202 133 119 83 0 0
-0.2062 -0.0775 -0.7624 -0.569 -0.560 -0.602 59 43 21 0 0
-0.2121 -0.0790 -0.7989 -0.672 -0.560 0.485 172 156 110 0 0
-0.2262 -0.0865 -0.8269 -0.905 -0.322 0.277 87 71 40 0 0
-0.0689 -0.0193 -0.2356 -0.251 -0.821 0.513 135 121 97 0 0
-0.0752 -0.0228 -0.2462 -0.751 -0.355 0.557 118 104 83 0 0
-0.0754 -0.0228 -0.2477 -0.723 -0.327 0.609 37 27 17 0 0
-0.0765 -0.0235 -0.2489 -0.575 -0.605 0.551 17 14 3 0 0
-0.1236 -0.0499 -0.3231 -0.629 -0.720 0.293 131 117 95 0 0
-0.1578 -0.0606 -0.5045 -0.745 -0.562 0.359 34 30 26 0 0
-0.1906 -0.0826 -0.5023 -0.977 -0.162 -0.138 13 10 12 0 0
-0.1902 -0.0821 -0.5060 0.513 -0.760 0.400 21 18 15 0 0
-0.1969 -0.0867 -0.5032 -0.359 -0.730 0.582 52 45 35 0 0
-0.1979 -0.0737 -0.7070 -0.593 -0.688 0.417 102 87 68 0 0
-0.2096 -0.0811 -0.7121 -0.292 -0.127 0.948 94 78 52 0 0
-0.2253 -0.0912 -0.7189 -0.614 -0.538 0.577 115 100 68 0 0
-0.2152 -0.0788 -0.8030 -0.828 -0.296 0.477 149 138 96 0 0
-0.2275 -0.0857 -0.8219 -0.857 -0.386 0.342 95 83 56 0 0
-0.2323 -0.0864 -0.8585 -0.862 -0.194 0.468 21 21 19 0 0
-0.1134 -0.0430 -0.2990 -0.784 -0.383 0.489 189 173 143 0 0
-0.1141 -0.0433 -0.3003 -0.784 -0.383 0.489 191 176 143 0 0
-0.1244 -0.0406 -0.4421 -0.747 -0.654 -0.118 42 39 34 0 0
-0.1244 -0.0404 -0.4438 -0.723 -0.689 -0.040 39 36 32 0 0
-0.1242 -0.0402 -0.4456 -0.703 -0.703 -0.108 30 26 24 0 0
-0.1299 -0.0421 -0.4741 -0.501 -0.372 0.782 30 25 22 0 0
-0.1339 -0.0444 -0.4788 -0.359 -0.727 0.586 40 32 29 0 0
-0.1485 -0.0533 -0.4931 -0.865 -0.089 0.495 61 53 42 0 0
-0.1910 -0.0810 -0.5042 -0.162 -0.904 0.395 24 18 15 0 0
-0.2181 -0.0973 -0.5304 -0.609 -0.701 0.372 103 87 60 0 0
-0.1997 -0.0731 -0.7040 -0.802 -0.597 0.026 99 88 69 0 0
-0.1999 -0.0731 -0.7059 -0.761 -0.636 0.127 104 89 71 0 0
-0.2097 -0.0793 -0.7127 -0.418 -0.264 0.869 102 86 59 0 0
-0.2129 -0.0785 -0.7550 -0.549 -0.537 -0.641 64 49 24 0 0
-0.2106 -0.0767 -0.7594 -0.634 -0.438 -0.637 64 49 26 0 0
-0.2198 -0.0796 -0.8075 -0.637 -0.661 0.397 47 31 16 0 0
-0.2189 -0.0787 -0.8107 -0.819 -0.554 -0.152 46 29 13 0 0
-0.2251 -0.0823 -0.8190 -0.413 -0.328 0.849 81 57 30 0 0
-0.2282 -0.0842 -0.8220 -0.857 -0.386 0.342 87 75 50 0 0
-0.2326 -0.0864 -0.8324 -0.693 -0.473 0.545 146 128 81 0 0
-0.2387 -0.0879 -0.8697 -0.219 -0.974 0.059 187 185 187 0 0
-0.1088 -0.0386 -0.2915 -0.719 -0.545 0.432 185 169 136 0 0
-0.1291 -0.0492 -0.3355 -0.580 -0.548 0.603 72 63 49 0 0
-0.1289 -0.0465 -0.3727 -0.710 -0.569 0.416 44 35 27 0 0
-0.1294 -0.0434 -0.4226 -0.897 -0.433 0.093 37 30 20 0 0
-0.1256 -0.0395 -0.4418 -0.703 -0.703 -0.108 38 34 30 0 0
-0.1305 -0.0406 -0.4742 -0.619 -0.283 0.733 49 44 40 0 0
-0.1374 -0.0447 -0.4808 -0.407 -0.573 0.711 69 60 55 0 0
-0.1909 -0.0793 -0.5013 -0.213 -0.944 0.251 17 13 10 0 0
-0.2048 -0.0884 -0.5040 -0.045 -0.678 0.734 120 106 80 0 0
-0.2008 -0.0718 -0.7057 -0.829 -0.547 0.121 88 74 54 0 0
-0.2028 -0.0729 -0.7099 -0.698 -0.683 0.214 69 57 38 0 0
-0.2041 -0.0737 -0.7107 -0.457 -0.567 0.685 86 74 54 0 0
-0.2284 -0.0891 -0.7234 -0.837 -0.507 0.207 125 110 78 0 0
-0.2019 -0.0679 -0.7736 -0.719 -0.406 -0.564 60 45 21 0 0
-0.1992 -0.0657 -0.7787 -0.785 -0.385 -0.486 52 35 14 0 0
-0.2237 -0.0794 -0.8193 -0.376 -0.848 0.375 71 46 25 0 0
-0.2274 -0.0820 -0.8173 -0.977 -0.212 0.003 78 58 30 0 0
-0.2275 -0.0819 -0.8194 -0.977 -0.212 0.003 105 90 59 0 0
-0.2285 -0.0824 -0.8226 -0.913 -0.344 0.220 73 62 38 0 0
-0.2334 -0.0850 -0.8323 -0.693 -0.473 0.545 139 119 74 0 0
-0.2390 -0.0858 -0.8749 -0.782 -0.430 0.451 193 191 192 0 0
-0.0905 -0.0269 -0.2575 -0.695 -0.614 0.373 133 117 88 0 0
-0.1306 -0.0423 -0.4240 -0.888 -0.413 0.201 33 26 18 0 0
-0.1253 -0.0358 -0.4652 -0.289 -0.745 0.602 25 21 21 0 0
-0.1324 -0.0399 -0.4752 -0.549 -0.291 0.784 42 36 33 0 0
-0.1378 -0.0431 -0.4809 -0.835 -0.295 0.465 54 45 40 0 0
-0.1389 -0.0438 -0.4821 -0.768 -0.128 0.628 67 58 52 0 0
-0.1968 -0.0819 -0.4944 0.135 -0.792 0.595 11 9 5 0 0
-0.1924 -0.0786 -0.4990 -0.185 -0.972 0.143 33 27 23 0 0
-0.2185 -0.0947 -0.5207 -0.786 -0.462 0.411 171 159 123 0 0
-0.2191 -0.0950 -0.5220 -0.795 -0.452 0.404 166 151 124 0 0
-0.2199 -0.0951 -0.5284 -0.794 -0.553 0.252 99 85 59 0 0
-0.2204 -0.0953 -0.5297 -0.768 -0.554 0.320 103 89 63 0 0
-0.2233 -0.0965 -0.5415 -0.482 -0.776 0.406 138 123 88 0 0
-0.2238 -0.0967 -0.5429 -0.497 -0.860 0.117 133 118 79 0 0
-0.2239 -0.0966 -0.5446 -0.852 -0.332 0.405 142 127 91 0 0
-0.2244 -0.0969 -0.5460 -0.852 -0.332 0.405 133 119 85 0 0
-0.2238 -0.0963 -0.5482 -0.591 -0.743 0.315 146 134 97 0 0
-0.2196 -0.0899 -0.6003 -0.650 -0.683 0.331 96 79 48 0 0
-0.2204 -0.0903 -0.6015 -0.708 -0.479 0.519 90 73 45 0 0
-0.2202 -0.0895 -0.6110 -0.822 -0.512 0.249 131 116 84 0 0
-0.1968 -0.0697 -0.6699 -0.760 -0.561 -0.328 61 52 41 0 0
-0.1959 -0.0689 -0.6727 -0.701 -0.629 -0.336 74 65 49 0 0
-0.2052 -0.0725 -0.7105 -0.457 -0.567 0.685 92 79 59 0 0
-0.2237 -0.0845 -0.7167 -0.499 -0.399 0.769 135 117 72 0 0
-0.2248 -0.0852 -0.7177 -0.419 -0.446 0.791 149 129 81 0 0
-0.2292 -0.0878 -0.7234 -0.816 -0.550 0.178 115 99 66 0 0
-0.2061 -0.0691 -0.7680 -0.723 -0.343 -0.600 66 50 25 0 0
-0.2343 -0.0836 -0.8322 -0.693 -0.473 0.545 139 120 78 0 0
-0.0795 -0.0186 -0.2441 -0.641 -0.664 0.385 95 78 52 0 0
-0.1244 -0.0438 -0.3159 -0.628 -0.639 0.444 78 65 46 0 0
-0.1328 -0.0480 -0.3361 -0.721 -0.433 0.541 163 155 136 0 0
-0.1362 -0.0492 -0.3522 -0.796 -0.593 0.121 69 59 43 0 0
-0.1303 -0.0411 -0.4109 -0.928 -0.343 0.144 39 30 21 0 0
-0.1306 -0.0412 -0.4125 -0.934 -0.347 0.086 36 27 18 0 0
-0.1253 -0.0344 -0.4585 -0.686 -0.728 -0.005 12 8 5 0 0
-0.1241 -0.0334 -0.4610 -0.891 -0.234 0.390 12 8 5 0 0
-0.1304 -0.0368 -0.4733 -0.955 -0.131 0.268 29 25 22 0 0
-0.1330 -0.0384 -0.4753 -0.591 -0.276 0.758 41 36 33 0 0
-0.1384 -0.0416 -0.4810 -0.835 -0.295 0.465 56 47 44 0 0
-0.1391 -0.0420 -0.4824 -0.835 -0.295 0.465 52 44 39 0 0
-0.1994 -0.0821 -0.4914 -0.963 -0.263 -0.065 16 13 10 0 0
-0.2192 -0.0935 -0.5189 -0.928 -0.323 0.187 153 145 115 0 0
-0.2195 -0.0936 -0.5204 -0.928 -0.323 0.187 156 145 110 0 0
-0.2218 -0.0946 -0.5292 -0.687 -0.696 0.207 96 82 56 0 0
-0.2230 -0.0952 -0.5318 -0.755 -0.470 0.457 113 99 72 0 0
-0.2237 -0.0956 -0.5330 -0.751 -0.505 0.425 107 93 65 0 0
-0.2111 -0.0836 -0.5821 -0.787 -0.448 0.423 51 37 20 0 0
-0.2119 -0.0841 -0.5832 -0.633 -0.335 0.698 64 49 27 0 0
-0.2129 -0.0846 -0.5843 -0.709 -0.234 0.665 85 70 47 0 0
-0.2147 -0.0856 -0.5883 -0.655 -0.348 0.671 85 69 52 0 0
-0.2207 -0.0880 -0.6112 -0.880 -0.365 0.303 128 113 83 0 0
-0.2218 -0.0884 -0.6158 -0.921 -0.375 0.108 124 109 77 0 0
-0.2172 -0.0839 -0.6369 -0.837 -0.431 -0.337 122 103 71 0 0
-0.1962 -0.0664 -0.6831 -0.841 -0.494 0.220 68 56 33 0 0
-0.1985 -0.0675 -0.6891 -0.650 -0.537 0.537 93 82 62 0 0
-0.2005 -0.0689 -0.6893 -0.902 -0.330 0.278 76 64 47 0 0
-0.2015 -0.0694 -0.6923 -0.991 -0.110 0.073 74 62 44 0 0
-0.2256 -0.0839 -0.7175 -0.445 -0.513 0.734 161 138 89 0 0
-0.2299 -0.0865 -0.7214 -0.855 -0.461 0.240 103 87 56 0 0
-0.2293 -0.0795 -0.8147 -0.933 -0.322 -0.159 83 61 35 0 0
-0.2352 -0.0823 -0.8321 -0.730 -0.293 0.617 143 124 82 0 0
-0.2359 -0.0823 -0.8379 -0.747 -0.640 0.180 159 142 93 0 0
-0.1313 -0.0455 -0.3323 -0.802 -0.540 0.255 39 30 19 0 0
-0.1321 -0.0434 -0.3689 -0.580 -0.575 -0.577 40 31 22 0 0
-0.1255 -0.0328 -0.4553 -0.848 -0.521 0.094 15 11 8 0 0
-0.1257 -0.0328 -0.4569 -0.848 -0.521 0.094 14 10 7 0 0
-0.1259 -0.0329 -0.4586 -0.848 -0.521 0.094 14 10 7 0 0
-0.1263 -0.0330 -0.4602 -0.658 -0.740 -0.140 14 10 7 0 0
-0.1260 -0.0325 -0.4639 -0.809 -0.484 0.333 13 9 6 0 0
-0.1319 -0.0358 -0.4746 -0.815 -0.118 0.568 30 25 21 0 0
-0.1441 -0.0433 -0.4851 -0.732 -0.199 0.652 28 24 19 0 0
-0.1433 -0.0426 -0.4874 -0.868 -0.252 0.428 18 15 12 0 0
-0.1998 -0.0807 -0.4898 -0.984 -0.109 -0.138 43 38 33 0 0
-0.2260 -0.0949 -0.5388 -0.677 -0.630 0.381 113 99 69 0 0
-0.2199 -0.0871 -0.5903 -0.875 -0.368 0.315 70 53 35 0 0
