ply
format ascii 1.0
element vertex 850
property float x
property float y
property float z
property float nx
property float ny
property float nz
property uchar diffuse_red
property uchar diffuse_green
property uchar diffuse_blue
property uchar class
property uchar detection
end_header
-0.1613 0.1122 -0.5315 -0.942 0.285 0.176 44 35 27 0 0
-0.1297 0.0655 -0.5945 0.459 0.870 0.181 54 45 33 0 0
-0.1300 0.0659 -0.5961 0.350 0.934 0.071 80 73 56 0 0
-0.1252 0.0589 -0.6090 0.006 0.920 -0.392 44 34 25 0 0
-0.1263 0.0607 -0.6096 0.372 0.788 0.490 39 29 20 0 0
-0.1261 0.0604 -0.6118 0.147 0.988 -0.034 36 28 18 0 0
-0.1255 0.0596 -0.6144 -0.072 0.979 -0.193 38 31 21 0 0
-0.1222 0.0557 -0.6471 -0.314 0.858 0.406 22 17 13 0 0
-0.1255 0.0611 -0.6568 -0.392 0.875 0.284 52 47 41 0 0
-0.1262 0.0624 -0.6578 -0.379 0.726 0.573 41 36 30 0 0
-0.1533 0.1062 -0.7011 -0.578 0.805 0.133 110 101 92 0 0
-0.1533 0.1062 -0.7051 0.060 0.693 0.718 88 79 68 0 0
-0.1576 0.1136 -0.7186 -0.442 0.679 0.586 129 110 77 0 0
-0.1582 0.1144 -0.7199 -0.454 0.488 0.746 128 109 76 0 0
-0.1454 0.0968 -0.7788 -0.767 0.632 -0.112 71 56 41 0 0
-0.1612 0.1247 -0.8654 -0.917 0.393 -0.067 121 118 113 0 0
-0.1080 0.0226 -0.2819 -0.557 0.672 0.489 57 44 32 0 0
-0.1218 0.0458 -0.3241 -0.722 0.603 0.338 135 120 88 0 0
-0.1225 0.0469 -0.3253 -0.534 0.781 0.324 123 106 73 0 0
-0.1227 0.0472 -0.3267 -0.557 0.794 0.246 121 105 77 0 0
-0.1260 0.0532 -0.3500 -0.543 0.821 -0.175 52 42 27 0 0
-0.1226 0.0481 -0.3554 -0.310 0.948 -0.071 23 17 13 0 0
-0.1227 0.0484 -0.3569 0.048 0.965 0.259 31 23 17 0 0
-0.1293 0.0599 -0.3895 -0.549 0.799 0.244 75 58 32 0 0
-0.1299 0.0611 -0.3939 -0.330 0.936 0.122 68 51 27 0 0
-0.1297 0.0608 -0.3957 -0.199 0.827 0.526 71 55 33 0 0
-0.1305 0.0621 -0.3984 -0.174 0.857 0.485 141 127 94 0 0
-0.1309 0.0627 -0.3997 -0.157 0.861 0.483 181 165 128 0 0
-0.1291 0.0604 -0.4109 -0.612 0.727 0.311 62 47 27 0 0
-0.1334 0.0686 -0.4492 0.148 0.914 0.377 44 37 27 0 0
-0.1251 0.0575 -0.4962 -0.504 0.785 0.361 20 16 16 0 0
-0.1254 0.0580 -0.4977 -0.504 0.785 0.361 26 22 19 0 0
-0.1331 0.0705 -0.5097 -0.493 0.798 0.346 65 56 46 0 0
-0.1270 0.0644 -0.5997 0.309 0.920 -0.243 47 37 27 0 0
-0.1236 0.0596 -0.6091 0.108 0.942 -0.317 46 35 27 0 0
-0.1235 0.0594 -0.6112 0.373 0.686 0.625 36 26 17 0 0
-0.1230 0.0587 -0.6137 0.260 0.948 -0.183 42 33 24 0 0
-0.1223 0.0577 -0.6164 0.173 0.981 -0.085 43 36 26 0 0
-0.1179 0.0514 -0.6271 -0.555 0.825 -0.109 35 27 19 0 0
-0.1185 0.0523 -0.6284 -0.763 0.398 0.509 40 31 23 0 0
-0.1190 0.0531 -0.6298 -0.901 0.401 0.167 43 35 25 0 0
-0.1193 0.0537 -0.6313 -0.914 0.389 0.114 21 17 9 0 0
-0.1210 0.0564 -0.6352 -0.185 0.657 0.730 18 13 9 0 0
-0.1210 0.0569 -0.6468 -0.371 0.842 0.392 26 20 16 0 0
-0.1240 0.0619 -0.6569 -0.308 0.911 0.275 38 33 27 0 0
-0.1247 0.0631 -0.6580 -0.800 0.582 0.143 44 39 33 0 0
-0.1524 0.1077 -0.7005 -0.464 0.872 -0.156 99 89 80 0 0
-0.1562 0.1143 -0.7168 -0.445 0.734 0.512 131 112 80 0 0
-0.1566 0.1150 -0.7182 -0.445 0.734 0.512 128 112 80 0 0
-0.1581 0.1175 -0.7219 -0.442 0.733 0.518 122 109 84 0 0
-0.1434 0.0969 -0.7816 -0.749 0.584 0.314 77 67 50 0 0
-0.1437 0.0974 -0.7834 -0.512 0.510 0.691 74 64 46 0 0
-0.0954 0.0052 -0.2642 -0.596 0.713 0.371 153 133 108 0 0
-0.1045 0.0196 -0.2690 -0.645 0.655 0.394 168 148 110 0 0
-0.1048 0.0201 -0.2704 -0.537 0.763 0.360 149 132 94 0 0
-0.1050 0.0205 -0.2719 -0.442 0.816 0.372 119 104 70 0 0
-0.1061 0.0225 -0.2806 -0.688 0.576 0.442 86 73 59 0 0
-0.1093 0.0279 -0.2930 -0.641 0.645 0.417 95 85 71 0 0
-0.1213 0.0477 -0.3236 -0.638 0.713 0.289 169 155 116 0 0
-0.1213 0.0479 -0.3252 -0.634 0.753 0.176 156 142 105 0 0
-0.1235 0.0517 -0.3364 -0.484 0.414 0.771 80 64 41 0 0
-0.1247 0.0535 -0.3373 -0.329 0.943 -0.057 48 29 14 0 0
-0.1245 0.0535 -0.3437 -0.601 0.680 0.420 67 48 26 0 0
-0.1209 0.0485 -0.3572 -0.101 0.994 -0.034 30 22 16 0 0
-0.1231 0.0522 -0.3670 -0.410 0.769 0.491 72 59 37 0 0
-0.1283 0.0612 -0.3925 -0.453 0.892 0.004 89 74 43 0 0
-0.1290 0.0626 -0.3985 -0.198 0.888 0.414 163 150 115 0 0
-0.1293 0.0631 -0.3999 -0.152 0.927 0.342 167 151 118 0 0
-0.1277 0.0611 -0.4110 -0.758 0.630 0.170 78 63 40 0 0
-0.1313 0.0706 -0.5084 -0.564 0.770 0.300 69 60 46 0 0
-0.1308 0.0702 -0.5195 -0.243 0.839 0.488 32 27 23 0 0
-0.1589 0.1138 -0.5244 -0.709 0.682 0.180 103 96 86 0 0
-0.1596 0.1151 -0.5271 -0.671 0.678 0.301 94 83 64 0 0
-0.1604 0.1165 -0.5314 -0.586 0.510 0.630 102 96 74 0 0
-0.1602 0.1162 -0.5334 -0.729 0.622 0.286 91 84 64 0 0
-0.1233 0.0620 -0.6041 0.080 0.865 -0.495 42 33 24 0 0
-0.1199 0.0571 -0.6155 -0.039 0.996 0.085 49 41 30 0 0
-0.1200 0.0574 -0.6173 0.169 0.985 -0.029 39 30 22 0 0
-0.1165 0.0523 -0.6270 -0.555 0.825 -0.109 37 28 21 0 0
-0.1164 0.0522 -0.6291 -0.411 0.444 0.796 43 34 27 0 0
-0.1177 0.0543 -0.6295 -0.716 0.551 0.429 31 23 15 0 0
-0.1184 0.0554 -0.6307 -0.734 0.383 0.561 20 15 11 0 0
-0.1190 0.0564 -0.6358 -0.411 0.719 0.561 18 13 9 0 0
-0.1230 0.0635 -0.6563 -0.008 0.510 0.860 36 32 26 0 0
-0.1434 0.0951 -0.6564 -0.274 0.788 0.551 170 151 109 0 0
-0.1534 0.1136 -0.7305 -0.911 0.351 -0.215 78 67 53 0 0
-0.1421 0.0981 -0.7814 -0.506 0.826 0.248 100 87 67 0 0
-0.1505 0.1118 -0.8020 -0.653 0.650 0.390 118 101 74 0 0
-0.1507 0.1122 -0.8037 -0.523 0.835 0.174 116 100 74 0 0
-0.1591 0.1277 -0.8663 -0.938 0.319 -0.135 125 122 118 0 0
-0.0827 -0.0125 -0.2396 -0.135 0.310 0.941 139 124 98 0 0
-0.0957 0.0086 -0.2649 -0.604 0.300 0.738 175 150 121 0 0
-0.1037 0.0212 -0.2719 -0.442 0.816 0.372 75 60 37 0 0
-0.1233 0.0547 -0.3516 -0.614 0.772 -0.166 63 53 34 0 0
-0.1219 0.0532 -0.3669 -0.628 0.687 0.366 94 82 60 0 0
-0.1273 0.0629 -0.3987 -0.272 0.915 0.297 162 149 111 0 0
-0.1219 0.0584 -0.4948 -0.457 0.795 0.400 26 22 18 0 0
-0.1221 0.0588 -0.4964 -0.287 0.901 0.326 23 19 16 0 0
-0.1227 0.0598 -0.4976 -0.262 0.785 0.561 30 27 23 0 0
-0.1300 0.0718 -0.5189 -0.599 0.750 0.281 36 29 23 0 0
-0.1577 0.1148 -0.5225 -0.796 0.407 0.449 76 65 55 0 0
-0.1580 0.1154 -0.5239 -0.663 0.725 0.189 116 106 93 0 0
-0.1589 0.1168 -0.5282 -0.479 0.722 0.499 97 86 66 0 0
-0.1593 0.1176 -0.5294 -0.445 0.506 0.739 83 73 56 0 0
-0.1598 0.1183 -0.5307 -0.413 0.460 0.786 83 75 58 0 0
-0.1597 0.1183 -0.5325 -0.836 0.445 0.321 76 67 50 0 0
-0.1594 0.1179 -0.5345 -0.875 0.482 0.042 85 74 58 0 0
-0.1202 0.0603 -0.6079 0.334 0.911 -0.244 37 28 19 0 0
-0.1175 0.0564 -0.6128 -0.241 0.891 0.385 35 27 16 0 0
-0.1174 0.0563 -0.6148 -0.403 0.537 0.741 48 40 29 0 0
-0.1175 0.0565 -0.6166 -0.500 0.865 0.033 46 38 28 0 0
-0.1157 0.0543 -0.6321 -0.168 0.976 0.136 20 15 13 0 0
-0.1213 0.0640 -0.6566 -0.170 0.595 0.785 38 34 27 0 0
-0.1443 0.0993 -0.6516 -0.412 0.903 0.121 110 94 66 0 0
-0.1543 0.1175 -0.7195 -0.679 0.511 0.527 104 88 63 0 0
-0.1547 0.1182 -0.7208 -0.485 0.678 0.552 122 107 80 0 0
-0.1546 0.1182 -0.7249 -0.917 0.398 0.013 101 90 70 0 0
-0.1542 0.1177 -0.7274 -0.787 0.616 0.006 75 64 52 0 0
-0.1411 0.0996 -0.7808 -0.654 0.742 0.150 115 100 77 0 0
-0.1417 0.1006 -0.7841 -0.508 0.281 0.814 134 119 92 0 0
-0.1424 0.1019 -0.7871 -0.465 0.785 0.408 127 115 87 0 0
-0.1433 0.1033 -0.7878 -0.597 0.379 0.707 116 102 74 0 0
-0.1517 0.1168 -0.8020 -0.918 0.158 0.364 85 71 45 0 0
-0.1552 0.1228 -0.8152 -0.793 0.602 0.097 141 128 95 0 0
-0.1075 0.0306 -0.2894 -0.461 0.667 0.585 155 134 98 0 0
-0.1239 0.0596 -0.3791 -0.597 0.717 0.359 57 41 26 0 0
-0.1254 0.0627 -0.3975 -0.362 0.858 0.365 158 147 109 0 0
-0.1257 0.0632 -0.3990 -0.362 0.858 0.365 137 121 90 0 0
-0.1231 0.0601 -0.4208 -0.286 0.894 0.344 92 80 56 0 0
-0.1256 0.0642 -0.4288 -0.286 0.699 0.655 87 75 49 0 0
-0.1262 0.0652 -0.4300 -0.515 0.566 0.644 87 75 49 0 0
-0.1255 0.0650 -0.4491 0.233 0.935 -0.268 19 16 14 0 0
-0.1242 0.0631 -0.4519 0.445 0.860 -0.251 18 14 13 0 0
-0.1199 0.0582 -0.4936 -0.591 0.746 0.307 35 27 26 0 0
-0.1205 0.0592 -0.4949 -0.426 0.862 0.273 32 24 22 0 0
-0.1546 0.1126 -0.5175 -0.892 0.428 0.144 95 85 72 0 0
-0.1553 0.1137 -0.5185 -0.683 0.354 0.639 109 98 83 0 0
-0.1561 0.1151 -0.5194 -0.591 0.568 0.573 103 94 80 0 0
-0.1564 0.1155 -0.5208 -0.563 0.643 0.518 69 60 50 0 0
-0.1568 0.1162 -0.5221 -0.640 0.617 0.458 48 38 29 0 0
-0.1570 0.1166 -0.5236 -0.586 0.770 0.254 68 58 46 0 0
-0.1571 0.1168 -0.5252 -0.532 0.813 0.237 130 122 100 0 0
-0.1574 0.1173 -0.5267 -0.673 0.719 0.174 162 151 123 0 0
-0.1576 0.1177 -0.5282 -0.648 0.657 0.385 107 91 69 0 0
-0.1588 0.1197 -0.5321 -0.836 0.445 0.321 85 74 56 0 0
-0.1165 0.0578 -0.6104 0.353 0.927 -0.124 35 26 17 0 0
-0.1153 0.0561 -0.6137 -0.015 0.173 0.985 43 34 25 0 0
-0.1161 0.0573 -0.6147 -0.403 0.537 0.741 41 32 22 0 0
-0.1160 0.0572 -0.6168 -0.081 0.997 0.007 35 26 17 0 0
-0.1427 0.0998 -0.6499 -0.454 0.657 0.602 88 77 58 0 0
-0.1495 0.1113 -0.6756 -0.713 0.519 0.472 122 102 70 0 0
-0.1543 0.1208 -0.7274 -0.791 0.584 -0.181 69 61 49 0 0
-0.1397 0.1006 -0.7807 -0.486 0.874 0.005 82 69 49 0 0
-0.1415 0.1035 -0.7864 -0.753 0.531 0.389 130 114 89 0 0
-0.1528 0.1217 -0.8044 -0.796 0.581 0.167 72 57 32 0 0
-0.1528 0.1218 -0.8064 -0.617 0.773 0.151 76 64 39 0 0
-0.1538 0.1236 -0.8132 -0.740 0.574 0.352 104 88 50 0 0
-0.1588 0.1334 -0.8641 -0.563 0.447 0.695 132 129 124 0 0
-0.0917 0.0081 -0.2639 -0.612 0.725 0.315 123 107 80 0 0
-0.1062 0.0314 -0.2893 -0.461 0.667 0.585 152 129 93 0 0
-0.1213 0.0566 -0.3369 -0.576 0.680 0.454 38 22 11 0 0
-0.1227 0.0619 -0.4117 -0.336 0.914 -0.230 94 80 52 0 0
-0.1226 0.0619 -0.4134 -0.606 0.781 -0.148 90 76 49 0 0
-0.1247 0.0658 -0.4301 -0.065 0.609 0.790 83 71 45 0 0
-0.1182 0.0585 -0.4922 -0.732 0.641 0.231 22 17 15 0 0
-0.1188 0.0594 -0.4934 -0.659 0.706 0.259 22 15 16 0 0
-0.1192 0.0601 -0.4948 -0.528 0.795 0.299 23 15 16 0 0
-0.1194 0.0604 -0.4964 -0.381 0.732 0.565 40 32 30 0 0
-0.1281 0.0744 -0.5111 -0.747 0.618 0.245 53 43 34 0 0
-0.1539 0.1142 -0.5170 -0.872 0.418 0.256 106 95 73 0 0
-0.1545 0.1152 -0.5180 -0.787 0.452 0.419 120 110 91 0 0
-0.1549 0.1159 -0.5193 -0.562 0.713 0.420 105 96 80 0 0
-0.1551 0.1164 -0.5208 -0.513 0.761 0.398 74 66 58 0 0
-0.1555 0.1169 -0.5221 -0.453 0.765 0.458 63 58 53 0 0
-0.1138 0.0568 -0.6118 0.285 0.949 -0.133 39 31 22 0 0
-0.1135 0.0564 -0.6161 -0.180 0.971 0.158 40 32 22 0 0
-0.1138 0.0570 -0.6176 0.021 1.000 0.012 31 22 13 0 0
-0.1122 0.0549 -0.6251 -0.455 0.859 -0.235 36 28 22 0 0
-0.1117 0.0542 -0.6296 -0.687 0.703 0.185 21 15 10 0 0
-0.1118 0.0545 -0.6314 -0.742 0.620 0.256 19 14 10 0 0
-0.1417 0.1012 -0.6494 -0.799 0.531 0.283 79 67 47 0 0
-0.1424 0.1023 -0.6505 -0.755 0.655 0.035 99 85 56 0 0
-0.1456 0.1077 -0.6616 -0.120 0.565 0.817 105 88 56 0 0
-0.1489 0.1135 -0.6764 -0.722 0.370 0.586 130 108 74 0 0
-0.1531 0.1219 -0.7271 -0.612 0.760 -0.219 67 60 47 0 0
-0.1389 0.1023 -0.7799 -0.543 0.833 -0.103 56 44 31 0 0
-0.0382 -0.0732 -0.2124 0.126 0.988 0.089 177 178 176 0 0
-0.0380 -0.0735 -0.2141 0.044 0.991 -0.130 177 179 177 0 0
-0.0378 -0.0737 -0.2158 0.044 0.991 -0.130 177 179 178 0 0
-0.0377 -0.0739 -0.2174 -0.016 0.942 -0.334 178 178 178 0 0
-0.0310 -0.0835 -0.2297 -0.790 0.563 0.242 114 99 70 0 0
-0.0907 0.0093 -0.2622 -0.445 0.836 0.321 60 41 25 0 0
-0.1047 0.0318 -0.2894 -0.364 0.742 0.564 144 123 85 0 0
-0.1203 0.0580 -0.3398 -0.412 0.769 0.488 46 30 17 0 0
-0.1214 0.0626 -0.4101 -0.351 0.848 0.397 85 71 43 0 0
-0.1212 0.0624 -0.4119 -0.336 0.914 -0.230 83 69 42 0 0
-0.1221 0.0648 -0.4345 0.247 0.942 0.226 39 30 21 0 0
-0.1172 0.0597 -0.4919 -0.751 0.589 0.298 34 30 27 0 0
-0.1180 0.0611 -0.4946 -0.640 0.672 0.374 23 17 17 0 0
-0.1183 0.0617 -0.4961 -0.482 0.733 0.480 46 39 36 0 0
-0.1538 0.1169 -0.5174 -0.804 0.478 0.354 117 108 87 0 0
-0.1553 0.1196 -0.5261 -0.647 0.597 0.473 131 121 94 0 0
-0.1100 0.0547 -0.6299 -0.056 0.889 0.455 19 14 10 0 0
-0.1107 0.0558 -0.6311 -0.742 0.620 0.256 18 13 9 0 0
-0.1107 0.0559 -0.6329 -0.055 0.783 0.619 19 14 10 0 0
-0.1111 0.0569 -0.6402 -0.303 0.817 0.490 19 15 11 0 0
-0.1439 0.1080 -0.6601 -0.718 0.290 0.633 109 94 60 0 0
-0.0361 -0.0735 -0.2126 0.126 0.988 0.089 177 176 175 0 0
-0.0358 -0.0738 -0.2160 0.030 0.990 -0.141 176 176 176 0 0
-0.0357 -0.0739 -0.2176 -0.005 0.952 -0.307 178 177 178 0 0
-0.0895 0.0103 -0.2621 -0.581 0.734 0.351 55 37 23 0 0
-0.0985 0.0241 -0.2640 -0.299 0.942 0.155 217 200 161 0 0
-0.1178 0.0575 -0.3533 -0.428 0.899 -0.090 78 62 39 0 0
-0.1179 0.0611 -0.4300 -0.333 0.915 0.228 85 73 48 0 0
-0.1197 0.0639 -0.4303 0.147 0.831 0.537 83 71 46 0 0
-0.1566 0.1248 -0.5355 -0.524 0.789 0.321 123 109 73 0 0
-0.1558 0.1239 -0.5414 -0.540 0.808 -0.238 158 142 96 0 0
-0.1077 0.0537 -0.6174 0.466 0.884 0.014 33 27 19 0 0
-0.1095 0.0570 -0.6288 -0.679 0.588 0.439 21 16 12 0 0
-0.1097 0.0574 -0.6305 -0.771 0.542 0.333 21 16 12 0 0
-0.1504 0.1273 -0.8056 -0.750 0.614 0.248 74 59 37 0 0
-0.1555 0.1362 -0.8308 -0.683 0.546 0.485 89 75 47 0 0
-0.0812 -0.0007 -0.2373 0.022 0.985 0.171 175 164 134 0 0
-0.0865 0.0078 -0.2458 -0.280 0.709 0.648 82 70 57 0 0
-0.0871 0.0087 -0.2471 -0.267 0.770 0.579 129 114 95 0 0
-0.0973 0.0250 -0.2655 -0.159 0.938 0.307 209 195 161 0 0
-0.1001 0.0299 -0.2780 -0.590 0.789 0.170 93 77 59 0 0
-0.1017 0.0325 -0.2802 -0.559 0.823 0.102 216 200 167 0 0
-0.1023 0.0339 -0.2908 -0.496 0.706 0.505 127 108 72 0 0
-0.1169 0.0583 -0.3387 -0.396 0.822 0.410 66 51 29 0 0
-0.1171 0.0592 -0.3544 -0.827 0.511 0.235 79 63 40 0 0
-0.1178 0.0638 -0.4307 0.171 0.883 0.437 79 67 41 0 0
-0.1099 0.0541 -0.4837 -0.316 0.811 0.493 25 21 20 0 0
-0.1546 0.1248 -0.5414 -0.540 0.808 -0.238 160 142 94 0 0
-0.1545 0.1248 -0.5431 -0.601 0.767 -0.225 152 134 91 0 0
-0.1512 0.1202 -0.5536 -0.647 0.740 -0.180 55 46 32 0 0
-0.1067 0.0561 -0.6322 -0.705 0.463 0.537 22 17 13 0 0
-0.1082 0.0591 -0.6499 -0.759 0.370 0.536 36 31 27 0 0
-0.1382 0.1048 -0.6505 -0.507 0.861 0.047 94 80 56 0 0
-0.1444 0.1165 -0.7000 -0.801 0.589 -0.106 51 42 34 0 0
-0.1615 0.1498 -0.8605 -0.305 0.935 -0.182 178 177 179 0 0
-0.0367 -0.0667 -0.2113 -0.972 0.188 0.141 112 101 73 0 0
-0.0363 -0.0671 -0.2147 -0.934 0.248 -0.257 112 103 74 0 0
-0.0853 0.0087 -0.2457 -0.371 0.718 0.589 85 73 58 0 0
-0.0944 0.0237 -0.2724 -0.213 0.945 0.246 62 47 27 0 0
-0.0985 0.0303 -0.2781 -0.593 0.599 0.538 84 68 53 0 0
-0.1005 0.0334 -0.2802 -0.559 0.823 0.102 213 198 160 0 0
-0.1005 0.0335 -0.2817 -0.559 0.823 0.102 198 182 151 0 0
-0.1153 0.0592 -0.3515 -0.448 0.860 0.242 71 57 31 0 0
-0.1162 0.0606 -0.3542 -0.827 0.511 0.235 79 65 39 0 0
-0.1135 0.0572 -0.3704 -0.492 0.833 0.252 116 103 76 0 0
-0.1136 0.0576 -0.3719 -0.492 0.833 0.252 109 95 68 0 0
-0.1151 0.0624 -0.4302 0.234 0.874 0.427 80 70 45 0 0
-0.1159 0.0637 -0.4312 0.177 0.756 0.630 68 58 36 0 0
-0.1103 0.0564 -0.4543 -0.860 0.497 -0.114 19 15 14 0 0
-0.1534 0.1259 -0.5429 -0.631 0.726 -0.274 155 138 95 0 0
-0.1062 0.0590 -0.6487 -0.683 0.526 0.507 27 22 19 0 0
-0.1400 0.1156 -0.7617 -0.672 0.511 -0.536 59 50 34 0 0
-0.1598 0.1502 -0.8610 -0.305 0.935 -0.182 175 174 176 0 0
-0.0279 -0.0788 -0.1737 -0.643 0.510 0.572 178 178 178 0 0
-0.0291 -0.0768 -0.1781 -0.823 -0.006 0.568 178 178 177 0 0
-0.0298 -0.0757 -0.1795 -0.875 0.014 0.483 174 173 170 0 0
-0.0331 -0.0705 -0.1817 -0.783 0.561 -0.268 164 159 148 0 0
-0.0338 -0.0693 -0.1846 -0.595 0.796 -0.111 135 126 107 0 0
-0.0339 -0.0691 -0.1862 -0.783 0.622 -0.016 130 119 96 0 0
-0.0364 -0.0641 -0.2125 -0.913 0.364 -0.183 114 103 76 0 0
-0.0858 0.0128 -0.2573 -0.458 0.839 0.294 64 49 32 0 0
-0.0861 0.0133 -0.2586 -0.607 0.713 0.351 65 48 28 0 0
-0.0864 0.0138 -0.2601 -0.607 0.713 0.351 78 62 37 0 0
-0.0867 0.0143 -0.2615 -0.607 0.713 0.351 78 62 38 0 0
-0.0974 0.0313 -0.2780 -0.593 0.599 0.538 60 47 36 0 0
-0.1150 0.0616 -0.3540 -0.743 0.634 0.215 78 64 38 0 0
-0.1142 0.0605 -0.3562 -0.697 0.710 -0.100 74 59 36 0 0
-0.1147 0.0626 -0.3848 -0.517 0.774 0.366 71 56 32 0 0
-0.1141 0.0632 -0.4182 -0.001 0.888 0.459 61 50 30 0 0
-0.1526 0.1273 -0.5407 -0.609 0.793 -0.035 148 132 90 0 0
-0.1519 0.1264 -0.5431 -0.623 0.764 -0.167 152 134 95 0 0
-0.1518 0.1263 -0.5450 -0.371 0.926 -0.070 160 143 104 0 0
-0.1518 0.1264 -0.5467 -0.420 0.896 -0.147 169 155 111 0 0
-0.1362 0.1078 -0.6534 -0.707 0.706 -0.036 180 163 117 0 0
-0.1367 0.1086 -0.6547 -0.522 0.817 0.245 209 192 144 0 0
-0.1373 0.1096 -0.6558 -0.394 0.560 0.729 213 194 143 0 0
-0.1442 0.1203 -0.6623 -0.667 0.603 0.438 93 77 51 0 0
-0.1436 0.1214 -0.7052 -0.691 0.403 0.600 81 71 56 0 0
-0.1406 0.1193 -0.7568 -0.880 0.281 -0.383 71 60 40 0 0
-0.1375 0.1151 -0.7652 -0.730 0.507 -0.458 49 38 26 0 0
-0.1439 0.1259 -0.7905 -0.198 0.618 0.761 81 67 45 0 0
-0.1446 0.1270 -0.7915 -0.366 0.727 0.581 77 62 41 0 0
-0.1516 0.1389 -0.8198 -0.648 0.705 0.286 151 135 97 0 0
-0.1517 0.1411 -0.8615 -0.794 0.566 0.221 71 65 52 0 0
-0.1519 0.1414 -0.8634 -0.761 0.618 0.197 95 91 81 0 0
-0.1522 0.1421 -0.8693 -0.165 0.162 0.973 165 163 166 0 0
-0.0259 -0.0788 -0.1738 -0.843 -0.117 0.525 178 178 178 0 0
-0.0269 -0.0772 -0.1751 -0.852 -0.124 0.509 178 178 177 0 0
-0.0325 -0.0685 -0.1814 -0.720 0.693 0.012 135 123 101 0 0
-0.0336 -0.0668 -0.1842 -0.299 0.954 -0.014 135 120 93 0 0
-0.0329 -0.0678 -0.1860 -0.783 0.622 -0.016 143 128 100 0 0
-0.0327 -0.0679 -0.1893 -0.592 0.784 -0.184 129 113 81 0 0
-0.0327 -0.0678 -0.1909 -0.701 0.676 -0.226 122 105 76 0 0
-0.0328 -0.0676 -0.1924 -0.865 0.471 0.173 145 128 96 0 0
-0.0330 -0.0672 -0.1939 -0.858 0.432 0.277 180 162 124 0 0
-0.0360 -0.0618 -0.2121 -0.975 0.188 -0.119 110 100 73 0 0
-0.0848 0.0143 -0.2601 -0.436 0.854 0.285 66 51 28 0 0
-0.0851 0.0147 -0.2616 -0.436 0.854 0.285 55 40 20 0 0
-0.0964 0.0326 -0.2778 -0.610 0.466 0.641 52 38 30 0 0
-0.1036 0.0448 -0.3066 -0.562 0.782 0.270 127 112 78 0 0
-0.1128 0.0611 -0.3546 -0.047 0.804 0.593 74 60 34 0 0
-0.1133 0.0618 -0.3559 -0.240 0.808 0.539 72 57 34 0 0
-0.1117 0.0596 -0.3585 -0.786 0.606 -0.125 60 46 31 0 0
-0.1104 0.0582 -0.3707 -0.428 0.678 0.598 102 87 60 0 0
-0.1135 0.0635 -0.3848 -0.533 0.704 0.469 71 57 31 0 0
-0.1132 0.0633 -0.3882 -0.480 0.623 0.618 72 57 33 0 0
-0.1127 0.0626 -0.3902 -0.594 0.801 0.072 74 59 36 0 0
-0.1129 0.0630 -0.3917 -0.436 0.895 0.096 74 59 36 0 0
-0.1126 0.0635 -0.4133 -0.226 0.956 -0.186 82 68 42 0 0
-0.1371 0.1045 -0.4949 -0.967 -0.246 -0.071 37 30 24 0 0
-0.1375 0.1052 -0.4962 -0.974 -0.157 -0.163 39 32 26 0 0
-0.1527 0.1301 -0.5374 -0.456 0.890 0.024 122 105 71 0 0
-0.1514 0.1283 -0.5406 -0.633 0.774 -0.005 149 133 92 0 0
-0.1509 0.1276 -0.5428 -0.710 0.694 -0.118 157 140 99 0 0
-0.1503 0.1268 -0.5452 -0.537 0.843 0.023 155 138 97 0 0
-0.1504 0.1270 -0.5468 -0.421 0.907 0.023 155 139 99 0 0
-0.1502 0.1269 -0.5487 -0.519 0.842 -0.149 149 133 95 0 0
-0.1037 0.0613 -0.6443 -0.131 0.874 0.468 25 20 17 0 0
-0.1044 0.0623 -0.6455 -0.435 0.792 0.429 28 23 20 0 0
-0.1140 0.0771 -0.6497 0.178 0.268 0.947 54 51 46 0 0
-0.1149 0.0784 -0.6507 -0.044 0.655 0.754 51 48 42 0 0
-0.1424 0.1204 -0.6591 -0.136 0.784 0.606 100 83 56 0 0
-0.1441 0.1254 -0.7104 0.268 0.675 0.687 121 102 65 0 0
-0.1365 0.1177 -0.7891 -0.478 0.538 0.695 48 36 22 0 0
-0.1410 0.1247 -0.7927 -0.347 0.782 0.518 49 37 21 0 0
-0.1463 0.1334 -0.8072 -0.616 0.717 0.326 68 59 39 0 0
-0.1502 0.1399 -0.8197 -0.436 0.793 0.426 104 88 53 0 0
-0.1507 0.1408 -0.8231 -0.552 0.615 0.563 154 136 98 0 0
-0.1511 0.1416 -0.8266 -0.627 0.630 0.458 141 124 86 0 0
-0.1502 0.1416 -0.8575 -0.693 0.707 0.141 119 110 83 0 0
-0.1507 0.1427 -0.8629 -0.761 0.618 0.197 88 82 70 0 0
-0.1516 0.1442 -0.8635 -0.650 0.506 0.567 116 114 107 0 0
-0.1497 0.1414 -0.8689 -0.815 0.545 0.196 147 145 143 0 0
-0.1508 0.1431 -0.8692 -0.165 0.162 0.973 164 161 165 0 0
-0.1520 0.1449 -0.8693 0.050 0.117 0.992 173 171 174 0 0
-0.0261 -0.0757 -0.1733 -0.832 -0.173 0.527 179 178 177 0 0
-0.0314 -0.0673 -0.1813 -0.661 0.727 0.188 145 131 101 0 0
-0.0323 -0.0658 -0.1842 -0.505 0.727 0.466 144 129 99 0 0
-0.0327 -0.0651 -0.1856 -0.505 0.727 0.466 144 128 93 0 0
-0.0324 -0.0655 -0.1873 -0.685 0.728 0.023 174 158 117 0 0
-0.0322 -0.0657 -0.1889 -0.524 0.851 -0.035 147 132 94 0 0
-0.0980 0.0385 -0.2933 -0.517 0.736 0.438 109 92 69 0 0
-0.0982 0.0389 -0.2948 -0.458 0.816 0.353 117 103 77 0 0
-0.0985 0.0394 -0.2962 -0.458 0.816 0.353 104 88 62 0 0
-0.0988 0.0399 -0.2976 -0.392 0.803 0.449 113 96 66 0 0
-0.1104 0.0591 -0.3332 -0.507 0.810 0.296 73 57 38 0 0
-0.1107 0.0609 -0.3583 -0.828 0.551 -0.100 62 47 30 0 0
-0.1111 0.0627 -0.3838 -0.391 0.912 0.125 73 59 32 0 0
-0.1110 0.0626 -0.3856 -0.430 0.884 0.180 73 59 33 0 0
-0.1108 0.0624 -0.3873 -0.489 0.651 0.580 71 57 31 0 0
-0.1112 0.0646 -0.4200 -0.237 0.971 0.046 69 57 37 0 0
-0.1491 0.1279 -0.5468 -0.600 0.799 0.036 142 124 87 0 0
-0.1490 0.1278 -0.5486 -0.565 0.824 -0.042 143 126 90 0 0
-0.0949 0.0502 -0.6254 -0.511 0.716 0.476 18 12 8 0 0
-0.0950 0.0503 -0.6273 -0.200 0.771 0.604 15 10 6 0 0
-0.1020 0.0617 -0.6426 -0.469 0.865 0.179 25 21 18 0 0
-0.1122 0.0774 -0.6502 0.183 0.286 0.941 49 45 41 0 0
-0.1136 0.0795 -0.6505 0.342 0.892 0.294 56 53 48 0 0
-0.1190 0.0876 -0.6498 -0.388 0.238 0.890 61 54 48 0 0
-0.1200 0.0891 -0.6506 -0.388 0.238 0.890 54 47 40 0 0
-0.1333 0.1091 -0.6498 -0.417 0.401 0.816 80 65 46 0 0
-0.1354 0.1125 -0.6528 -0.496 0.321 0.807 175 155 113 0 0
-0.1405 0.1226 -0.7037 -0.579 0.690 0.435 25 18 14 0 0
-0.1421 0.1253 -0.7093 -0.232 0.613 0.755 102 85 56 0 0
-0.1428 0.1264 -0.7102 -0.078 0.943 0.324 114 97 63 0 0
-0.1325 0.1145 -0.7826 -0.316 0.942 0.117 46 36 20 0 0
-0.1405 0.1270 -0.7934 -0.382 0.716 0.585 57 45 34 0 0
-0.1410 0.1279 -0.7946 -0.450 0.798 0.401 72 59 46 0 0
-0.1410 0.1279 -0.7967 -0.596 0.756 0.270 62 51 35 0 0
-0.1450 0.1345 -0.8092 -0.569 0.775 0.275 85 74 49 0 0
-0.1512 0.1450 -0.8325 -0.267 0.826 0.496 117 97 66 0 0
-0.1504 0.1442 -0.8400 -0.559 0.778 0.287 132 114 74 0 0
-0.1504 0.1444 -0.8420 -0.671 0.645 0.366 141 123 81 0 0
-0.1491 0.1434 -0.8633 -0.445 0.893 0.072 80 73 60 0 0
-0.1494 0.1439 -0.8649 -0.440 0.862 0.251 107 101 94 0 0
-0.1488 0.1431 -0.8680 -0.833 0.547 0.081 139 134 131 0 0
-0.1494 0.1441 -0.8692 -0.165 0.162 0.973 160 156 158 0 0
-0.0310 -0.0648 -0.1841 -0.552 0.756 0.351 141 126 95 0 0
-0.0319 -0.0634 -0.1854 -0.462 0.770 0.440 132 117 81 0 0
-0.0323 -0.0628 -0.1869 -0.822 0.372 0.431 156 141 102 0 0
-0.0973 0.0403 -0.2961 -0.675 0.691 0.259 101 87 62 0 0
-0.1085 0.0599 -0.3525 -0.358 0.875 0.326 76 63 40 0 0
-0.1085 0.0602 -0.3557 -0.434 0.786 0.440 61 46 24 0 0
-0.1086 0.0606 -0.3620 -0.308 0.900 -0.308 50 38 22 0 0
-0.1097 0.0633 -0.3839 -0.391 0.912 0.125 74 60 33 0 0
-0.1097 0.0634 -0.3855 -0.447 0.830 0.333 80 66 40 0 0
-0.0983 0.0502 -0.4649 -0.438 0.754 0.489 25 21 18 0 0
-0.1462 0.1268 -0.5572 -0.507 0.819 0.269 68 55 36 0 0
-0.0932 0.0506 -0.6257 -0.303 0.605 0.736 26 19 15 0 0
-0.1108 0.0783 -0.6502 0.365 0.419 0.831 43 39 35 0 0
-0.1113 0.0791 -0.6515 0.247 0.900 0.359 56 52 48 0 0
-0.1173 0.0880 -0.6503 0.020 0.361 0.932 68 61 53 0 0
-0.1184 0.0897 -0.6508 -0.002 0.364 0.932 60 53 45 0 0
-0.1329 0.1115 -0.6505 -0.699 0.699 0.151 119 101 71 0 0
-0.1397 0.1244 -0.7048 -0.684 0.602 0.412 33 25 16 0 0
-0.1393 0.1240 -0.7072 -0.813 0.284 0.508 99 89 72 0 0
-0.1399 0.1249 -0.7084 -0.770 0.181 0.612 101 87 62 0 0
-0.1403 0.1256 -0.7098 -0.834 0.264 0.485 86 72 44 0 0
-0.1416 0.1276 -0.7100 -0.173 0.970 0.173 112 94 64 0 0
-0.1412 0.1271 -0.7124 -0.497 0.862 0.101 149 129 90 0 0
-0.1426 0.1293 -0.7165 -0.315 0.934 0.171 137 121 87 0 0
-0.1442 0.1317 -0.7162 -0.420 0.896 0.144 134 119 87 0 0
-0.1464 0.1360 -0.7346 -0.611 0.659 0.439 131 114 80 0 0
-0.1388 0.1255 -0.7533 -0.598 0.658 -0.457 47 36 21 0 0
-0.1313 0.1155 -0.7782 -0.559 0.829 0.014 70 58 37 0 0
-0.1405 0.1303 -0.7995 -0.425 0.740 0.522 54 45 31 0 0
-0.1490 0.1458 -0.8526 -0.662 0.644 0.382 132 117 81 0 0
-0.1491 0.1460 -0.8545 -0.653 0.695 0.302 119 105 74 0 0
-0.1477 0.1446 -0.8674 -0.833 0.547 0.081 130 124 119 0 0
-0.1552 0.1559 -0.8675 -0.974 0.111 0.197 189 187 188 0 0
-0.0298 -0.0637 -0.1840 -0.803 0.434 0.408 149 135 104 0 0
-0.0301 -0.0632 -0.1855 -0.795 0.503 0.339 163 151 111 0 0
-0.0352 -0.0552 -0.1934 -0.986 -0.005 0.168 134 121 86 0 0
-0.0354 -0.0548 -0.1949 -0.997 -0.004 0.078 123 110 78 0 0
-0.1088 0.0634 -0.3579 -0.117 0.949 0.294 69 54 36 0 0
-0.1076 0.0619 -0.3618 -0.762 0.580 -0.288 55 42 26 0 0
-0.1366 0.1109 -0.4733 -0.994 -0.110 -0.028 93 85 67 0 0
-0.1368 0.1113 -0.4747 -0.994 -0.041 0.102 75 67 48 0 0
-0.1398 0.1170 -0.4988 -0.521 0.678 0.518 84 76 62 0 0
-0.1415 0.1198 -0.5022 -0.664 0.697 0.270 89 76 62 0 0
-0.1420 0.1205 -0.5035 -0.597 0.708 0.378 98 86 70 0 0
-0.1480 0.1315 -0.5417 -0.515 0.787 0.340 106 86 49 0 0
-0.1004 0.0654 -0.6431 -0.539 0.740 0.402 33 30 26 0 0
-0.1158 0.0889 -0.6503 0.079 0.449 0.890 68 60 53 0 0
-0.1169 0.0905 -0.6509 0.023 0.371 0.928 66 58 50 0 0
-0.1318 0.1128 -0.6501 -0.810 0.583 0.069 118 101 70 0 0
-0.1415 0.1294 -0.6909 -0.622 0.768 0.154 97 81 57 0 0
-0.1394 0.1272 -0.7092 -0.834 0.264 0.485 81 69 41 0 0
-0.1396 0.1275 -0.7108 -0.894 0.445 0.055 107 91 58 0 0
-0.1426 0.1323 -0.7165 -0.756 0.591 0.281 142 127 92 0 0
-0.1451 0.1369 -0.7345 -0.299 0.566 0.768 123 106 69 0 0
-0.1456 0.1378 -0.7357 -0.602 0.525 0.602 139 124 86 0 0
-0.1420 0.1327 -0.7428 -0.463 0.792 -0.397 103 90 58 0 0
-0.1317 0.1185 -0.7654 -0.436 0.724 -0.534 39 33 22 0 0
-0.1288 0.1149 -0.7797 -0.234 0.911 0.339 47 35 16 0 0
-0.1301 0.1169 -0.7820 -0.620 0.780 -0.088 106 95 76 0 0
-0.1325 0.1208 -0.7887 -0.732 0.273 0.624 63 51 34 0 0
-0.1385 0.1302 -0.7963 -0.449 0.692 0.566 56 45 31 0 0
-0.1388 0.1308 -0.7977 -0.650 0.604 0.461 49 38 21 0 0
-0.1393 0.1317 -0.8011 -0.569 0.694 0.441 40 30 18 0 0
-0.1396 0.1322 -0.8028 -0.623 0.732 0.277 51 41 26 0 0
-0.1397 0.1324 -0.8047 -0.585 0.755 0.294 69 60 43 0 0
-0.1474 0.1463 -0.8486 -0.692 0.720 0.048 144 129 85 0 0
-0.1476 0.1468 -0.8525 -0.692 0.584 0.425 128 110 72 0 0
-0.0282 -0.0639 -0.1699 -0.998 -0.007 -0.058 178 177 175 0 0
-0.0348 -0.0528 -0.1930 -0.939 -0.002 0.345 146 133 96 0 0
-0.0353 -0.0520 -0.1944 -0.977 0.041 0.208 136 123 89 0 0
-0.1054 0.0612 -0.3608 -0.569 0.785 -0.243 66 52 33 0 0
-0.1066 0.0631 -0.3616 -0.601 0.744 -0.292 61 48 30 0 0
-0.1017 0.0568 -0.3827 -0.243 0.967 -0.071 87 71 45 0 0
-0.1416 0.1227 -0.5042 -0.667 0.377 0.643 79 69 59 0 0
-0.1435 0.1260 -0.5125 -0.389 0.803 0.452 54 42 31 0 0
-0.1466 0.1324 -0.5470 -0.709 0.685 -0.167 142 121 76 0 0
-0.0918 0.0551 -0.6357 -0.572 0.704 0.421 35 28 23 0 0
-0.0933 0.0575 -0.6359 -0.401 0.841 0.363 48 40 38 0 0
-0.0991 0.0664 -0.6430 -0.539 0.740 0.402 35 34 30 0 0
-0.1119 0.0859 -0.6494 -0.153 0.192 0.969 56 52 47 0 0
-0.1131 0.0877 -0.6499 -0.153 0.192 0.969 69 63 56 0 0
-0.1299 0.1128 -0.6488 -0.846 0.263 0.464 74 63 48 0 0
-0.1302 0.1133 -0.6504 -0.648 0.762 0.015 132 115 86 0 0
-0.1420 0.1320 -0.6734 -0.255 0.891 0.375 133 113 78 0 0
-0.1433 0.1344 -0.6792 -0.364 0.779 0.510 166 144 102 0 0
-0.1388 0.1291 -0.7081 -0.057 0.551 0.833 93 80 50 0 0
-0.1391 0.1296 -0.7097 -0.882 0.173 0.438 99 85 50 0 0
-0.1284 0.1175 -0.7823 -0.652 0.756 0.055 79 68 50 0 0
-0.1293 0.1188 -0.7832 -0.843 0.483 0.236 80 68 49 0 0
-0.1460 0.1465 -0.8339 -0.273 0.791 0.547 83 71 46 0 0
-0.1457 0.1462 -0.8386 -0.475 0.848 0.234 153 141 107 0 0
-0.1461 0.1477 -0.8547 -0.406 0.787 0.464 138 123 87 0 0
-0.1507 0.1550 -0.8640 0.086 0.069 0.994 173 172 174 0 0
-0.0308 -0.0574 -0.1656 -0.476 0.839 -0.262 178 178 176 0 0
-0.0291 -0.0598 -0.1676 -0.950 0.304 -0.074 178 179 177 0 0
-0.0290 -0.0598 -0.1692 -0.925 0.327 -0.191 178 177 171 0 0
-0.0291 -0.0595 -0.1723 -0.896 0.437 0.074 164 153 133 0 0
-0.0471 -0.0290 -0.2419 -0.988 -0.150 0.021 129 115 98 0 0
-0.1047 0.0628 -0.3588 -0.470 0.879 -0.076 79 64 41 0 0
-0.1036 0.0614 -0.3611 -0.331 0.794 -0.510 68 53 35 0 0
-0.0977 0.0586 -0.4758 -0.712 0.627 0.317 28 20 17 0 0
-0.0982 0.0594 -0.4771 -0.525 0.692 0.495 31 23 21 0 0
-0.1390 0.1209 -0.4920 -0.742 0.538 0.401 90 79 61 0 0
-0.1393 0.1215 -0.4934 -0.742 0.538 0.401 60 50 37 0 0
-0.1394 0.1217 -0.4967 -0.896 0.444 0.024 51 41 32 0 0
-0.1396 0.1223 -0.4998 -0.396 0.908 -0.139 60 50 40 0 0
-0.1396 0.1224 -0.5015 -0.554 0.829 -0.077 41 30 20 0 0
-0.1397 0.1225 -0.5032 -0.607 0.756 0.242 57 48 38 0 0
-0.1396 0.1226 -0.5049 -0.702 0.530 0.475 85 79 66 0 0
-0.1401 0.1234 -0.5061 -0.434 0.790 0.433 76 67 58 0 0
-0.1402 0.1235 -0.5077 -0.421 0.695 0.583 58 48 39 0 0
-0.1438 0.1303 -0.5348 -0.504 0.822 0.264 74 60 39 0 0
-0.1455 0.1334 -0.5451 -0.674 0.738 -0.032 125 108 68 0 0
-0.0922 0.0589 -0.6375 -0.373 0.880 0.293 45 43 39 0 0
-0.0929 0.0602 -0.6406 -0.002 0.525 0.851 49 45 40 0 0
-0.1013 0.0731 -0.6485 -0.040 0.395 0.918 32 27 24 0 0
-0.1081 0.0832 -0.6483 -0.254 0.179 0.951 49 46 41 0 0
-0.1105 0.0868 -0.6494 -0.125 0.215 0.968 56 51 47 0 0
-0.1294 0.1149 -0.6478 -0.767 0.637 0.074 82 70 55 0 0
-0.1294 0.1150 -0.6496 -0.795 0.605 0.045 116 95 66 0 0
-0.1406 0.1328 -0.6734 -0.265 0.917 0.299 129 110 76 0 0
-0.1417 0.1350 -0.6833 -0.417 0.899 0.136 161 143 98 0 0
-0.1446 0.1411 -0.7158 -0.094 0.929 0.359 117 99 70 0 0
-0.1264 0.1173 -0.7791 -0.483 0.872 0.076 38 28 14 0 0
-0.1256 0.1163 -0.7823 -0.394 0.619 0.679 51 40 24 0 0
-0.1270 0.1185 -0.7822 -0.595 0.184 0.783 64 52 35 0 0
-0.1272 0.1188 -0.7841 -0.375 0.628 0.682 63 51 32 0 0
-0.1371 0.1347 -0.8064 -0.482 0.809 0.335 59 47 30 0 0
-0.1372 0.1350 -0.8082 -0.404 0.846 0.347 61 52 34 0 0
-0.1448 0.1493 -0.8651 -0.817 0.575 -0.041 103 96 89 0 0
-0.0306 -0.0549 -0.1637 0.037 0.923 -0.384 176 178 179 0 0
-0.0282 -0.0581 -0.1706 -0.912 0.398 0.103 162 150 127 0 0
-0.0283 -0.0579 -0.1721 -0.912 0.398 0.103 151 137 110 0 0
-0.0363 -0.0439 -0.2105 -0.990 0.138 0.015 124 107 82 0 0
-0.0496 -0.0224 -0.2419 -0.505 0.147 0.850 110 100 82 0 0
-0.1033 0.0635 -0.3588 -0.470 0.879 -0.076 80 67 44 0 0
-0.0944 0.0546 -0.4377 -0.113 0.949 0.293 30 25 22 0 0
-0.0945 0.0548 -0.4393 -0.077 0.928 0.366 20 15 14 0 0
-0.0924 0.0529 -0.4634 -0.423 0.886 0.189 18 14 13 0 0
-0.0920 0.0525 -0.4655 -0.475 0.754 0.454 21 17 15 0 0
-0.1391 0.1230 -0.4774 -0.853 -0.095 0.513 96 87 65 0 0
-0.1400 0.1247 -0.4849 -0.845 0.435 -0.311 89 76 57 0 0
-0.1384 0.1234 -0.5031 -0.471 0.836 0.280 53 46 35 0 0
-0.1386 0.1238 -0.5046 -0.348 0.816 0.462 75 68 55 0 0
-0.0879 0.0556 -0.6367 -0.470 0.529 0.706 34 27 22 0 0
-0.1009 0.0753 -0.6454 -0.555 0.618 0.556 30 25 22 0 0
-0.1072 0.0848 -0.6477 -0.627 -0.122 0.770 54 51 46 0 0
-0.1282 0.1160 -0.6495 -0.604 0.785 0.138 123 102 73 0 0
-0.1405 0.1358 -0.6775 -0.600 0.733 0.320 155 134 91 0 0
-0.1401 0.1355 -0.6817 -0.409 0.899 0.153 170 149 106 0 0
-0.1402 0.1357 -0.6835 -0.409 0.899 0.153 164 144 101 0 0
-0.1310 0.1262 -0.7603 -0.886 0.293 -0.360 44 41 29 0 0
-0.1247 0.1179 -0.7794 -0.459 0.881 0.116 41 29 18 0 0
-0.1440 0.1512 -0.8684 -0.839 0.539 -0.077 155 151 149 0 0
-0.0283 -0.0556 -0.1592 -0.520 0.845 0.128 178 178 178 0 0
-0.0287 -0.0551 -0.1607 -0.348 0.935 -0.065 179 178 179 0 0
-0.0340 -0.0453 -0.1950 -0.728 0.428 0.536 194 180 135 0 0
-0.0347 -0.0442 -0.1963 -0.795 0.131 0.592 179 162 119 0 0
-0.0839 0.0331 -0.2793 -0.560 0.765 0.318 50 38 28 0 0
-0.0840 0.0334 -0.2808 -0.450 0.840 0.303 128 111 84 0 0
-0.0844 0.0341 -0.2821 -0.421 0.832 0.362 187 172 136 0 0
-0.1013 0.0631 -0.3560 -0.339 0.940 0.042 80 68 45 0 0
-0.1011 0.0631 -0.3593 -0.164 0.984 -0.076 84 73 50 0 0
-0.0931 0.0554 -0.4377 -0.101 0.945 0.311 20 15 12 0 0
-0.0929 0.0553 -0.4395 -0.099 0.952 0.291 16 13 11 0 0
-0.0908 0.0533 -0.4601 -0.615 0.783 -0.099 19 15 14 0 0
-0.1392 0.1262 -0.4827 -0.718 0.695 -0.032 80 67 48 0 0
-0.1391 0.1261 -0.4845 -0.487 0.873 -0.027 94 81 61 0 0
-0.1379 0.1250 -0.4956 -0.789 0.609 -0.080 53 42 28 0 0
-0.1378 0.1249 -0.4974 -0.789 0.609 -0.080 53 42 30 0 0
-0.1377 0.1251 -0.5025 -0.320 0.901 0.292 46 38 26 0 0
-0.0876 0.0583 -0.6394 -0.431 0.830 0.355 43 38 33 0 0
-0.0981 0.0743 -0.6469 -0.554 0.637 0.536 33 28 25 0 0
-0.0986 0.0752 -0.6482 -0.617 0.748 0.244 37 32 29 0 0
-0.0989 0.0756 -0.6499 -0.586 0.748 0.313 41 37 33 0 0
-0.1354 0.1304 -0.6653 -0.677 0.699 0.229 100 84 51 0 0
-0.1390 0.1366 -0.6795 -0.637 0.683 0.357 160 139 94 0 0
-0.1387 0.1362 -0.6818 -0.534 0.622 0.573 168 147 103 0 0
-0.1350 0.1316 -0.6961 -0.711 0.613 0.344 97 82 53 0 0
-0.1239 0.1197 -0.7785 -0.843 0.509 0.174 47 34 23 0 0
-0.1239 0.1201 -0.7846 -0.729 0.094 0.678 53 39 21 0 0
-0.1437 0.1525 -0.8434 -0.438 0.860 0.263 130 110 71 0 0
-0.1445 0.1542 -0.8525 -0.826 0.543 0.151 132 120 89 0 0
-0.1426 0.1522 -0.8683 -0.764 0.620 -0.180 148 145 141 0 0
-0.1478 0.1598 -0.8660 -0.314 0.205 0.927 183 181 184 0 0
-0.0297 -0.0509 -0.1569 0.048 0.857 -0.514 178 178 179 0 0
-0.0269 -0.0548 -0.1592 -0.582 0.810 0.078 179 178 178 0 0
-0.0264 -0.0555 -0.1609 -0.761 0.558 0.331 177 177 174 0 0
-0.0288 -0.0507 -0.1852 -0.906 0.303 0.296 173 155 115 0 0
-0.0297 -0.0492 -0.1864 -0.243 0.620 0.746 200 185 139 0 0
-0.0323 -0.0451 -0.1919 -0.707 0.595 0.383 140 124 91 0 0
-0.0326 -0.0445 -0.1934 -0.707 0.595 0.383 180 166 126 0 0
-0.0475 -0.0203 -0.2337 -0.980 0.061 0.187 70 59 41 0 0
-0.0823 0.0335 -0.2794 -0.298 0.836 0.461 51 39 30 0 0
-0.0825 0.0340 -0.2808 -0.346 0.903 0.256 125 106 81 0 0
-0.0824 0.0339 -0.2824 -0.227 0.740 0.633 167 149 115 0 0
-0.0908 0.0550 -0.4384 -0.044 0.997 0.057 15 11 9 0 0
-0.0914 0.0560 -0.4413 -0.571 0.778 0.261 11 9 8 0 0
-0.0941 0.0608 -0.4564 -0.513 0.737 0.440 17 13 12 0 0
-0.0934 0.0608 -0.4742 -0.373 0.853 0.364 29 21 17 0 0
-0.0947 0.0630 -0.4801 -0.467 0.687 0.557 67 58 49 0 0
-0.1383 0.1273 -0.4774 -0.920 0.332 0.207 89 75 52 0 0
-0.1387 0.1279 -0.4804 -0.829 0.549 -0.106 93 80 52 0 0
-0.1383 0.1275 -0.4824 -0.763 0.635 -0.125 92 79 52 0 0
-0.1418 0.1364 -0.5482 -0.208 0.934 0.291 105 89 61 0 0
-0.1091 0.0935 -0.6461 -0.902 -0.070 0.427 59 54 45 0 0
-0.1342 0.1315 -0.6650 -0.677 0.699 0.229 99 83 51 0 0
-0.1344 0.1319 -0.6667 -0.639 0.621 0.454 101 84 55 0 0
-0.1355 0.1339 -0.6728 -0.835 0.512 0.202 110 96 63 0 0
-0.1351 0.1335 -0.6751 -0.769 0.612 0.184 116 100 70 0 0
-0.1359 0.1347 -0.6761 -0.634 0.744 0.210 122 103 66 0 0
-0.1376 0.1373 -0.6776 -0.810 0.539 0.231 157 137 93 0 0
-0.1372 0.1370 -0.6819 -0.461 0.820 0.339 171 149 104 0 0
-0.1337 0.1326 -0.6959 -0.794 0.585 0.167 115 96 64 0 0
-0.1392 0.1417 -0.7136 -0.756 0.620 0.210 158 140 91 0 0
-0.1235 0.1220 -0.7770 -0.965 0.186 0.186 44 33 20 0 0
-0.1215 0.1199 -0.7901 -0.466 0.797 0.385 58 43 22 0 0
-0.1341 0.1388 -0.7962 -0.599 0.800 0.048 93 81 60 0 0
-0.0282 -0.0504 -0.1554 0.038 0.859 -0.510 178 178 179 0 0
-0.0256 -0.0540 -0.1591 -0.484 0.875 0.024 175 174 170 0 0
-0.0510 -0.0117 -0.2443 -0.094 0.261 0.961 101 92 76 0 0
-0.0900 0.0568 -0.4413 -0.383 0.865 0.325 8 7 5 0 0
-0.1375 0.1290 -0.4819 -0.817 0.569 -0.092 123 109 71 0 0
-0.1372 0.1286 -0.4839 -0.817 0.575 -0.047 115 101 66 0 0
-0.0947 0.0752 -0.6456 -0.863 0.175 0.474 42 37 34 0 0
-0.1090 0.0962 -0.6446 -0.799 -0.062 0.598 65 60 51 0 0
-0.1337 0.1339 -0.6676 -0.698 0.477 0.534 85 66 42 0 0
-0.1367 0.1388 -0.6771 -0.535 0.529 0.658 149 132 89 0 0
-0.1358 0.1377 -0.6820 -0.296 0.820 0.489 169 149 103 0 0
-0.1398 0.1512 -0.8161 -0.589 0.768 0.252 81 64 38 0 0
-0.0939 0.0589 -0.3311 -0.539 0.636 0.553 18 9 3 0 0
-0.0876 0.0560 -0.4422 -0.105 0.925 0.365 5 5 4 0 0
-0.0898 0.0610 -0.4714 -0.582 0.640 0.502 30 22 20 0 0
-0.0946 0.0781 -0.6460 -0.838 0.248 0.487 38 33 30 0 0
-0.0956 0.0797 -0.6467 -0.910 0.414 -0.030 36 31 28 0 0
-0.1149 0.1079 -0.6474 -0.584 0.260 0.769 73 65 54 0 0
-0.1330 0.1357 -0.6668 -0.626 0.671 0.398 89 73 48 0 0
-0.1359 0.1408 -0.6819 -0.880 0.460 0.122 177 157 107 0 0
-0.1396 0.1483 -0.7191 -0.646 0.532 0.548 105 91 57 0 0
-0.1296 0.1357 -0.7543 -0.945 0.323 -0.046 59 51 39 0 0
-0.1291 0.1351 -0.7570 -0.823 0.525 -0.216 70 61 44 0 0
-0.1287 0.1346 -0.7597 -0.793 0.425 -0.436 79 69 48 0 0
-0.1314 0.1409 -0.7980 -0.513 0.856 -0.066 70 57 32 0 0
-0.1392 0.1534 -0.8169 -0.644 0.690 0.331 82 64 37 0 0
-0.1389 0.1540 -0.8359 -0.807 0.589 0.036 59 42 24 0 0
-0.0521 -0.0046 -0.2443 -0.231 0.720 0.654 97 89 74 0 0
-0.0925 0.0596 -0.3312 -0.334 0.796 0.504 20 10 5 0 0
-0.0945 0.0634 -0.3458 -0.532 0.845 -0.049 68 57 39 0 0
-0.0943 0.0635 -0.3523 -0.532 0.847 -0.007 56 44 31 0 0
-0.0865 0.0566 -0.4283 -0.043 0.947 0.317 43 33 24 0 0
-0.1368 0.1352 -0.5153 -0.389 0.841 0.376 78 68 47 0 0
-0.0741 0.0504 -0.6340 -0.255 0.943 0.214 44 37 31 0 0
-0.0938 0.0798 -0.6453 -0.838 0.248 0.487 33 28 25 0 0
-0.0945 0.0809 -0.6464 -0.714 0.697 0.070 36 31 28 0 0
-0.0944 0.0809 -0.6485 -0.953 0.298 -0.061 63 58 54 0 0
-0.1347 0.1421 -0.6855 -0.395 0.650 0.649 157 136 90 0 0
-0.1288 0.1344 -0.7028 -0.475 0.633 0.611 34 25 13 0 0
-0.1356 0.1448 -0.7091 -0.567 0.311 0.763 128 113 78 0 0
-0.1384 0.1494 -0.7168 -0.348 0.865 0.362 129 113 75 0 0
-0.1384 0.1495 -0.7188 -0.260 0.926 0.274 107 93 55 0 0
-0.1345 0.1494 -0.8157 -0.164 0.647 0.745 167 151 107 0 0
-0.1394 0.1585 -0.8495 -0.629 0.669 0.396 137 123 87 0 0
-0.0208 -0.0528 -0.1546 0.291 0.867 0.404 179 179 179 0 0
-0.0207 -0.0527 -0.1577 -0.261 0.675 0.690 123 117 101 0 0
-0.0414 -0.0191 -0.2150 -0.780 0.519 0.351 180 165 123 0 0
-0.0872 0.0568 -0.3672 0.008 0.985 -0.173 58 45 29 0 0
-0.0867 0.0561 -0.3691 -0.336 0.934 -0.124 63 50 34 0 0
-0.1354 0.1356 -0.5120 -0.839 0.545 -0.014 72 61 34 0 0
-0.0721 0.0505 -0.6346 -0.622 0.768 0.153 55 48 42 0 0
-0.1268 0.1376 -0.7563 -0.447 0.877 -0.173 92 81 57 0 0
-0.1265 0.1373 -0.7588 -0.479 0.833 -0.276 95 83 61 0 0
-0.1292 0.1441 -0.8074 -0.624 0.772 0.120 107 92 60 0 0
-0.0181 -0.0538 -0.1549 0.237 0.788 0.568 178 176 170 0 0
-0.0192 -0.0521 -0.1577 -0.063 0.832 0.551 96 84 68 0 0
-0.0857 0.0544 -0.3193 -0.170 0.703 0.690 105 84 62 0 0
-0.0843 0.0556 -0.3714 -0.357 0.933 -0.037 50 37 20 0 0
-0.0812 0.0554 -0.4438 -0.098 0.971 0.219 6 5 5 0 0
-0.0811 0.0553 -0.4457 -0.608 0.780 0.149 7 6 7 0 0
-0.0831 0.0593 -0.4631 -0.604 0.671 0.430 26 22 19 0 0
-0.1340 0.1331 -0.4575 -0.196 0.898 0.395 195 178 127 0 0
-0.1328 0.1318 -0.4650 -0.535 0.704 0.467 118 103 71 0 0
-0.1328 0.1319 -0.4667 -0.348 0.698 0.626 101 86 57 0 0
-0.1339 0.1335 -0.4673 -0.608 0.722 0.329 98 84 56 0 0
-0.1350 0.1351 -0.4681 -0.556 0.644 0.526 111 95 64 0 0
-0.1345 0.1372 -0.5132 -0.924 0.361 0.122 85 74 56 0 0
-0.1352 0.1383 -0.5159 -0.769 0.578 0.274 71 58 39 0 0
-0.0909 0.0816 -0.6453 -0.733 0.609 0.304 34 29 26 0 0
-0.0921 0.0833 -0.6459 -0.777 0.599 0.193 47 40 38 0 0
-0.0931 0.0849 -0.6467 -0.870 0.054 0.489 48 41 39 0 0
-0.1315 0.1432 -0.6861 -0.710 0.700 0.074 174 156 108 0 0
-0.1328 0.1455 -0.6939 -0.533 0.843 -0.076 51 42 22 0 0
-0.1327 0.1454 -0.6960 -0.620 0.781 -0.069 23 16 9 0 0
-0.1255 0.1387 -0.7582 -0.596 0.764 -0.248 96 84 59 0 0
-0.1243 0.1372 -0.7618 -0.578 0.621 -0.529 77 68 47 0 0
-0.1243 0.1393 -0.7961 -0.663 0.511 0.548 80 66 39 0 0
-0.1245 0.1397 -0.7978 -0.478 0.685 0.550 89 73 47 0 0
-0.1264 0.1424 -0.7971 -0.599 0.587 0.545 74 60 31 0 0
-0.1272 0.1436 -0.7980 -0.351 0.790 0.503 83 68 38 0 0
-0.1279 0.1451 -0.8072 -0.624 0.772 0.120 89 71 41 0 0
-0.1310 0.1502 -0.8147 -0.538 0.783 0.313 196 178 135 0 0
-0.1313 0.1507 -0.8163 -0.538 0.783 0.313 179 161 121 0 0
-0.1352 0.1596 -0.8705 -0.402 0.845 0.354 165 163 165 0 0
-0.0164 -0.0535 -0.1549 -0.233 0.539 0.810 161 158 146 0 0
-0.0174 -0.0518 -0.1577 -0.354 0.555 0.752 89 75 58 0 0
-0.0240 -0.0414 -0.1714 -0.170 0.951 0.259 141 122 82 0 0
-0.0242 -0.0408 -0.1791 -0.684 0.719 0.123 138 121 85 0 0
-0.0240 -0.0409 -0.1808 -0.599 0.800 -0.025 172 153 113 0 0
-0.0428 -0.0100 -0.2384 -0.381 0.767 0.516 40 31 25 0 0
-0.0435 -0.0089 -0.2413 -0.288 0.876 0.386 16 14 12 0 0
-0.0430 -0.0096 -0.2431 -0.542 0.819 0.190 14 12 11 0 0
-0.0889 0.0638 -0.3531 -0.219 0.939 0.264 78 65 49 0 0
-0.0893 0.0645 -0.3545 -0.573 0.780 0.252 75 62 45 0 0
-0.0816 0.0557 -0.3937 -0.355 0.903 0.242 56 44 34 0 0
-0.0813 0.0559 -0.4039 -0.654 0.734 0.186 29 22 16 0 0
-0.0815 0.0563 -0.4054 -0.606 0.750 0.265 27 20 14 0 0
-0.0821 0.0582 -0.4217 -0.802 0.485 0.350 33 24 15 0 0
-0.0814 0.0597 -0.4633 -0.670 0.487 0.560 29 25 22 0 0
-0.0837 0.0634 -0.4701 -0.559 0.754 0.345 46 38 33 0 0
-0.1327 0.1340 -0.4608 -0.697 0.710 0.097 125 108 72 0 0
-0.1342 0.1365 -0.4676 -0.488 0.786 0.380 102 87 59 0 0
-0.1342 0.1366 -0.4693 -0.577 0.729 0.367 110 95 63 0 0
-0.1353 0.1429 -0.5451 -0.663 0.625 0.411 166 150 107 0 0
-0.0908 0.0845 -0.6457 -0.255 0.924 0.285 46 39 37 0 0
-0.1110 0.1139 -0.6473 -0.092 0.445 0.891 69 61 50 0 0
-0.1224 0.1306 -0.6507 -0.143 0.615 0.775 125 106 70 0 0
-0.1253 0.1411 -0.7546 -0.328 0.901 0.282 105 94 65 0 0
-0.1257 0.1418 -0.7559 -0.363 0.930 0.062 96 85 57 0 0
-0.1265 0.1461 -0.8070 -0.624 0.772 0.120 72 55 31 0 0
-0.1259 0.1460 -0.8182 -0.706 0.607 0.365 102 89 55 0 0
-0.1297 0.1512 -0.8146 -0.468 0.819 0.333 180 163 121 0 0
-0.1300 0.1517 -0.8162 -0.468 0.819 0.333 184 165 123 0 0
-0.1344 0.1583 -0.8197 -0.639 0.635 0.434 92 67 40 0 0
-0.1325 0.1559 -0.8246 -0.553 0.685 0.474 116 92 56 0 0
-0.1336 0.1575 -0.8250 -0.352 0.787 0.507 128 107 68 0 0
-0.1340 0.1584 -0.8306 -0.659 0.693 0.293 107 88 48 0 0
-0.1339 0.1587 -0.8369 -0.605 0.795 0.042 109 97 65 0 0
-0.0312 -0.0268 -0.1952 -0.421 0.628 0.654 205 188 137 0 0
-0.0315 -0.0262 -0.1966 -0.566 0.531 0.630 192 175 127 0 0
-0.0375 -0.0166 -0.2117 -0.628 0.624 0.465 114 96 64 0 0
-0.0419 -0.0087 -0.2367 -0.230 0.952 0.202 42 30 22 0 0
-0.0416 -0.0087 -0.2431 -0.542 0.819 0.190 14 12 12 0 0
-0.0543 0.0109 -0.2629 -0.131 0.684 0.718 100 86 62 0 0
-0.0819 0.0610 -0.4259 -0.828 0.545 0.134 38 30 21 0 0
-0.0765 0.0544 -0.4471 -0.070 0.715 0.696 8 7 7 0 0
-0.0804 0.0611 -0.4647 -0.451 0.736 0.505 28 25 21 0 0
-0.1297 0.1317 -0.4509 -0.308 0.876 0.370 100 91 78 0 0
-0.1316 0.1354 -0.4671 -0.469 0.685 0.558 83 68 42 0 0
-0.1328 0.1372 -0.4677 -0.439 0.870 0.226 89 75 47 0 0
-0.1330 0.1375 -0.4692 -0.439 0.870 0.226 105 92 58 0 0
-0.1353 0.1413 -0.4769 -0.533 0.832 0.155 122 110 74 0 0
-0.1335 0.1408 -0.5101 -0.790 0.609 -0.064 74 61 46 0 0
-0.1329 0.1401 -0.5122 -0.687 0.726 -0.033 144 133 115 0 0
-0.1328 0.1414 -0.5361 -0.864 0.441 0.243 127 114 79 0 0
-0.1330 0.1418 -0.5376 -0.820 0.490 0.295 140 128 89 0 0
-0.1345 0.1445 -0.5463 -0.665 0.625 0.410 161 145 104 0 0
-0.1350 0.1456 -0.5527 -0.876 0.457 0.155 147 129 91 0 0
-0.1269 0.1408 -0.6641 -0.539 0.635 0.554 95 79 56 0 0
-0.1270 0.1410 -0.6659 -0.504 0.828 0.245 78 60 35 0 0
-0.1293 0.1465 -0.7007 -0.327 0.818 0.472 20 15 11 0 0
-0.1344 0.1546 -0.7130 -0.723 0.658 0.210 113 94 58 0 0
-0.1259 0.1487 -0.8140 -0.542 0.836 0.082 82 69 41 0 0
-0.1260 0.1488 -0.8160 -0.450 0.792 0.413 95 81 50 0 0
-0.1312 0.1569 -0.8245 -0.553 0.685 0.474 96 74 46 0 0
-0.1317 0.1578 -0.8257 -0.710 0.551 0.437 102 83 48 0 0
-0.1324 0.1590 -0.8287 -0.659 0.693 0.293 98 78 42 0 0
-0.1327 0.1595 -0.8304 -0.642 0.715 0.278 107 86 46 0 0
-0.1365 0.1675 -0.8722 -0.575 0.681 -0.453 191 189 192 0 0
-0.0250 -0.0335 -0.1858 -0.720 0.505 0.475 155 140 99 0 0
-0.0255 -0.0327 -0.1872 -0.720 0.505 0.475 166 151 113 0 0
-0.0304 -0.0251 -0.1965 -0.566 0.531 0.630 178 159 115 0 0
-0.0333 -0.0207 -0.1987 -0.594 0.674 0.439 137 121 85 0 0
-0.0421 -0.0062 -0.2266 -0.567 0.816 0.113 59 50 33 0 0
-0.0403 -0.0078 -0.2430 -0.542 0.819 0.190 14 11 11 0 0
-0.0556 0.0158 -0.2680 0.044 0.709 0.704 91 74 58 0 0
-0.0760 0.0477 -0.3083 -0.296 0.955 -0.004 68 57 37 0 0
-0.0821 0.0669 -0.4709 -0.528 0.782 0.332 61 49 42 0 0
-0.1286 0.1327 -0.4507 -0.538 0.800 0.268 95 85 74 0 0
-0.1308 0.1369 -0.4683 -0.494 0.746 0.446 87 68 40 0 0
-0.1316 0.1382 -0.4692 -0.439 0.870 0.226 99 84 52 0 0
-0.1336 0.1415 -0.4773 -0.703 0.709 0.052 82 71 46 0 0
-0.1335 0.1414 -0.4790 -0.895 0.445 -0.015 80 68 45 0 0
-0.1320 0.1423 -0.5253 -0.894 0.337 0.294 78 67 50 0 0
-0.1327 0.1440 -0.5366 -0.726 0.513 0.458 141 128 88 0 0
-0.1324 0.1437 -0.5386 -0.747 0.628 0.219 153 137 98 0 0
-0.1328 0.1446 -0.5433 -0.836 0.527 0.153 161 144 100 0 0
-0.0866 0.0842 -0.6433 0.027 0.864 0.503 37 32 28 0 0
-0.1245 0.1399 -0.6597 -0.478 0.740 0.473 93 79 50 0 0
-0.1248 0.1404 -0.6612 -0.579 0.716 0.391 55 40 18 0 0
-0.1253 0.1412 -0.6625 -0.585 0.666 0.462 61 45 23 0 0
-0.1309 0.1527 -0.7158 -0.661 0.418 0.623 107 87 57 0 0
-0.1197 0.1412 -0.7926 -0.378 0.669 0.640 53 42 27 0 0
-0.1310 0.1599 -0.8287 -0.579 0.759 0.298 122 100 59 0 0
-0.1313 0.1604 -0.8304 -0.580 0.745 0.328 122 101 58 0 0
-0.0195 -0.0404 -0.1591 -0.810 -0.004 0.587 189 173 120 0 0
-0.0215 -0.0369 -0.1693 -0.851 0.521 0.065 184 165 116 0 0
-0.0318 -0.0201 -0.1987 -0.258 0.847 0.464 101 85 63 0 0
-0.0377 -0.0078 -0.2578 0.541 0.830 -0.136 15 15 15 0 0
-0.0724 0.0447 -0.3000 -0.589 0.723 0.361 131 111 79 0 0
-0.0778 0.0576 -0.3786 -0.423 0.693 0.584 57 48 34 0 0
-0.0777 0.0581 -0.3886 -0.492 0.830 0.263 31 22 15 0 0
-0.0779 0.0584 -0.3901 -0.547 0.820 0.169 27 18 11 0 0
-0.0802 0.0666 -0.4679 -0.291 0.854 0.431 28 23 20 0 0
-0.0815 0.0689 -0.4737 -0.395 0.844 0.363 84 78 69 0 0
-0.0823 0.0704 -0.4782 -0.531 0.763 0.369 44 33 27 0 0
-0.1315 0.1410 -0.4747 -0.747 0.541 0.387 89 75 56 0 0
-0.1321 0.1419 -0.4758 -0.856 0.438 0.274 89 75 57 0 0
-0.1330 0.1432 -0.4767 -0.890 0.455 0.022 92 82 61 0 0
-0.1325 0.1472 -0.5491 -0.569 0.718 0.401 160 142 100 0 0
-0.0861 0.0864 -0.6443 -0.548 0.416 0.726 49 43 40 0 0
-0.0960 0.1008 -0.6465 -0.430 0.245 0.869 52 45 37 0 0
-0.1245 0.1430 -0.6655 -0.667 0.683 0.297 77 60 30 0 0
-0.1096 0.1292 -0.7846 -0.530 0.503 0.682 62 53 38 0 0
-0.1291 0.1600 -0.8274 -0.468 0.782 0.411 139 119 80 0 0
-0.1297 0.1609 -0.8286 -0.580 0.745 0.328 149 126 86 0 0
-0.0310 -0.0185 -0.1984 -0.256 0.853 0.455 72 59 41 0 0
-0.0707 0.0450 -0.3002 -0.308 0.816 0.490 129 110 78 0 0
-0.0725 0.0481 -0.3087 -0.011 0.991 0.134 83 71 49 0 0
-0.0766 0.0592 -0.3901 -0.492 0.830 0.263 40 29 18 0 0
-0.0765 0.0598 -0.4001 -0.599 0.693 0.401 67 54 37 0 0
-0.0765 0.0600 -0.4017 -0.392 0.834 0.388 69 57 39 0 0
-0.0781 0.0652 -0.4477 -0.855 0.477 0.203 11 10 10 0 0
-0.0791 0.0681 -0.4693 -0.421 0.852 0.311 31 26 21 0 0
-0.0803 0.0702 -0.4753 -0.558 0.714 0.424 54 48 39 0 0
-0.0810 0.0713 -0.4782 -0.545 0.769 0.335 50 39 35 0 0
-0.1314 0.1476 -0.5386 -0.867 0.376 0.326 162 145 102 0 0
-0.1315 0.1479 -0.5402 -0.777 0.599 0.195 163 147 105 0 0
-0.1313 0.1481 -0.5508 -0.563 0.803 0.195 139 120 81 0 0
-0.1321 0.1495 -0.5516 -0.460 0.865 0.199 129 107 69 0 0
-0.0940 0.1008 -0.6452 -0.309 0.032 0.951 56 49 42 0 0
-0.1262 0.1491 -0.6786 -0.561 0.777 0.287 130 110 72 0 0
-0.1243 0.1475 -0.6941 -0.421 0.853 -0.309 102 87 62 0 0
-0.1284 0.1556 -0.7289 -0.472 0.817 -0.331 160 142 94 0 0
-0.1242 0.1500 -0.7365 -0.612 0.659 -0.437 152 133 90 0 0
-0.1169 0.1408 -0.7563 -0.020 0.948 0.318 87 75 47 0 0
-0.1100 0.1320 -0.7739 -0.181 0.885 -0.428 27 20 11 0 0
-0.1093 0.1312 -0.7769 -0.590 0.724 -0.358 30 22 13 0 0
-0.1077 0.1293 -0.7832 0.186 0.874 0.450 53 45 33 0 0
-0.1080 0.1298 -0.7848 0.038 0.879 0.476 62 52 39 0 0
-0.1085 0.1307 -0.7861 -0.131 0.901 0.413 98 86 69 0 0
-0.1089 0.1313 -0.7876 -0.199 0.861 0.468 113 100 78 0 0
-0.1198 0.1479 -0.8025 -0.359 0.891 0.278 52 35 18 0 0
-0.1200 0.1483 -0.8042 -0.359 0.891 0.278 48 35 18 0 0
-0.1254 0.1563 -0.8064 -0.583 0.805 -0.114 91 74 42 0 0
-0.1289 0.1634 -0.8400 -0.671 0.742 0.016 150 135 94 0 0
-0.1322 0.1701 -0.8701 -0.172 0.191 0.967 188 187 190 0 0
-0.1335 0.1720 -0.8701 -0.105 0.046 0.993 192 190 193 0 0
-0.0756 0.0606 -0.3898 -0.563 0.731 0.386 65 52 37 0 0
-0.0748 0.0601 -0.4003 -0.314 0.881 0.354 65 53 37 0 0
-0.0745 0.0621 -0.4375 -0.668 0.726 0.163 11 11 10 0 0
-0.0771 0.0665 -0.4475 -0.865 0.478 0.150 11 8 6 0 0
-0.1313 0.1473 -0.4956 -0.749 0.629 0.207 100 83 51 0 0
-0.0789 0.0815 -0.6376 -0.412 0.854 0.317 65 56 47 0 0
-0.0790 0.0818 -0.6393 -0.221 0.871 0.439 58 50 42 0 0
-0.0924 0.1014 -0.6454 -0.228 0.224 0.948 56 48 43 0 0
-0.1060 0.1212 -0.6506 -0.012 0.862 0.507 83 69 55 0 0
-0.1073 0.1231 -0.6510 0.043 0.521 0.852 85 72 58 0 0
-0.1230 0.1463 -0.6622 -0.454 0.865 0.215 88 71 41 0 0
-0.1239 0.1482 -0.6703 -0.493 0.751 0.439 116 99 64 0 0
-0.1228 0.1481 -0.6943 -0.421 0.853 -0.309 90 76 54 0 0
-0.1255 0.1543 -0.7310 -0.658 0.608 -0.444 158 140 97 0 0
-0.1202 0.1480 -0.7499 -0.822 0.563 -0.088 79 67 41 0 0
-0.1063 0.1304 -0.7852 0.111 0.871 0.480 58 49 37 0 0
-0.1069 0.1313 -0.7864 -0.074 0.897 0.435 77 66 47 0 0
-0.1073 0.1320 -0.7878 -0.132 0.702 0.700 113 98 74 0 0
-0.1122 0.1394 -0.7931 -0.498 0.777 0.384 105 82 52 0 0
-0.1184 0.1488 -0.8025 -0.569 0.695 0.440 60 42 22 0 0
-0.1199 0.1511 -0.8043 -0.155 0.654 0.741 46 32 15 0 0
