ply
format ascii 1.0
element vertex 670
property float x
property float y
property float z
property uchar diffuse_red
property uchar diffuse_green
property uchar diffuse_blue
end_header
-0.011435435399812809 0.1364719496579946 -0.8068969089911235 74 57 38
-0.011406278967340443 0.13638772955459577 -0.8091154654864756 58 40 22
-0.011257474476387148 0.13674329190756865 -0.8109536839620072 57 38 21
-0.010742317266399098 0.13844650719679663 -0.8116143625321353 59 41 22
-0.010674161319783576 0.13850534695877464 -0.8137124258990232 59 42 18
-0.010247888021598067 0.13988196200527406 -0.8146543875745362 75 55 31
-0.010109892680622734 0.14019767798505106 -0.8165283658181288 84 63 38
-0.009954154984394406 0.1405785827406631 -0.818346254013341 80 58 36
-0.009892662764487643 0.14061230032636657 -0.8204730930481969 104 87 63
-0.009909523727621203 0.1403571533360939 -0.8228594712701134 97 79 54
-0.009584056091802663 0.14136284271762167 -0.8241267166705343 115 96 68
-0.009766605141546626 0.1404966496984707 -0.8270643878524548 93 74 50
-0.009536226391518049 0.14115177242648835 -0.8286466394407677 93 78 52
-0.009270782278962213 0.14193616594759187 -0.8301127955228136 107 92 65
-0.009016695535470819 0.14267873750943358 -0.8316159774503137 91 78 51
-0.008770973151021232 0.14339049938180498 -0.8331465374519417 85 69 42
-0.00826069599341319 0.14507818308813297 -0.8337936770941299 123 108 77
-0.008084046651997141 0.14553534929313944 -0.8355523623005096 106 90 62
-0.007754472744236358 0.14655678334402497 -0.836798686827712 99 80 50
-0.00752698251091017 0.1472015676816018 -0.8383867543481839 104 85 50
-0.007310302198559625 0.1478064405887936 -0.8400113355063283 133 114 72
-0.007367587548134831 0.14739961991276457 -0.8425635115662369 141 122 87
-0.006917200110398994 0.14886743544750575 -0.843397834753418 104 85 60
-0.006905384953782109 0.14871539319066251 -0.8457208103898403 98 82 55
-0.006851379016613812 0.1487189080117195 -0.8479038826103643 115 99 67
-0.006664252794343378 0.14921413899208055 -0.8496346305224306 118 103 70
-0.0065959193022525064 0.14927017176853988 -0.8517739079439995 102 89 58
-0.006167663034020547 0.1506567336738505 -0.8526774654324467 153 141 109
-0.006132317988624604 0.1505905448727683 -0.8549332979863262 137 123 89
-0.006245891332922859 0.14997320163125882 -0.8577082211251653 127 111 81
-0.0063524782657001025 0.14938116324708697 -0.8604654599505135 97 88 71
-0.005762414271030469 0.15136660175512137 -0.8608047796628919 39 38 34
-0.005904398196292217 0.15064303080495478 -0.8636917614817541 34 32 26
-0.006201608780234909 0.14934419242831126 -0.8671290703764835 63 58 52
-7.442308033974582e-05 0.17066088019616915 -0.8621989261513047 190 189 187
0.000335881172561045 0.17198576546455283 -0.8631075206804444 193 192 190
0.0006428777087170781 0.17292773864787722 -0.8643830423814478 194 193 191
0.001052833470563251 0.17425184406605926 -0.8652866936269903 194 193 191
0.0017786258741953748 0.17674832753986655 -0.8650477486928068 194 193 191
0.0024437180285389534 0.1790203155203347 -0.8650184666998284 200 199 197
0.0017503665624381756 0.17624958192670268 -0.8699061527037516 202 201 199
-0.00012761770365168207 0.16907823949569584 -0.879119074798524 203 202 200
-0.06963467898034881 -0.020484820535221313 -0.23453630943949488 178 179 180
-0.06887356714402156 -0.01796536730810261 -0.23559692654315317 178 176 172
-0.06822840867277402 -0.01585071737347156 -0.23674210924989286 158 151 139
-0.06760953391436 -0.01382756111078412 -0.23790334977092423 141 128 113
-0.0669099449775996 -0.01152184408181356 -0.23899656335731148 144 129 109
-0.06625068448281371 -0.00935670364232015 -0.24011668268447117 162 147 118
-0.06579809826628995 -0.007913927166286167 -0.2413974615894137 190 175 141
-0.06383204018964223 -0.001177435244550662 -0.24145645415570446 184 168 135
-0.06374954847676728 -0.0010281428626719435 -0.24302418778592413 182 167 132
-0.06344337193064996 -9.640753954813508e-05 -0.24441071430148742 171 156 124
-0.06269475062655966 0.002383505268840111 -0.24543272705806102 160 141 111
-0.06236121608141097 0.0034113511842275707 -0.24679224191787114 166 144 111
-0.061721804934350935 0.005509833974836634 -0.24789587254564172 193 176 136
-0.06136054459266651 0.006635092276838506 -0.24922789880737622 183 168 132
-0.061298335362036396 0.006713578159704123 -0.25081040801742793 126 112 84
-0.06093647426027016 0.007841078700852655 -0.2521402950036744 62 50 34
-0.06058897939222152 0.008918411818329156 -0.2534808196121815 46 36 29
-0.06018408207554429 0.010196902612906455 -0.25477055122554165 46 34 30
-0.059907013802827716 0.01102783712360067 -0.2561686971749546 49 33 26
-0.061079161104611035 0.006782131205047864 -0.25882685427829105 64 47 31
-0.060013651686160525 0.010374847782062435 -0.2595412333213789 101 84 58
-0.059320460808743834 0.01266375213898828 -0.2605742815742822 170 151 114
-0.059306973423004436 0.012571113199718695 -0.2622044442093099 199 182 140
-0.05925649245720567 0.012607951471703877 -0.26380376084676116 174 159 118
-0.05903755543122576 0.013235144013871838 -0.2652537007307022 145 131 96
-0.058447080748177754 0.015164897633146546 -0.266368228394517 91 76 50
-0.05802841624608265 0.01649258485753699 -0.2676346094784929 57 42 21
-0.05775648106099768 0.017305919425477878 -0.2690327417392806 69 55 35
-0.05756806484240324 0.017826390479365184 -0.27050694414371246 101 87 69
-0.05719383175973204 0.01899863260950027 -0.27180961609602616 115 100 75
-0.056709723664303185 0.020556489033299666 -0.2730083161469921 138 123 96
-0.05672169937031835 0.020374020882058974 -0.2746680276467108 75 58 42
-0.05596066824782153 0.02290391263871709 -0.2756028753860115 109 92 70
-0.05524833444266801 0.025263414599000084 -0.2765777364379857 178 160 133
-0.05537694244045775 0.024671639896045802 -0.27834754528402467 148 125 96
-0.05480772509283303 0.026529278845396354 -0.27945296822080135 156 138 103
-0.0548329413722413 0.026300204055717563 -0.28112682739775413 113 97 65
-0.05455007458577961 0.02715273122702838 -0.2825049043493062 95 77 53
-0.0543137288894746 0.027841948685690357 -0.2839274793916029 99 81 60
-0.05356010749230919 0.030348077330341977 -0.2848430252903677 106 90 67
-0.05301133053896619 0.032135126836977196 -0.28595432067101056 113 99 72
-0.052120838360260324 0.035123068085469666 -0.28672327479987936 105 91 65
-0.05210713751755237 0.03503075614395558 -0.2883581903169385 49 38 26
-0.0522627307406498 0.0343433067407401 -0.29016489757005043 18 11 7
-0.051856507723928705 0.035630176162333355 -0.29140964141946657 17 11 6
-0.05123488681200397 0.037674415422066246 -0.29243394709478127 63 51 39
-0.05224601912491067 0.03397870572898645 -0.2951169448943386 144 127 102
-0.051835631449877184 0.03528021095626632 -0.2963575173534821 177 158 125
-0.0516118583573036 0.035925641187127724 -0.29778803129759324 134 114 84
-0.05139187339948381 0.036557762181044215 -0.2992223000998607 103 82 53
-0.05114621818741086 0.03728019322714042 -0.30062971388091325 127 109 76
-0.05101308581876606 0.037606787963587116 -0.3021545122411351 123 107 70
-0.05075251401937921 0.03838172166773886 -0.30354602890144894 114 95 60
-0.05083292593534315 0.03795674580905839 -0.30529779960607595 101 83 55
-0.05055573004801113 0.038790124657391234 -0.3066723915492138 47 30 10
-0.05036102674962853 0.039333189118933534 -0.3081344420733586 68 52 29
-0.050047018422082916 0.04029626068055352 -0.3094683682792437 111 96 70
-0.0498994790557412 0.04067328882396201 -0.31098104769562157 121 107 80
-0.049568477681947054 0.04169632526135077 -0.3122950609505182 110 96 66
-0.04922727809320257 0.04275539891575139 -0.3135965383227032 134 118 85
-0.0489374322225888 0.04363370764117909 -0.3149528939513253 95 75 47
-0.048599178910956845 0.0446826349105226 -0.31625488475677815 107 89 61
-0.04858613461955144 0.04458581884392754 -0.31791624271953234 106 90 64
-0.04804379829146932 0.04635402451834428 -0.31898950010037164 95 80 53
-0.047941971595707324 0.04656999522802173 -0.32055277813703803 114 98 71
-0.04787851814041369 0.04665059699043217 -0.3221605286389809 96 80 56
-0.04778858631990381 0.046824404132483635 -0.3237399645297316 89 73 50
-0.04771014099653824 0.046957593499763875 -0.3253338506739213 72 55 35
-0.04707734486921096 0.049045537634554506 -0.3262949435400046 73 56 38
-0.04703231467973701 0.049060890486742656 -0.327927065794273 82 66 46
-0.04687197884163857 0.049482813659564945 -0.3294278136194657 113 99 74
-0.04672413170128763 0.04986062975636861 -0.33094363147696426 135 123 96
-0.04649233806769959 0.05053458372984959 -0.3323621533998228 135 122 100
-0.046682899218585226 0.04971810655589684 -0.3342759575725815 73 61 43
-0.046589114454822673 0.0499048059381411 -0.3358591413898953 58 46 29
-0.04654981948836398 0.04989904631845221 -0.33750824374308047 55 43 30
-0.04621319452502452 0.05094281389345423 -0.3388052598622611 44 32 23
-0.046045356472682944 0.051390737468737846 -0.3403027720113744 45 34 23
-0.045745594542679166 0.052304496976803685 -0.3416421190753031 104 94 79
-0.045579374450201535 0.052746689355409535 -0.3431417825743811 152 144 126
-0.04538987214485058 0.053271081051552205 -0.34461367854632136 134 125 106
-0.04499179052026556 0.054532346170642315 -0.3458312839878544 90 80 65
-0.044744818279486176 0.05525986867270545 -0.3472319437540751 57 48 34
-0.0444593159727555 0.05612359172460993 -0.3485846819632442 57 49 33
-0.044440490424738605 0.05604484212982262 -0.3502666645657108 50 41 27
-0.04434945115955638 0.056221170989262076 -0.35186107331229377 44 34 24
-0.043901989786532016 0.05765748936250474 -0.35301139442941076 40 30 21
-0.04417843950237655 0.056534337907328855 -0.35506800190103965 38 30 19
-0.04426168000437721 0.056093969122641155 -0.3568866033299576 39 31 20
-0.04475456253053174 0.054204413751277894 -0.35922803319575486 44 34 23
-0.044519365542244796 0.05488970449112626 -0.3606504656833319 50 39 27
-0.04438730992184978 0.05521010843364128 -0.3622045919322634 59 47 33
-0.04429074181099498 0.05540486034564082 -0.3638052812470193 78 69 53
-0.04410460906833761 0.05591646579589754 -0.3652916397544524 91 81 69
-0.04334149850676039 0.05847026977626338 -0.36602951179578047 115 106 96
-0.042812488084617094 0.06019591937374806 -0.3670659395459386 123 115 104
-0.042695531276813484 0.06046300279897872 -0.36863822843431643 119 109 100
-0.04080798977439079 0.0669997358867425 -0.36788181770308326 114 104 95
-0.039481846308671104 0.07154996531177837 -0.36784721969649004 118 105 89
-0.03758071134964771 0.07813802021815001 -0.3670355199190641 158 141 111
-0.03751464411610733 0.07822690139974937 -0.3686512882172207 165 141 106
-0.03718656130353838 0.07924399125937578 -0.3699176356904471 164 139 100
-0.03705787853293768 0.07955460460561359 -0.3714509311310562 181 163 116
-0.036972403406169266 0.07971200239285721 -0.3730436017014624 179 157 116
-0.036543532040556145 0.08108650493178103 -0.3741712884604522 143 124 94
-0.03577077729875545 0.08368037529847806 -0.37482703460152567 94 80 63
-0.03534087163364295 0.08505918805291686 -0.37594575808726244 71 59 43
-0.035122502924795754 0.08568807254991657 -0.37735296588302275 74 58 42
-0.03486508521189567 0.08645546803098202 -0.37870601933644465 68 49 33
-0.03535872419584973 0.08455869943728705 -0.38110166840093407 65 47 28
-0.03530709834848261 0.08459569733666429 -0.3827451893368577 65 47 26
-0.034775578095754586 0.0863353626609251 -0.38371812214934187 65 47 25
-0.03470398053560092 0.08644316477529836 -0.3853343868145479 65 47 25
-0.034631609243178686 0.08655357143417275 -0.3869512212820249 72 52 31
-0.03443178734936897 0.08711627671655407 -0.38838874768735077 74 53 32
-0.03448768877405552 0.08677104184414827 -0.3901910395750078 73 51 30
-0.03455562318050335 0.08638280055464408 -0.3920138237977068 71 50 29
-0.03434263784524334 0.08699195788042374 -0.3934359127454172 70 49 28
-0.03438085025754556 0.08670885699864797 -0.3952208424394629 61 40 19
-0.03435780514893805 0.08664311755907343 -0.39691994415807447 69 49 26
-0.03385324023838443 0.08828807305561011 -0.3979196530142209 77 57 33
-0.03370626953125074 0.08866258520769962 -0.3994389767964859 79 59 35
-0.033588957250277426 0.08893162228996242 -0.4010026415730193 70 50 27
-0.03385329418092413 0.08784391233478314 -0.40313076078061644 73 52 31
-0.0336289343273965 0.08849313340715259 -0.40454039550898097 80 62 40
-0.03372210700231566 0.08801329722222764 -0.4064225015109399 86 68 46
-0.033729623978568615 0.0878377570485131 -0.40818034670912945 68 49 29
-0.0339792649466386 0.0868007857689926 -0.4103043938543063 61 42 23
-0.034142902892215624 0.08606926831099544 -0.4123045692458131 58 40 20
-0.03385780016810426 0.08693393891973147 -0.41363010367837155 57 39 20
-0.03371230787037361 0.08730189261986149 -0.41516690508186826 61 42 23
-0.03355461594452333 0.0877131970826032 -0.41668587943456525 56 37 20
-0.0334782143512829 0.08783508921257115 -0.4183301116858315 51 34 18
-0.03333272357718327 0.08820280248117938 -0.4198696738017095 54 37 21
-0.03322197381825674 0.08844674700712703 -0.4214637382015205 71 54 35
-0.03340614038382191 0.08764033289642863 -0.42351679054590446 87 72 50
-0.03352121708206193 0.08707957016007237 -0.4254671929694157 93 78 57
-0.033502059848950716 0.08699663232821417 -0.4272116837488543 81 69 50
-0.03329288666700446 0.08759048045105165 -0.4286600352239549 52 37 22
-0.033052594996906076 0.08829521533295846 -0.4300592896360823 56 41 25
-0.03267189033040331 0.08950040528580967 -0.43123570181687776 62 47 28
-0.03247470721559843 0.09005162640157371 -0.4327018195304232 61 44 26
-0.03227901414546393 0.09059752241667487 -0.43417047028137395 81 64 43
-0.03177019246076321 0.09225988655408776 -0.43513716932866786 75 58 35
-0.03163454261098783 0.0925918042900741 -0.43670081041893233 71 53 31
-0.03143343456773631 0.09315710937252702 -0.43815958550307593 79 62 40
-0.03340183551975438 0.08598326593296006 -0.4431396561759231 82 66 43
-0.033192454523462624 0.08657686696531362 -0.44459927172127855 79 63 40
-0.032920876159712884 0.08739240809524605 -0.4459571438038905 78 62 39
-0.03255559499832578 0.08854243272815301 -0.4471603038966776 77 61 38
-0.03178270681756677 0.09114756427330041 -0.44768924391893566 78 61 39
-0.03169129681163624 0.09132043824027765 -0.4493391251733589 68 52 31
-0.03164721523886327 0.09132419022200937 -0.4510692322813343 57 42 22
-0.03169776773363776 0.0909898058902017 -0.452959445066052 64 49 29
-0.0315074844108159 0.09151532032341728 -0.45444959656915507 69 54 34
-0.03126461683904515 0.09222865637120174 -0.45585156790379877 75 60 38
-0.031244870442937316 0.09214485847828806 -0.45762986550710033 74 59 41
-0.031188992255408613 0.09218995844950065 -0.4593494328257435 52 38 26
-0.03127986349187028 0.09171041027462443 -0.46132078405083554 32 18 10
-0.031121064733960983 0.09212296833014799 -0.4628695910514883 42 30 19
-0.03093182461114207 0.0926442975272789 -0.46436688068056436 85 71 57
-0.03072873732100959 0.09321511462559338 -0.4658406176941745 98 85 66
-0.030742150190687226 0.09301167388943861 -0.4676886508410833 135 120 94
-0.03046045221334276 0.09386352275264973 -0.4690276484325714 118 104 78
-0.03006514757438637 0.09512186187258678 -0.4701678324184404 118 105 79
-0.02993032931227348 0.09544841364205191 -0.4717609870400641 114 100 74
-0.029603150612087046 0.09646323710846381 -0.47301754831218135 107 92 67
-0.029014291626758795 0.09841476153989215 -0.4738115171127595 113 97 75
-0.0287978507078513 0.09903360092748026 -0.475259040556993 87 71 52
-0.028416036397518735 0.1002445170009427 -0.4764129028361041 81 63 45
-0.028029625198352767 0.10147209021201846 -0.47755626453125977 98 86 64
-0.02763084926207687 0.10274414834027701 -0.4786751323043435 100 87 66
-0.027294781833945594 0.10379180636133371 -0.4799040457688553 93 80 59
-0.027124444085373664 0.10424588247301132 -0.4814299482802618 85 72 50
-0.02689311025257244 0.10491846662040202 -0.48284604281463306 86 71 48
-0.026598990917768038 0.10581607728947008 -0.4841478379611401 88 73 50
-0.026465340053462173 0.10613862781324715 -0.48574097257197313 90 78 53
-0.026440576005072082 0.10607074988532215 -0.48753435647279963 92 78 55
-0.026532238360521387 0.1055852208583318 -0.4895440671067124 83 69 44
-0.026283817136564625 0.10631887484098523 -0.4909310764591058 82 68 40
-0.026220334580248264 0.10638927789329478 -0.49265970422171884 79 63 36
-0.02590666494399786 0.10735696854779614 -0.49392578315881985 80 63 38
-0.026260297482188426 0.10593067441134282 -0.4964341211598054 78 61 36
-0.026060339205803303 0.10649018238703511 -0.49791466450954497 76 59 33
-0.0259566942249544 0.10670401762841498 -0.49957618761889544 86 69 42
-0.025829053390217897 0.1070038598311351 -0.5011939732964037 83 68 40
-0.025718288294902178 0.1072430184635306 -0.5028448287420428 82 66 38
-0.02540199170411678 0.10822005622597995 -0.5041069239216034 73 56 30
-0.025454792377205757 0.10787169071465773 -0.5060707568359573 80 63 37
-0.02564202572857567 0.1070401495235032 -0.5082953064824082 87 72 43
-0.025691468825703237 0.10670314105592572 -0.5102609695073147 89 74 45
-0.026337035931023538 0.10422392129859212 -0.5133784315099206 86 66 39
-0.025632545793910392 0.10659530355099343 -0.5138981660563134 95 76 49
-0.024753163371181976 0.10959587600931563 -0.5140717300507048 88 71 43
-0.024510092359540343 0.11030981111323694 -0.5154748578605871 82 62 35
-0.024443171651658047 0.11039044773185387 -0.5172217453204923 87 70 42
-0.024270303783180344 0.11085190035702637 -0.5187628963797392 94 77 49
-0.023528849995198244 0.11335829845723713 -0.5191855713448482 92 75 47
-0.02345274404382853 0.11347192462323591 -0.5209149256137117 101 84 56
-0.023532899772277262 0.11302318550968377 -0.5229559251833114 108 91 63
-0.023723065580624952 0.1121782316902918 -0.5252198815854497 94 77 49
-0.023907622515685026 0.11135297987589843 -0.5274783278789318 95 78 48
-0.0240558189202909 0.11065813391150615 -0.5296695501304264 100 83 54
-0.02430132795602781 0.10961250276967852 -0.5320615386450219 99 82 54
-0.024477888129952396 0.10881459104755506 -0.5343209287937374 97 80 52
-0.02452735108349444 0.10847394169068614 -0.5363285271253082 105 88 57
-0.024181623921610742 0.10955647300200876 -0.5375368939612098 114 98 65
-0.024172402511405264 0.10942684545006402 -0.5394295134545019 112 96 66
-0.02403224249660934 0.1097687777845323 -0.5410571295389399 120 103 72
-0.023940492187966723 0.10993615720317274 -0.5427851984613656 120 104 73
-0.02370518664025131 0.11062083319842037 -0.5442192156115081 118 102 73
-0.023635747098796258 0.11070756936601998 -0.5459958855847755 117 101 71
-0.02399757052934953 0.1092391103087295 -0.5486694710557368 117 101 70
-0.024673908435059944 0.10663569579345142 -0.552006224375586 113 98 66
-0.024365165525366092 0.10758433329584935 -0.5532976518682966 115 99 68
-0.02442429514563254 0.10720595769626741 -0.5553590039569098 115 101 68
-0.024280642015397674 0.10755892357129111 -0.5569977022688553 111 98 64
-0.027526285744868706 0.0950075628421174 -0.573690654673227 89 78 57
-0.04075243922177301 0.046176751815472206 -0.614524625400896 45 38 30
-0.04296100154718962 0.03801240473368797 -0.6214648594126237 40 32 24
-0.043286549962393145 0.036654554890132585 -0.6243001395734755 39 30 21
-0.04290555272781327 0.037851539070922174 -0.6255846408888419 54 45 36
-0.042410506923386763 0.039461290755752165 -0.6266144356484112 56 47 38
-0.04174044687380664 0.04170461416702176 -0.6272515408180213 56 47 38
-0.041012051877699046 0.04415959861875596 -0.6277521012543646 78 70 58
-0.040528742712657724 0.04572812966358583 -0.6287933548764557 62 54 43
-0.03961452357810162 0.04885692807048539 -0.6288639522024492 71 63 51
-0.03871429802745904 0.05193593020141807 -0.6289558288424315 73 65 54
-0.038367937438207975 0.05301002149123313 -0.6302887528062745 84 76 63
-0.03788191827359856 0.05459011012207876 -0.6313034197745269 94 87 72
-0.03733254573968668 0.0564000356824888 -0.6321701807006465 75 68 52
-0.03664407677673187 0.05871436257818416 -0.6327147929094235 104 96 82
-0.03615876619704211 0.060293040441660534 -0.6337175002484814 92 85 72
-0.036009002839963694 0.06065582011772816 -0.6354869278750815 82 74 63
-0.0352699228425102 0.06315492065298262 -0.6358997194128793 77 69 59
-0.03438373427722341 0.06618808147567465 -0.6359647076743473 56 49 43
-0.03431816305863714 0.06624608411813263 -0.6379229457646237 41 36 33
-0.03384108175010016 0.0677965041935776 -0.638926122781907 51 46 42
-0.03343568330846111 0.06908719275370581 -0.6400928534192436 65 60 56
-0.03303079441898689 0.07037626291638824 -0.641258071904657 58 53 49
-0.032460710257788655 0.07226508190435982 -0.6420324097236468 58 54 50
-0.031958840498464834 0.07390674274371281 -0.6429623177786336 46 43 39
-0.03154932074655745 0.07521348945822229 -0.6441064377693222 38 33 29
-0.031138232098183616 0.07652617149863589 -0.6452440358213807 45 39 34
-0.030774755319718593 0.07766617942816947 -0.6464921448971486 54 52 46
-0.030278763084082373 0.07928771895598632 -0.6474216722780228 40 36 33
-0.0298701056761441 0.08059231786318308 -0.648556295229051 35 31 28
-0.02960380648303307 0.08137986346846299 -0.6500302910312943 38 34 31
-0.029082844932273456 0.08309300700821348 -0.6508895650975092 33 28 25
-0.02878280253928462 0.08400348459678592 -0.6522787210237526 29 24 21
-0.02851416554882078 0.08479987831792407 -0.6537429522506271 26 21 18
-0.02848625778094023 0.08472094268323607 -0.6557926494310168 21 15 15
-0.02831372831030831 0.0851677404206064 -0.6574921908773871 26 22 19
-0.028081172118679082 0.08583282681734009 -0.6590454854082556 31 27 23
-0.027701702082850554 0.08703245093563167 -0.6602375358242363 36 31 27
-0.027022794163824478 0.08932195092603301 -0.6606887484794728 37 32 26
-0.026584379494335147 0.09073672712598638 -0.6617278165207097 44 39 35
-0.02609893275874097 0.09232300351066625 -0.6626468170533679 31 27 24
-0.025532982533881553 0.09420274727686151 -0.6633612960944425 48 43 38
-0.024997822257408125 0.09597081991803649 -0.6641473012905692 57 52 43
-0.024380882787742815 0.09803718382121945 -0.6647235084194598 49 41 32
-0.023980347982178712 0.09931569516851732 -0.6658374213627158 45 39 29
-0.023523716416247446 0.10079884766878963 -0.6668071045941218 41 36 25
-0.023139438639830708 0.10201862522128702 -0.6679561032229133 52 45 35
-0.023056650105403476 0.10213965491959973 -0.6698675125711112 36 28 20
-0.022972319447004882 0.10226611465009838 -0.671777253290845 27 21 14
-0.0228816645076095 0.10241544512053521 -0.6736730842109894 28 24 18
-0.022767514161070576 0.10265028467838255 -0.6755108800128233 28 24 19
-0.02261949674789568 0.10300851521398202 -0.677263433800604 21 17 13
-0.022455544659306048 0.10342477898222305 -0.6789761509301498 32 30 28
-0.02228528960296757 0.10386396030013764 -0.6806735510453097 14 12 13
-0.022233065466056086 0.10350679335577062 -0.68696760993502 4 4 4
-0.022542557156031463 0.10145654994378636 -0.6985760026933098 6 6 6
-0.023279237333019835 0.0985786806746036 -0.702705545257595 6 6 6
-0.023325610953110948 0.098223320544262 -0.705010145396789 10 8 8
-0.023575133427529357 0.09712469719535799 -0.7078625946997019 15 11 10
-0.02373713403439156 0.09634552019983597 -0.7104880654891569 18 14 12
-0.02342165003737403 0.09731254527128827 -0.711834978970104 22 18 15
-0.02296495806159661 0.09879636295852179 -0.7127992859633967 35 31 28
-0.022167169316061677 0.10152879139658219 -0.712836265128763 55 51 48
-0.021261574427553664 0.10465662917598803 -0.7125710387509415 54 50 47
-0.02052594920015329 0.10716315689320613 -0.7127576110097611 52 48 45
-0.019366440221490006 0.11122256016689766 -0.7117775040099449 55 51 47
-0.01802674969941693 0.11594319160742989 -0.7102880611442214 55 52 47
-0.017869031530853986 0.11633563918931325 -0.7120294218745169 59 56 51
-0.016866528416627738 0.11982318067720582 -0.7114424730797735 54 51 46
-0.01628915655010616 0.12175389698665609 -0.7120183538865111 57 54 49
-0.01578742473764691 0.12340787295860156 -0.7127981627417723 64 59 55
-0.015397609283970812 0.1246519583527865 -0.7138847254342726 59 54 48
-0.014724400275121806 0.12693540948621207 -0.7141775724428057 66 60 52
-0.01401654614237207 0.12934656408958842 -0.7143658744928147 71 62 55
-0.013525535304478635 0.13096299719852944 -0.7151548521147216 62 53 43
-0.012505470646736717 0.1345208535113845 -0.7144493894221986 86 74 51
-0.012134169830574096 0.13569915154529447 -0.7155629664295473 103 86 61
-0.011863012484562688 0.13651010601472358 -0.7169577291963467 62 46 27
-0.011618128802198598 0.13722468005097543 -0.7184263119511877 61 46 27
-0.011159763789347396 0.13872314268261152 -0.7192860603236009 69 52 34
-0.010850550934820416 0.13967418762677558 -0.7205681445916929 88 71 52
-0.010796921121313599 0.13968654618880116 -0.7225815199230643 96 81 60
-0.010514865093255936 0.14053788764885977 -0.7239408835151164 68 56 40
-0.010091987181750355 0.1419067929321534 -0.7248930495427859 65 53 37
-0.009894142489999688 0.1424489027011586 -0.7264927369097727 119 106 79
-0.009718823305573672 0.1429081711965467 -0.7281581817129237 141 124 93
-0.009866610528959263 0.14217935012376876 -0.7307646506523436 95 80 47
-0.009941613837462074 0.14171765795068528 -0.7331650538726964 117 102 68
-0.010345316866621705 0.1400464583215856 -0.736532757549299 128 113 77
-0.010409741028840291 0.13962257173165596 -0.7389152002143861 132 118 81
-0.011607492273868876 0.13502782188925738 -0.7446397363709656 109 95 63
-0.012311696869903702 0.13224749954977869 -0.7489313751302534 101 89 64
-0.012990005714657138 0.12956113245967812 -0.7531624493900395 59 50 31
-0.013176308707870163 0.12868501152762712 -0.7559476919639815 59 50 35
-0.014030191902994343 0.12534972397504685 -0.7607290671257975 62 53 37
-0.014447829754057846 0.12361975117160937 -0.7642257802825371 59 50 35
-0.014509432890311168 0.12320054689301996 -0.7666668024029341 54 45 30
-0.014876161593885169 0.12165651607266273 -0.7700299797243155 53 45 34
-0.015626608053704492 0.11869729962764283 -0.7745602743508654 37 29 21
-0.016104523127239832 0.11674130817926845 -0.7782838822237218 24 17 9
-0.0161030057319932 0.11655205248343828 -0.7805663167934034 27 18 12
-0.015531164324966325 0.11846582218537721 -0.7811185224986344 23 15 9
-0.014751691856935374 0.12114601224831109 -0.781031469895364 20 12 5
-0.014120521370107025 0.12327986760825865 -0.7813882587695139 20 12 6
-0.014434234102770935 0.12192743835148068 -0.7846362647211518 22 14 6
-0.014023404358771321 0.12324850759617317 -0.785664998960359 30 22 12
-0.013823391533337996 0.12379155718539406 -0.7873409159128045 34 25 15
-0.01351480369109169 0.12473548306392021 -0.7886814044988619 47 38 26
-0.013448187304829239 0.1247858497779191 -0.7907713330396783 47 37 22
-0.013191308723443047 0.12553881463630479 -0.7922720656948147 62 51 34
-0.012800235829420928 0.12678765059416816 -0.7933534773062187 69 57 42
-0.012881341353315229 0.12629174115385605 -0.7959099061632937 60 47 34
-0.0127007447844927 0.12676270880665344 -0.7976504318505279 66 53 38
-0.012507277929770667 0.12728118504240554 -0.7993513204897764 88 74 55
-0.012277556562719269 0.12793367260580016 -0.8009383993632879 89 75 53
-0.011893017107982809 0.12915878642652662 -0.8020352959710423 81 66 42
-0.010743042514354248 0.13321584706383824 -0.8006989561681106 97 85 60
-0.011160343663285319 0.13147502491422938 -0.804336563325022 97 88 64
-0.010837397758080354 0.13247287271038768 -0.8056220175559909 87 73 51
-0.010208385420478507 0.13460386335890376 -0.8059255718485232 75 58 40
-0.010011813686256657 0.1351343314425705 -0.8076106694241552 60 41 24
-0.009608249316248513 0.13643131762592078 -0.8086296668768015 59 39 22
-0.009590705621012184 0.13629870255653292 -0.8108922979254037 55 36 19
-0.009261897758887104 0.13731896706138555 -0.8121505643906752 54 36 19
-0.008997224402342054 0.13810172499412385 -0.8136153200382211 63 45 26
-0.009039620752896965 0.13774638816100937 -0.816079719395235 76 55 32
-0.008620522250518722 0.13910151530490228 -0.8170414951419366 78 56 29
-0.00786385168987587 0.14170868265288147 -0.8168938316789648 75 51 26
-0.0075764022260023725 0.142576409979327 -0.8182779372239173 81 59 33
-0.00792387219099168 0.1410889031142571 -0.8217527759856862 113 91 61
-0.00777445633491617 0.14144414962207957 -0.8235966373672685 135 115 83
-0.007835130677565957 0.14101957617716987 -0.8261380604193062 92 75 49
-0.007755413084532273 0.14111568163835433 -0.8282184189728912 81 66 40
-0.007440391031600976 0.1420851943470415 -0.8295175423293745 138 127 98
-0.007253403082615829 0.14257937349205105 -0.8312428592131267 95 89 60
-0.007178993003526313 0.1426553232325681 -0.8333461820756474 76 65 36
-0.0065092028490601125 0.14494299803684635 -0.8334518560943389 107 92 61
-0.006276600014713481 0.14560677875967687 -0.835022353026673 105 89 60
-0.005970370814863908 0.14654422279042847 -0.8363439934758768 92 75 43
-0.005701543176247964 0.14734274613389667 -0.8377909015293535 102 82 44
-0.005596311569108656 0.14753301089295842 -0.8397929368626487 140 118 74
-0.005697927614791758 0.1469537563765209 -0.8425021333414371 143 123 86
-0.005226599992919183 0.14850535574782117 -0.8432599006243753 117 100 70
-0.0051673528276971956 0.14852404675164185 -0.8454250305893148 116 102 71
-0.005210156966303961 0.14816265832775144 -0.8479440475128901 92 76 43
-0.004792162360651282 0.14951615385780923 -0.8488805457226576 119 103 69
-0.004678443821936322 0.14973703921201026 -0.8508647482626976 115 100 67
-0.004441865072917231 0.1504152847637245 -0.8524254842812798 153 142 110
-0.004418698038077595 0.1502985921509554 -0.8547275494035337 126 113 78
-0.00468559797602458 0.14910083509997057 -0.858044179076228 125 111 79
-0.004626886125558727 0.14911568814723944 -0.8602328118122681 93 85 66
-0.004067557834249003 0.15099627109626282 -0.8606709289284717 35 34 30
-0.0041720845662912495 0.15040237791170027 -0.8634347988462681 32 30 24
-0.004408448151108996 0.14931630177753033 -0.8666695810176395 65 60 54
-0.00020023089732963684 0.16399657416266153 -0.8637293798729555 181 180 178
0.0009351873727533322 0.1678296046114988 -0.8644367187961463 190 189 187
0.0017655201848343557 0.17072807336922016 -0.8638346182170014 194 193 191
0.00202854802079995 0.17150776926907732 -0.8652690870184023 197 196 194
0.0025269586750802445 0.173167255099396 -0.8658505583916258 196 195 193
0.00301132322930054 0.17477469206617088 -0.8664776349222845 195 194 192
0.002809753815391336 0.17381777284517205 -0.8695968112102145 200 199 197
0.0032019163062914566 0.1750806704935223 -0.8705570284237771 202 201 199
0.004547009054332717 0.17990859200150583 -0.8680257050313173 203 202 200
-0.06718366824788677 -0.0179243471132028 -0.23544259894214975 179 176 173
-0.06669967841256948 -0.016367868082035178 -0.23671163511389104 164 158 145
-0.06640941622056502 -0.01549203173285249 -0.23813048571851386 153 140 121
-0.06576486241758682 -0.013370730592204463 -0.2392674016592902 144 127 105
-0.06514350895619031 -0.011330590886597589 -0.24041825668427594 155 141 115
-0.06413593239649917 -0.007932070907810285 -0.24125418093681048 171 156 126
-0.06251822996249222 -0.002387258176156537 -0.24158772858007815 174 159 129
-0.06205244389122376 -0.0008924593434292277 -0.24284485304146913 165 150 119
-0.06174105387576137 5.9489240202506566e-05 -0.24422588631662256 152 137 106
-0.06138005437960339 0.0011860568579370317 -0.24556489034314744 163 145 112
-0.06071325054869188 0.0033887217065494135 -0.2466481830740252 174 153 116
-0.06021324677388396 0.005004860440229866 -0.24786606874287553 189 171 132
-0.05987724230935808 0.006044094627105409 -0.24921887629604822 193 176 140
-0.05975227932312452 0.0063406102488001576 -0.2507491034533119 148 134 103
-0.05939709139126474 0.007447514084893969 -0.2520839888888505 67 56 37
-0.0591931133304573 0.00802217368955871 -0.25354703444876703 42 33 25
-0.05869359971292315 0.009637492081890839 -0.2547550060657132 38 28 24
-0.05863349440825658 0.009705594333803011 -0.25634158035344634 52 39 31
-0.05960136941197214 0.006152763548981338 -0.25882843819628615 63 48 34
-0.05879435402785596 0.008851239568122476 -0.2597668685468133 92 77 56
-0.05827696326890736 0.010529881587283449 -0.26095514748921184 160 143 112
-0.05786098039357097 0.011851488905024313 -0.26223038843273594 212 195 153
-0.0575208541421255 0.012905962906146304 -0.2635713527598716 192 175 130
-0.057537946964495976 0.012701497195572828 -0.26523292218435673 164 148 107
-0.057088068870574465 0.014142935587491301 -0.2664734632864136 128 114 80
-0.05668372140836792 0.015424081852575627 -0.2677529218257585 114 102 73
-0.05626019854877315 0.016773028660944253 -0.26901264680422826 104 91 69
-0.05606742962309237 0.0173084154988314 -0.27048311186601165 92 78 63
-0.05574569143997431 0.01829866459185718 -0.2718339618246789 83 68 50
-0.05548973418635217 0.01905697823355261 -0.2732450499516945 101 87 67
-0.0553183337815246 0.019517019633949056 -0.27473511343555945 73 58 45
-0.0546368714258504 0.02177677037812545 -0.2757433259738704 90 74 51
-0.05400146040740882 0.023874465006360077 -0.2767901114751361 165 148 117
-0.0537896832693882 0.02447737547782078 -0.27823742839088295 153 130 97
-0.053240064135949366 0.026272851993194082 -0.2793596550603922 159 137 101
-0.05292736429573249 0.027232232646468152 -0.2807073716097074 158 140 105
-0.05288579826375819 0.027234362367225873 -0.28231783253366893 138 120 91
-0.05271999175651527 0.027675072330677286 -0.2838085446805929 115 97 75
-0.052726598045294365 0.02750679513283079 -0.2854694794887271 88 71 51
-0.053069331171985354 0.026150975249676828 -0.28746562295081357 101 87 62
-0.050927500970585855 0.033572279435346394 -0.2869941111947958 110 97 73
-0.05076705022188287 0.03399453181941302 -0.2884848634659193 57 46 33
-0.05102776798522702 0.03292838432212351 -0.29040023712240337 20 14 8
-0.05046386445714297 0.03477628108212989 -0.291485924128219 11 8 4
-0.04988082114255166 0.03669218489290686 -0.2925481198896113 49 38 28
-0.05116833285549001 0.03199539910134082 -0.29552121412340215 129 110 86
-0.05061911594363942 0.03379151340929937 -0.2966203417115021 179 163 128
-0.0503335923045508 0.03465545642588248 -0.2979885809101835 141 125 93
-0.050030478921391605 0.0355816873888425 -0.29933764575594235 91 70 40
-0.049560175140121 0.03709941981218956 -0.3005106798116982 120 101 70
-0.04928785865393824 0.03791696726450297 -0.30188905886293865 133 118 83
-0.05003807164944804 0.03511653310180968 -0.3043484113607447 104 85 52
-0.04942775630766537 0.03712981650205038 -0.30537168734234665 102 84 54
-0.04936007156519198 0.03722295331188477 -0.30697060641186885 85 69 40
-0.04914163701995506 0.03784957693990744 -0.30840908792839483 102 87 57
-0.0490327632394178 0.03808832850369041 -0.309965868062283 120 104 79
-0.04880472628249184 0.03874891614768167 -0.3113943338595204 90 74 49
-0.048545895298357115 0.039518574655001054 -0.3127889512475953 88 72 45
-0.047916299003208235 0.041601474370098895 -0.3137759194730548 123 106 75
-0.04761363271901258 0.042526699628434556 -0.31511887950878253 93 75 48
-0.04724425267268801 0.04368837641041991 -0.3163867416484425 102 84 58
-0.04707459943891402 0.04414251256098743 -0.31787549376851887 103 87 61
-0.04646428115898481 0.04615826519389231 -0.3188707008867558 96 81 53
-0.04645749621904317 0.04603528022948174 -0.32054132913196787 111 96 69
-0.04627224535137023 0.04654473013483289 -0.32201216336921146 103 87 63
-0.04615251124315678 0.046821874017345805 -0.3235578552355952 110 94 71
-0.04623176990059195 0.046393319627436536 -0.32533227762776473 82 66 43
-0.04629309179548734 0.04602808235848441 -0.32708942647233286 96 80 57
-0.046264711261742 0.04598073596505728 -0.3287460410579937 109 93 69
-0.04503384794652118 0.05019892712817321 -0.32900779017378307 131 116 88
-0.04563868256987484 0.04790521614700004 -0.3314009362163343 139 125 97
-0.045543919525935284 0.04809316108794262 -0.3329826676235611 98 84 60
-0.045441221491494495 0.048309149520517874 -0.33455638281470634 58 43 24
-0.045453619306306633 0.04811649745614932 -0.3362677605890248 60 46 29
-0.04516971190029992 0.048975500223140456 -0.3376288233989404 54 41 28
-0.0448773879485989 0.049864462984941876 -0.33897893387302935 42 32 23
-0.04458194377682695 0.05076459153834713 -0.3403243119064466 37 28 19
-0.04432832268305586 0.05151627252152971 -0.3417192268702505 82 72 61
-0.04416266245640629 0.051955556452504964 -0.343220462958483 118 109 95
-0.043963585956375284 0.05251350942073853 -0.3446814263140652 94 83 67
-0.04365142980607531 0.05347323608100436 -0.34600381041873374 52 40 29
-0.043571262151186965 0.05360866882480857 -0.3476108998121566 49 39 29
-0.043303333703322816 0.05441129718064687 -0.3489869898123621 57 48 35
-0.043118338446715525 0.05491918642815932 -0.3504655847276789 50 40 28
-0.04310707462644316 0.05480940097078242 -0.3521617026022347 46 36 26
-0.042392714016697364 0.05719942351156242 -0.3529768322794648 39 29 21
-0.04271207999926125 0.05591379110026888 -0.3550908563844528 36 27 18
-0.04292326683386628 0.055012371832335746 -0.357074007424052 37 28 19
-0.04357024248416899 0.052560279992282424 -0.35961756659319954 43 33 23
-0.0434454755139099 0.052853009180105284 -0.3611833038181996 49 38 28
-0.04321487997593277 0.05352222324390958 -0.36261393321299473 52 40 25
-0.04306753223812186 0.05389518976147778 -0.3641519117960579 78 69 52
-0.04263120823681968 0.055296674199768095 -0.36531542169252534 84 75 62
-0.04190389327051916 0.05773430814056485 -0.36609659132688066 109 101 90
-0.041472499304208876 0.05911887326702074 -0.3672593266716797 122 115 105
-0.0413058146498554 0.05956104370786525 -0.36876790563804546 118 110 102
-0.03955132153546635 0.06565820161560532 -0.3681767569614801 112 104 95
-0.03786970985400076 0.07149739824075332 -0.3676636525412759 120 107 93
-0.03641188635232817 0.0765408999830711 -0.3674313311996028 159 142 113
-0.0362845197172845 0.07684514073496308 -0.3689679160890189 162 138 105
-0.03557596562793588 0.07922045756840267 -0.3697225328894429 179 156 116
-0.0355039767435362 0.07932746230917316 -0.3713324396670411 194 176 129
-0.035131675875458825 0.08050485829720845 -0.37253575336125916 169 146 104
-0.03491182047814938 0.08113892160435905 -0.37394519794118253 142 123 91
-0.03450044048254805 0.08245594203874584 -0.37509176585361753 117 105 84
-0.03367997167800646 0.08523214211000164 -0.3756721509820851 70 59 45
-0.03382175969302347 0.08457673114657448 -0.3775767226073925 74 60 45
-0.033549449337909404 0.08539821619520745 -0.3789099158497577 71 53 36
-0.03365023693058535 0.08488856562085666 -0.3807632680681392 65 47 28
-0.03353367688004586 0.08515419310972042 -0.3823155768272988 65 47 26
-0.03295739596353511 0.0870604994708446 -0.38322135865842427 65 47 25
-0.03324165326071581 0.0858954187643894 -0.3853401824771236 66 48 26
-0.03317399942594004 0.08598618271032465 -0.3869649704059453 71 51 29
-0.03382188044746133 0.08352183064697684 -0.3896128629588329 74 53 32
-0.03282988047712816 0.08691297413025574 -0.3899203652879948 71 49 28
-0.03291890504487427 0.08644377338680576 -0.3917746469030471 67 46 25
-0.032990226800030206 0.08603748921717425 -0.3936070257845724 73 52 31
-0.032886766586532286 0.08625537790731476 -0.3951890270756019 64 43 22
-0.03293291062000564 0.08593854982263543 -0.39699055904617814 66 45 24
-0.03295218430829477 0.08571747751121798 -0.3987559079269381 67 46 25
-0.032735478135540765 0.08633967745657799 -0.40017690645138965 71 50 29
-0.03211339045074919 0.0884111687406826 -0.4009987835913007 67 46 25
-0.03210760254954362 0.08827944252238877 -0.40272997361687735 74 53 32
-0.031974701489657295 0.08860207683205394 -0.40427427599153043 81 63 41
-0.032149808692926746 0.08782295518644874 -0.40628048521136234 85 67 45
-0.032381816134550295 0.08683985804474023 -0.4083770637946492 74 55 32
-0.03258154498405204 0.08597176047195723 -0.4104305094420112 73 53 31
-0.032701425595525066 0.08538894031652756 -0.4123681186242734 68 48 26
-0.032549048564448825 0.08578016262046775 -0.41389552069068364 58 39 17
-0.032330292725673705 0.08640892888764423 -0.41532218191051795 61 43 24
-0.03211339105779033 0.08703106864611743 -0.416751556142788 52 34 17
-0.03210370689665461 0.08691123935639 -0.4185001895910535 53 36 20
-0.03191785127299638 0.08742209863046269 -0.41997872168599837 62 45 28
-0.03181352833510796 0.08764089864938723 -0.4215842513441419 65 48 31
-0.03196476724413011 0.0869440658140131 -0.4235899235719133 75 60 41
-0.03199744554153966 0.08667162091446319 -0.4254144554113326 76 61 43
-0.03197432194638214 0.08659886863723144 -0.4271543062856371 66 53 35
-0.03182328788769308 0.08698434451257928 -0.4286944810841847 53 38 24
-0.03162394710163964 0.08754291598940728 -0.4301587788626077 54 38 24
-0.031196494568430568 0.08891930107686224 -0.43125986867088656 55 40 22
-0.03100100534776652 0.0894641689615517 -0.43272910253446717 63 47 28
-0.030811405998936597 0.08998789832174277 -0.43420797108488157 80 63 42
-0.03038902993844876 0.09134655284147991 -0.4353117868939372 78 60 38
-0.030271395398609006 0.09161219877463882 -0.43690614422181584 75 57 35
-0.03069937925627228 0.08992003623893471 -0.43938851790741057 78 61 39
-0.031827955898373235 0.08571298293519822 -0.44302251937012743 80 64 41
-0.03155306917175349 0.08654169474518981 -0.4443745519395035 79 63 40
-0.031577932058475526 0.08629444899942178 -0.446218830512441 78 62 38
-0.03134053921935613 0.08698852045281252 -0.4476330659095818 72 56 33
-0.030900793810229827 0.08840925466048831 -0.44871141644204576 70 53 32
-0.03012321687725327 0.09104357458793541 -0.449224341220596 63 47 30
-0.03039880128118938 0.0898955149466571 -0.4514899827908604 53 37 21
-0.03045447845723999 0.08953694358678768 -0.4533930491454102 58 42 26
-0.0303469299163956 0.0897645719240824 -0.4550246715011554 62 47 30
-0.029996700163867965 0.0908642322175288 -0.4562472339122231 65 49 32
-0.029751823632812688 0.09158537347919786 -0.45764681761660664 63 47 32
-0.030211964077682875 0.08977203200692416 -0.4602476554244831 53 39 28
-0.029912621818610614 0.09068867684744976 -0.4615578222737972 46 33 25
-0.030119634315998515 0.08978449752052307 -0.46373665177143253 48 35 26
-0.029990793381452063 0.0900878044665295 -0.4653418787675353 70 56 44
-0.02956576765652309 0.09145648656003122 -0.46643544732549974 78 65 50
-0.029513116380084675 0.09148565032415085 -0.4681733119438129 119 107 86
-0.029166790679048475 0.09257141406617915 -0.4694009486732883 119 106 84
-0.029000278475892823 0.09301017258794668 -0.4709416896951105 96 81 58
-0.02873232175669029 0.09381404573847739 -0.4723046832042899 117 103 80
-0.028261542722258597 0.09534820042340905 -0.47330896104825676 111 98 75
-0.027947219402242 0.09631928737834154 -0.4745869096404331 102 89 67
-0.02753944050403546 0.09762707258451717 -0.47569726142480295 89 75 54
-0.02714752014474926 0.09887796834784876 -0.4768332551201854 83 67 46
-0.02678244390827411 0.10003236981372846 -0.478014892911271 88 74 56
-0.026761753479810246 0.09994605187433002 -0.47981389037580985 96 83 65
-0.02612731720687479 0.10207134471038781 -0.48050732702931365 95 82 60
-0.02566482986581102 0.10357736601241872 -0.48150661819479956 88 76 54
-0.025492687559255885 0.10403698695970454 -0.48303065943509643 92 77 54
-0.025227522914426367 0.10483196627314889 -0.4843853585432235 83 68 45
-0.025213101633392652 0.10472277382981492 -0.4861988888751884 102 90 66
-0.02517553436235674 0.10469682967887929 -0.48797252260920587 97 83 62
-0.025167467284499864 0.10456425758051613 -0.48980300652784164 94 79 55
-0.02495702198941399 0.10516162899925297 -0.4912611668528659 89 74 47
-0.02470914276771779 0.10589408576062803 -0.49264968694170114 80 64 38
-0.024396042943570218 0.10686198469242864 -0.4939159049553463 79 62 38
-0.025259258653685866 0.10358368567818692 -0.49738538544975097 79 61 39
-0.02464371552429538 0.10564307793795495 -0.4980879698756132 77 59 35
-0.024414607639850903 0.10630751905589685 -0.4995145702021138 82 65 40
-0.02427736553265134 0.10664019304466911 -0.5011150083469171 82 66 39
-0.024323593552414778 0.10631003105701974 -0.5030654335760287 80 64 38
-0.024051658308417365 0.10712904489354604 -0.5044120809093546 80 62 37
-0.02422262502690084 0.10634770427250019 -0.5066064611303964 80 64 35
-0.024495932351075653 0.10519602429556296 -0.5090029824315861 84 69 41
-0.024593142905125168 0.10468029190887394 -0.5110664369665245 84 68 40
-0.02535561149423588 0.10175904121860732 -0.5144228125245016 82 62 35
-0.024664557564759 0.10409247299088624 -0.5149672435082451 91 72 44
-0.02394043252858985 0.1065460986631333 -0.5154404213839107 85 68 40
-0.023342870116564805 0.10854255437005816 -0.5161542067407685 86 66 39
-0.023054445479821502 0.10942108366976142 -0.5174700492791607 89 72 44
-0.022954905739656802 0.10961624028873287 -0.5191573297866314 93 76 48
-0.022240300907642684 0.1120372119825451 -0.5196288034750517 91 74 46
-0.022649081491624815 0.11039251692348301 -0.522324626502345 97 80 52
-0.022586246927531643 0.11045443749399532 -0.5240891003283489 102 85 57
-0.02257086856866375 0.11034433689820985 -0.5259506378975946 92 75 47
-0.022408866549642876 0.11076499511683927 -0.5275205970005982 94 77 47
-0.022589593875075614 0.10994416575566275 -0.5297818317433608 100 83 54
-0.022618570149477595 0.1096726075347813 -0.5317418414264645 95 78 50
-0.02273227003793534 0.10909375640317173 -0.5338772317804423 89 73 45
-0.022750635687465878 0.10885999142381762 -0.5358231705288357 101 86 55
-0.02254895162710414 0.109423545867773 -0.5373227512549694 109 94 62
-0.022537182903999815 0.10929858288103035 -0.539211966683822 111 96 67
-0.022571586678895538 0.10900594644971526 -0.5411991074349071 115 100 69
-0.023579882131566716 0.10518110148545597 -0.5452010860446067 107 91 63
-0.02396754273648569 0.10360588274533515 -0.547934527171847 102 86 61
-0.023735504629819333 0.10427807186308286 -0.5493879340452732 102 86 60
-0.02350346605448809 0.1049502842836706 -0.5508410933667872 103 88 58
-0.02336104150505343 0.1052972983649183 -0.5524816729406132 106 91 62
-0.024093819032426987 0.10212559734308817 -0.5598644829531451 95 81 53
-0.040459435048708935 0.04068505238391029 -0.6175107005314562 41 34 24
-0.04141267303047016 0.037031309983781874 -0.6217250543078228 59 51 42
-0.041510996481148824 0.03648743550335698 -0.6240659598739691 41 32 23
-0.041139994852845314 0.03765151894129323 -0.6253701278225684 61 52 43
-0.04048681914229115 0.03984311090785486 -0.626043822336622 56 47 38
-0.04004529453223547 0.04126454599244256 -0.6271841479227553 70 62 52
-0.039851598639318316 0.041783646510926004 -0.6288769661066108 78 70 57
-0.03898098315087483 0.04476853169287767 -0.6290476114633694 66 58 45
-0.03838196318577977 0.04676473113256108 -0.6298216467085316 76 68 55
-0.03745726130347673 0.04994821764048432 -0.6298525977631262 73 65 53
-0.03688093611167099 0.051862889294896325 -0.6306646374364443 94 86 72
-0.03661801074472228 0.052635559163919904 -0.6321859123257619 100 93 77
-0.03548165299978239 0.05659284149375243 -0.6317088838597138 76 68 54
-0.034787170543303186 0.05893994032646205 -0.632232157863845 103 95 84
-0.034294353140126986 0.06055211126166876 -0.6332126967459284 83 75 65
-0.03514679907864395 0.05725706081009982 -0.6372969516250813 81 72 64
-0.034249865614722784 0.06034353816152288 -0.6373430714447802 65 57 50
-0.033023792902464516 0.06463206214328299 -0.6366136128670044 59 53 47
-0.0331020107798414 0.0641611998473757 -0.6389118812652932 40 35 31
-0.03234102509142926 0.06675362251688113 -0.6392505066028948 47 42 39
-0.03191045170348383 0.06814029630823387 -0.6403569002228656 67 62 59
-0.031438752414099144 0.06967743724350772 -0.6413632854238294 57 52 49
-0.03086410629457991 0.07159094524295043 -0.6421225703108158 50 46 43
-0.03043642044838215 0.0729680147082509 -0.643225024541316 43 40 36
-0.02999720425942174 0.07438748808639867 -0.644296952537641 38 32 29
-0.029601280132082623 0.07564902597864981 -0.6454689404801631 37 31 27
-0.029194385781315398 0.07695089414358083 -0.6466120420217115 51 49 44
-0.028745729294772156 0.07840569497080915 -0.6476520158811649 41 38 34
-0.028405571895557813 0.07946403662974846 -0.6489500588513971 34 30 27
-0.02839098313601532 0.07933176543810155 -0.6510336024422818 31 27 24
-0.028411182157613485 0.07907194362364003 -0.6532048546570608 32 26 23
-0.02756458686748415 0.08198327114427234 -0.6532704032528257 32 26 23
-0.02745026817100154 0.08221564111862883 -0.6551141700593701 25 20 17
-0.027515340789453745 0.08179124035665286 -0.6573991113538475 22 16 16
