ply
format ascii 1.0
element vertex 870
property float x
property float y
property float z
property float nx
property float ny
property float nz
property uchar diffuse_red
property uchar diffuse_green
property uchar diffuse_blue
property uchar class
property uchar detection
end_header
0.0329 0.1172 -0.8103 0.394 0.900 0.188 117 100 68 0 0
0.0340 0.1182 -0.8178 0.407 0.766 0.498 69 52 29 0 0
0.0362 0.1205 -0.8259 0.623 0.668 0.406 111 92 57 0 0
0.0405 0.1253 -0.8377 0.747 0.580 0.324 92 75 46 0 0
0.0428 0.1271 -0.8638 0.745 0.664 0.070 59 51 43 0 0
0.0434 0.1277 -0.8652 0.749 0.619 0.237 80 73 62 0 0
-0.0805 -0.0007 -0.2375 0.254 0.946 0.201 176 176 178 0 0
-0.0780 0.0019 -0.2463 -0.031 0.724 0.689 115 106 90 0 0
-0.0604 0.0223 -0.2738 0.689 0.461 0.559 101 84 60 0 0
-0.0573 0.0259 -0.2807 0.641 0.689 0.338 170 158 129 0 0
-0.0427 0.0423 -0.3151 0.632 0.587 0.506 101 85 60 0 0
-0.0409 0.0440 -0.3241 0.485 0.832 0.269 94 81 56 0 0
-0.0402 0.0448 -0.3270 0.449 0.839 0.307 112 99 71 0 0
-0.0383 0.0465 -0.3409 0.588 0.729 0.351 13 9 7 0 0
-0.0375 0.0474 -0.3438 0.576 0.770 0.274 49 42 31 0 0
-0.0207 0.0668 -0.3716 0.598 0.006 0.801 120 111 96 0 0
-0.0195 0.0682 -0.3726 0.556 0.130 0.821 129 120 95 0 0
-0.0183 0.0696 -0.3736 0.556 0.130 0.821 145 132 105 0 0
0.0464 0.1410 -0.5594 0.481 0.876 0.020 92 79 57 0 0
0.0444 0.1379 -0.5741 0.532 0.847 -0.023 144 129 91 0 0
0.0407 0.1316 -0.6186 0.314 0.949 0.015 157 137 100 0 0
0.0402 0.1303 -0.6364 0.413 0.900 0.141 117 97 61 0 0
0.0404 0.1303 -0.6419 0.445 0.895 -0.037 166 146 105 0 0
0.0261 0.1078 -0.7707 -0.014 0.957 -0.291 79 65 37 0 0
0.0230 0.1036 -0.7789 0.442 0.896 0.036 65 52 32 0 0
0.0321 0.1140 -0.7956 0.480 0.752 0.452 95 79 52 0 0
0.0340 0.1162 -0.7996 0.600 0.582 0.549 110 95 63 0 0
0.0344 0.1166 -0.8014 0.662 0.643 0.385 117 106 76 0 0
0.0345 0.1164 -0.8100 0.394 0.900 0.188 102 85 54 0 0
0.0364 0.1182 -0.8208 0.781 0.535 0.323 76 58 32 0 0
0.0363 0.1180 -0.8231 0.509 0.506 0.696 122 103 71 0 0
0.0370 0.1189 -0.8243 0.768 0.551 0.327 118 101 66 0 0
0.0399 0.1222 -0.8293 0.647 0.603 0.466 90 78 50 0 0
0.0441 0.1260 -0.8615 0.934 0.324 0.153 25 20 12 0 0
0.0452 0.1271 -0.8669 0.359 0.502 0.787 112 108 99 0 0
0.0445 0.1261 -0.8701 0.774 0.633 0.024 140 138 132 0 0
-0.0791 -0.0015 -0.2374 0.169 0.942 0.291 156 152 151 0 0
-0.0641 0.0158 -0.2612 0.547 0.664 0.510 189 176 141 0 0
-0.0637 0.0163 -0.2626 0.521 0.722 0.455 124 110 82 0 0
-0.0591 0.0214 -0.2738 0.692 0.614 0.380 104 86 62 0 0
-0.0587 0.0218 -0.2752 0.665 0.561 0.493 117 100 75 0 0
-0.0372 0.0454 -0.3409 0.618 0.677 0.400 14 10 8 0 0
-0.0368 0.0459 -0.3424 0.618 0.677 0.400 14 11 7 0 0
-0.0328 0.0500 -0.3570 0.686 0.713 0.147 40 33 27 0 0
-0.0326 0.0502 -0.3586 0.607 0.738 0.296 42 35 29 0 0
-0.0206 0.0644 -0.3721 0.807 -0.137 0.574 119 110 98 0 0
0.0481 0.1405 -0.5590 0.299 0.947 -0.114 125 107 77 0 0
0.0435 0.1328 -0.6095 0.361 0.928 0.091 146 131 92 0 0
0.0421 0.1309 -0.6165 0.451 0.892 0.006 156 138 98 0 0
0.0422 0.1309 -0.6183 0.486 0.874 0.024 154 135 96 0 0
0.0419 0.1296 -0.6416 0.559 0.829 0.017 148 129 93 0 0
0.0395 0.1253 -0.6776 0.457 0.888 -0.052 174 157 116 0 0
0.0399 0.1256 -0.6792 0.587 0.798 -0.133 162 143 102 0 0
0.0397 0.1253 -0.6814 0.587 0.798 -0.133 170 151 108 0 0
0.0258 0.1042 -0.7792 0.453 0.719 0.528 74 62 39 0 0
0.0475 0.1271 -0.8677 0.913 0.246 0.325 153 150 146 0 0
0.0422 0.1196 -0.8940 0.941 -0.234 -0.247 207 207 207 0 0
-0.0677 0.0093 -0.2516 0.307 0.826 0.472 148 131 111 0 0
-0.0581 0.0202 -0.2738 0.692 0.614 0.380 140 123 97 0 0
-0.0577 0.0206 -0.2752 0.692 0.614 0.380 73 56 36 0 0
-0.0524 0.0266 -0.2861 0.464 0.792 0.397 90 75 52 0 0
-0.0518 0.0272 -0.2875 0.416 0.839 0.351 105 88 62 0 0
-0.0443 0.0358 -0.3038 0.551 0.695 0.462 95 80 58 0 0
-0.0440 0.0361 -0.3053 0.498 0.803 0.326 82 70 53 0 0
-0.0366 0.0438 -0.3379 0.622 0.667 0.410 29 24 19 0 0
-0.0362 0.0442 -0.3394 0.557 0.673 0.487 30 23 20 0 0
-0.0360 0.0443 -0.3409 0.618 0.677 0.400 17 13 11 0 0
-0.0352 0.0452 -0.3438 0.561 0.782 0.272 31 25 20 0 0
-0.0351 0.0452 -0.3454 0.571 0.786 0.238 74 69 59 0 0
-0.0317 0.0489 -0.3570 0.598 0.786 0.156 40 32 27 0 0
-0.0311 0.0495 -0.3600 0.664 0.727 0.173 34 27 20 0 0
0.0640 0.1636 -0.4155 0.690 0.596 0.411 86 74 50 0 0
0.0633 0.1627 -0.4176 0.603 0.744 0.287 88 74 49 0 0
0.0638 0.1633 -0.4188 0.489 0.787 0.376 87 71 45 0 0
0.0616 0.1601 -0.4315 0.579 0.793 0.189 99 85 59 0 0
0.0618 0.1603 -0.4329 0.440 0.864 0.244 103 88 59 0 0
0.0622 0.1606 -0.4343 0.549 0.805 0.225 105 91 59 0 0
0.0627 0.1611 -0.4371 0.454 0.778 0.434 109 93 60 0 0
0.0575 0.1524 -0.4940 0.306 0.950 -0.056 152 131 91 0 0
0.0545 0.1478 -0.5154 0.255 0.967 -0.002 137 117 80 0 0
0.0536 0.1465 -0.5213 0.442 0.890 -0.110 137 116 81 0 0
0.0536 0.1463 -0.5248 0.744 0.668 -0.018 144 125 84 0 0
0.0427 0.1282 -0.6382 0.419 0.903 0.093 152 133 91 0 0
0.0431 0.1285 -0.6417 0.355 0.903 0.244 125 107 79 0 0
0.0414 0.1253 -0.6709 0.424 0.904 -0.048 140 121 87 0 0
0.0413 0.1249 -0.6770 0.587 0.798 -0.133 174 157 113 0 0
0.0412 0.1246 -0.6791 0.587 0.798 -0.133 162 145 101 0 0
0.0411 0.1244 -0.6813 0.587 0.798 -0.133 164 146 105 0 0
0.0378 0.1197 -0.6970 0.698 0.697 -0.162 139 125 95 0 0
0.0379 0.1198 -0.6990 0.868 0.458 0.192 117 102 79 0 0
0.0385 0.1201 -0.7064 0.791 0.611 -0.029 139 122 82 0 0
0.0384 0.1200 -0.7086 0.729 0.678 0.097 133 114 77 0 0
0.0389 0.1203 -0.7142 0.763 0.638 0.105 140 121 83 0 0
0.0359 0.1153 -0.7469 0.612 0.752 -0.246 152 135 91 0 0
0.0308 0.1082 -0.7681 0.419 0.824 -0.382 86 73 42 0 0
0.0334 0.1105 -0.7864 0.680 0.504 0.532 90 80 55 0 0
0.0348 0.1122 -0.7889 0.493 0.642 0.587 109 95 66 0 0
0.0376 0.1144 -0.8182 0.670 0.582 0.461 90 70 43 0 0
0.0412 0.1184 -0.8267 0.753 0.553 0.356 143 125 90 0 0
0.0417 0.1189 -0.8282 0.815 0.457 0.355 120 104 71 0 0
0.0425 0.1198 -0.8315 0.755 0.514 0.406 144 130 95 0 0
-0.0565 0.0195 -0.2736 0.611 0.659 0.439 139 125 101 0 0
-0.0561 0.0201 -0.2751 0.611 0.659 0.439 66 49 33 0 0
-0.0552 0.0210 -0.2763 0.500 0.589 0.635 130 110 88 0 0
-0.0431 0.0347 -0.3037 0.573 0.680 0.457 101 87 63 0 0
-0.0423 0.0356 -0.3066 0.300 0.871 0.388 50 40 26 0 0
-0.0412 0.0367 -0.3110 0.342 0.892 0.295 38 27 21 0 0
-0.0359 0.0419 -0.3414 0.614 0.688 0.388 24 18 15 0 0
-0.0340 0.0442 -0.3438 0.631 0.622 0.464 22 14 12 0 0
-0.0339 0.0443 -0.3454 0.571 0.786 0.238 51 42 36 0 0
-0.0310 0.0475 -0.3539 0.703 0.654 0.279 38 29 24 0 0
-0.0305 0.0479 -0.3570 0.649 0.759 0.055 29 25 20 0 0
-0.0305 0.0479 -0.3586 0.649 0.759 0.055 36 29 24 0 0
-0.0324 0.0451 -0.3680 0.804 0.509 0.307 25 21 14 0 0
-0.0291 0.0490 -0.3713 0.363 0.049 0.931 39 32 26 0 0
-0.0274 0.0510 -0.3721 0.363 0.049 0.931 47 40 34 0 0
-0.0132 0.0682 -0.3793 0.895 -0.131 0.425 122 114 99 0 0
-0.0134 0.0677 -0.3828 0.981 -0.038 -0.191 90 84 68 0 0
-0.0137 0.0673 -0.3846 0.951 -0.026 -0.307 95 89 73 0 0
0.0661 0.1642 -0.4116 0.260 0.900 0.349 84 69 46 0 0
0.0628 0.1592 -0.4314 0.634 0.736 0.237 107 91 59 0 0
0.0631 0.1595 -0.4328 0.532 0.815 0.228 109 93 60 0 0
0.0633 0.1597 -0.4343 0.597 0.717 0.360 108 92 59 0 0
0.0634 0.1598 -0.4358 0.272 0.796 0.541 110 94 61 0 0
0.0560 0.1474 -0.5150 0.255 0.967 -0.002 149 130 90 0 0
0.0556 0.1467 -0.5188 0.360 0.929 -0.080 137 117 80 0 0
0.0556 0.1466 -0.5206 0.349 0.935 -0.065 144 124 87 0 0
0.0475 0.1341 -0.5781 0.665 0.736 -0.129 151 131 96 0 0
0.0473 0.1331 -0.5949 0.529 0.848 0.039 135 119 82 0 0
0.0473 0.1332 -0.5967 0.582 0.798 -0.155 138 122 88 0 0
0.0444 0.1278 -0.6377 0.379 0.920 0.102 155 136 94 0 0
0.0425 0.1237 -0.6790 0.587 0.798 -0.133 173 155 107 0 0
0.0376 0.1165 -0.7068 0.738 0.597 0.316 97 82 55 0 0
0.0394 0.1186 -0.7088 0.793 0.524 0.309 136 118 81 0 0
0.0397 0.1189 -0.7106 0.834 0.536 0.133 125 106 64 0 0
0.0398 0.1189 -0.7125 0.763 0.638 0.105 149 130 86 0 0
0.0400 0.1190 -0.7143 0.763 0.638 0.105 139 121 85 0 0
0.0402 0.1191 -0.7182 0.771 0.631 -0.085 101 84 60 0 0
0.0396 0.1182 -0.7210 0.673 0.724 -0.152 113 97 70 0 0
0.0399 0.1183 -0.7289 0.762 0.416 0.496 132 114 75 0 0
0.0373 0.1143 -0.7467 0.691 0.667 -0.279 137 119 81 0 0
0.0326 0.1078 -0.7674 0.799 0.492 -0.346 87 74 40 0 0
0.0297 0.1039 -0.7732 0.859 0.505 -0.089 77 64 34 0 0
0.0286 0.1024 -0.7768 0.729 0.682 -0.058 103 91 62 0 0
0.0332 0.1075 -0.7884 0.784 0.590 0.195 72 59 36 0 0
0.0361 0.1106 -0.7998 0.618 0.715 0.326 98 83 55 0 0
0.0421 0.1168 -0.8272 0.843 0.500 0.198 162 144 107 0 0
0.0424 0.1171 -0.8290 0.843 0.500 0.198 128 111 76 0 0
0.0463 0.1198 -0.8756 0.624 0.753 0.210 186 184 187 0 0
-0.0742 -0.0032 -0.2385 0.503 0.719 0.480 240 227 194 0 0
-0.0736 -0.0025 -0.2399 0.517 0.709 0.478 242 230 190 0 0
-0.0730 -0.0017 -0.2412 0.540 0.736 0.409 240 227 187 0 0
-0.0641 0.0085 -0.2543 0.320 0.774 0.546 138 125 102 0 0
-0.0560 0.0177 -0.2738 0.385 0.873 0.299 117 104 79 0 0
-0.0469 0.0281 -0.2912 0.541 0.740 0.400 59 49 40 0 0
-0.0365 0.0395 -0.3241 0.572 0.770 0.284 39 32 25 0 0
-0.0354 0.0408 -0.3252 0.548 0.700 0.459 45 38 32 0 0
-0.0357 0.0402 -0.3303 0.384 0.849 0.363 35 28 23 0 0
-0.0326 0.0433 -0.3453 0.601 0.761 0.245 44 36 33 0 0
-0.0314 0.0447 -0.3464 0.732 0.589 0.341 71 62 55 0 0
-0.0311 0.0451 -0.3479 0.732 0.589 0.341 74 65 56 0 0
-0.0307 0.0455 -0.3493 0.732 0.589 0.341 68 60 50 0 0
-0.0293 0.0469 -0.3569 0.703 0.654 0.279 42 39 34 0 0
-0.0284 0.0480 -0.3581 0.327 0.899 0.290 30 25 19 0 0
-0.0320 0.0431 -0.3684 0.621 0.776 0.105 22 19 12 0 0
-0.0319 0.0432 -0.3700 0.621 0.776 0.105 21 16 9 0 0
-0.0145 0.0642 -0.3773 0.810 -0.156 0.565 75 70 58 0 0
-0.0140 0.0648 -0.3787 0.907 -0.105 0.408 74 69 58 0 0
-0.0132 0.0656 -0.3799 0.957 -0.063 0.282 94 89 79 0 0
0.0643 0.1588 -0.4327 0.367 0.789 0.493 109 93 60 0 0
0.0646 0.1591 -0.4341 0.367 0.738 0.566 106 90 57 0 0
0.0650 0.1595 -0.4354 0.447 0.589 0.673 106 90 57 0 0
0.0651 0.1596 -0.4369 0.443 0.889 0.113 112 96 63 0 0
0.0652 0.1596 -0.4385 0.436 0.900 -0.018 114 98 65 0 0
0.0647 0.1581 -0.4583 0.263 0.886 0.383 123 104 72 0 0
0.0617 0.1532 -0.4856 0.382 0.923 -0.057 137 118 78 0 0
0.0616 0.1530 -0.4873 0.405 0.910 -0.092 142 123 83 0 0
0.0589 0.1487 -0.5084 0.471 0.874 -0.118 142 122 85 0 0
0.0588 0.1486 -0.5101 0.397 0.917 -0.046 144 124 87 0 0
0.0582 0.1476 -0.5141 0.650 0.729 -0.216 147 128 88 0 0
0.0558 0.1442 -0.5266 0.326 0.945 -0.027 154 135 94 0 0
0.0468 0.1291 -0.6173 0.417 0.908 -0.023 152 132 97 0 0
0.0455 0.1258 -0.6572 0.774 0.625 0.104 164 147 101 0 0
0.0402 0.1176 -0.6931 0.732 0.587 -0.345 120 100 69 0 0
0.0392 0.1157 -0.7065 0.497 0.859 0.124 91 77 53 0 0
0.0396 0.1163 -0.7080 0.593 0.784 0.186 109 96 65 0 0
0.0407 0.1170 -0.7212 0.767 0.638 -0.069 108 93 71 0 0
0.0411 0.1172 -0.7289 0.505 0.807 0.306 132 117 90 0 0
0.0389 0.1137 -0.7442 0.691 0.667 -0.279 96 83 53 0 0
0.0378 0.1121 -0.7518 0.858 0.474 -0.199 114 96 63 0 0
0.0365 0.1102 -0.7577 0.807 0.482 -0.341 130 113 77 0 0
0.0347 0.1063 -0.7946 0.627 0.553 0.549 87 73 44 0 0
0.0352 0.1069 -0.7962 0.591 0.690 0.418 76 62 35 0 0
0.0370 0.1089 -0.8004 0.750 0.519 0.410 107 91 65 0 0
0.0382 0.1102 -0.8054 0.734 0.659 0.163 89 72 47 0 0
0.0389 0.1110 -0.8088 0.665 0.597 0.448 110 94 66 0 0
0.0440 0.1164 -0.8264 0.593 0.787 0.169 150 133 98 0 0
0.0463 0.1171 -0.8753 0.793 0.377 0.478 180 178 179 0 0
0.0470 0.1179 -0.8765 0.644 0.709 0.286 190 188 190 0 0
-0.0731 -0.0044 -0.2384 0.470 0.619 0.629 248 236 200 0 0
-0.0723 -0.0035 -0.2398 0.517 0.709 0.478 243 232 191 0 0
-0.0711 -0.0019 -0.2410 0.486 0.594 0.641 245 232 188 0 0
-0.0703 -0.0011 -0.2423 0.423 0.626 0.655 229 216 176 0 0
-0.0318 0.0419 -0.3438 0.760 0.586 0.281 16 11 9 0 0
-0.0314 0.0423 -0.3453 0.601 0.761 0.245 36 28 26 0 0
-0.0311 0.0426 -0.3468 0.601 0.702 0.383 77 70 62 0 0
-0.0295 0.0444 -0.3509 0.725 0.573 0.384 112 106 93 0 0
-0.0291 0.0449 -0.3524 0.707 0.607 0.364 98 92 81 0 0
-0.0285 0.0455 -0.3554 0.703 0.654 0.279 51 46 40 0 0
-0.0282 0.0458 -0.3569 0.703 0.654 0.279 35 34 29 0 0
-0.0273 0.0469 -0.3581 0.692 0.702 0.168 31 27 21 0 0
-0.0175 0.0581 -0.3763 0.670 -0.403 0.624 58 51 43 0 0
-0.0155 0.0605 -0.3768 0.685 -0.413 0.601 65 58 49 0 0
0.0683 0.1618 -0.4226 0.422 0.884 0.201 86 72 44 0 0
0.0660 0.1584 -0.4370 0.704 0.647 0.293 111 95 62 0 0
0.0663 0.1587 -0.4384 0.568 0.808 0.155 113 97 64 0 0
0.0661 0.1582 -0.4450 0.416 0.869 0.269 112 96 62 0 0
0.0660 0.1575 -0.4565 0.415 0.870 0.267 127 108 76 0 0
0.0658 0.1572 -0.4583 0.675 0.716 0.181 125 106 74 0 0
0.0643 0.1543 -0.4793 0.448 0.889 -0.094 134 116 76 0 0
0.0631 0.1528 -0.4836 0.504 0.863 0.004 141 123 83 0 0
0.0601 0.1478 -0.5100 0.474 0.879 -0.053 147 128 88 0 0
0.0518 0.1349 -0.5689 0.479 0.877 -0.038 162 144 102 0 0
0.0518 0.1348 -0.5707 0.479 0.877 -0.038 158 139 99 0 0
0.0506 0.1331 -0.5773 0.605 0.788 -0.115 157 137 101 0 0
0.0505 0.1328 -0.5793 0.555 0.822 -0.125 164 144 104 0 0
0.0481 0.1283 -0.6134 0.422 0.906 0.035 136 117 85 0 0
0.0483 0.1283 -0.6189 0.485 0.875 0.015 157 138 100 0 0
0.0467 0.1256 -0.6378 0.624 0.781 0.029 156 137 97 0 0
0.0464 0.1244 -0.6556 0.838 0.541 -0.070 167 149 105 0 0
0.0417 0.1169 -0.6908 0.726 0.571 -0.384 126 110 75 0 0
0.0412 0.1162 -0.6934 0.732 0.587 -0.345 119 100 68 0 0
0.0406 0.1149 -0.7063 0.451 0.887 0.094 65 50 25 0 0
0.0408 0.1151 -0.7080 0.457 0.855 0.246 100 87 57 0 0
0.0418 0.1156 -0.7214 0.706 0.708 0.006 96 83 64 0 0
0.0420 0.1155 -0.7314 0.563 0.794 0.229 107 90 63 0 0
0.0403 0.1129 -0.7420 0.776 0.602 -0.190 128 112 80 0 0
0.0401 0.1125 -0.7443 0.824 0.556 -0.106 126 112 83 0 0
0.0401 0.1125 -0.7463 0.907 0.371 0.201 154 137 105 0 0
0.0371 0.1065 -0.7976 0.704 0.366 0.608 90 73 45 0 0
0.0402 0.1097 -0.8090 0.665 0.597 0.448 139 124 86 0 0
0.0407 0.1103 -0.8104 0.555 0.641 0.530 148 133 92 0 0
0.0430 0.1126 -0.8229 0.597 0.580 0.555 140 124 87 0 0
0.0475 0.1159 -0.8731 0.332 0.318 0.888 175 173 174 0 0
0.0488 0.1175 -0.8734 0.319 0.453 0.832 184 182 183 0 0
0.0498 0.1185 -0.8767 0.286 0.897 0.337 197 195 195 0 0
-0.0711 -0.0045 -0.2398 0.470 0.619 0.629 243 229 193 0 0
-0.0703 -0.0036 -0.2411 0.646 0.483 0.591 223 209 168 0 0
-0.0575 0.0114 -0.2607 0.420 0.809 0.412 161 146 118 0 0
-0.0520 0.0175 -0.2764 0.414 0.824 0.386 70 58 39 0 0
-0.0477 0.0225 -0.2828 0.564 0.691 0.453 159 145 105 0 0
-0.0467 0.0235 -0.2872 0.549 0.804 0.230 80 70 45 0 0
-0.0399 0.0312 -0.3038 0.754 0.536 0.380 115 98 75 0 0
-0.0343 0.0375 -0.3192 0.708 0.636 0.307 46 41 34 0 0
-0.0339 0.0378 -0.3207 0.708 0.636 0.307 45 41 37 0 0
-0.0305 0.0410 -0.3454 0.719 0.545 0.432 27 21 17 0 0
-0.0289 0.0427 -0.3496 0.681 0.569 0.460 111 105 93 0 0
-0.0284 0.0432 -0.3510 0.681 0.569 0.460 98 92 80 0 0
-0.0280 0.0437 -0.3524 0.707 0.607 0.364 73 66 56 0 0
-0.0276 0.0441 -0.3539 0.742 0.626 0.242 50 43 36 0 0
-0.0274 0.0443 -0.3554 0.742 0.626 0.242 35 30 24 0 0
-0.0271 0.0446 -0.3570 0.773 0.585 0.246 28 25 20 0 0
-0.0288 0.0419 -0.3696 0.032 0.926 0.376 32 27 19 0 0
-0.0281 0.0427 -0.3709 0.222 0.733 0.642 43 36 28 0 0
-0.0264 0.0447 -0.3734 0.615 -0.048 0.787 41 35 28 0 0
0.0666 0.1570 -0.4341 0.540 0.694 0.476 109 93 60 0 0
0.0663 0.1565 -0.4360 0.522 0.736 0.431 110 94 62 0 0
0.0669 0.1572 -0.4371 0.571 0.698 0.432 112 96 63 0 0
0.0665 0.1566 -0.4391 0.545 0.838 0.008 113 97 64 0 0
0.0663 0.1553 -0.4620 0.260 0.965 -0.012 121 102 69 0 0
0.0663 0.1553 -0.4636 0.283 0.958 0.051 121 102 69 0 0
0.0615 0.1471 -0.5098 0.471 0.874 -0.118 159 140 97 0 0
0.0612 0.1467 -0.5117 0.425 0.886 -0.186 155 136 93 0 0
0.0610 0.1464 -0.5136 0.425 0.886 -0.186 160 141 98 0 0
0.0594 0.1440 -0.5237 0.457 0.884 -0.102 163 144 101 0 0
0.0567 0.1397 -0.5420 0.643 0.766 -0.011 167 148 105 0 0
0.0567 0.1397 -0.5438 0.643 0.766 -0.011 162 143 101 0 0
0.0570 0.1400 -0.5453 0.450 0.887 -0.101 133 112 76 0 0
0.0532 0.1341 -0.5705 0.479 0.877 -0.038 169 151 111 0 0
0.0518 0.1320 -0.5792 0.702 0.706 -0.088 165 146 105 0 0
0.0480 0.1246 -0.6358 0.745 0.667 0.000 140 123 85 0 0
0.0420 0.1140 -0.7081 0.780 0.395 0.486 85 72 40 0 0
0.0431 0.1143 -0.7296 0.529 0.848 0.021 133 118 89 0 0
0.0347 0.1022 -0.7675 0.686 0.594 -0.420 152 134 90 0 0
0.0414 0.1085 -0.8091 0.776 0.440 0.452 133 114 78 0 0
0.0431 0.1101 -0.8201 0.839 0.484 0.248 148 129 92 0 0
0.0430 0.1099 -0.8224 0.758 0.548 0.354 144 127 90 0 0
0.0544 0.1218 -0.8695 -0.240 0.580 0.778 194 193 192 0 0
-0.0505 0.0168 -0.2762 0.442 0.859 0.257 59 47 31 0 0
-0.0478 0.0199 -0.2800 0.452 0.640 0.622 177 161 120 0 0
-0.0471 0.0208 -0.2813 0.498 0.647 0.577 166 148 106 0 0
-0.0465 0.0214 -0.2827 0.564 0.691 0.453 148 134 96 0 0
-0.0345 0.0348 -0.3149 0.427 0.792 0.436 67 58 45 0 0
-0.0332 0.0362 -0.3208 0.736 0.636 0.231 49 45 39 0 0
-0.0317 0.0380 -0.3218 0.548 0.771 0.325 45 41 36 0 0
-0.0313 0.0385 -0.3232 0.385 0.747 0.542 42 37 33 0 0
-0.0297 0.0395 -0.3423 0.519 0.568 0.638 11 10 8 0 0
-0.0294 0.0397 -0.3454 0.431 0.802 0.413 13 9 7 0 0
-0.0290 0.0402 -0.3468 0.651 0.666 0.364 42 38 31 0 0
-0.0284 0.0409 -0.3482 0.636 0.587 0.500 70 64 56 0 0
-0.0278 0.0415 -0.3496 0.636 0.587 0.500 68 61 54 0 0
-0.0273 0.0421 -0.3510 0.636 0.587 0.500 60 53 44 0 0
-0.0268 0.0427 -0.3524 0.636 0.587 0.500 54 47 38 0 0
-0.0266 0.0428 -0.3540 0.742 0.626 0.242 45 38 32 0 0
-0.0263 0.0431 -0.3555 0.742 0.626 0.242 38 33 27 0 0
-0.0251 0.0445 -0.3565 0.614 0.755 0.233 31 26 22 0 0
-0.0249 0.0448 -0.3581 0.643 0.758 0.112 28 23 20 0 0
0.0686 0.1561 -0.4561 0.559 0.734 0.386 118 102 68 0 0
0.0673 0.1541 -0.4653 0.455 0.883 0.116 121 103 67 0 0
0.0673 0.1538 -0.4720 0.458 0.889 -0.021 118 101 66 0 0
0.0673 0.1537 -0.4736 0.524 0.841 -0.133 125 106 69 0 0
0.0636 0.1477 -0.5037 0.388 0.921 0.012 147 126 85 0 0
0.0575 0.1380 -0.5476 0.763 0.646 0.010 161 141 99 0 0
0.0572 0.1376 -0.5497 0.766 0.630 0.131 165 146 100 0 0
0.0574 0.1377 -0.5513 0.766 0.630 0.131 154 134 94 0 0
0.0572 0.1374 -0.5533 0.611 0.774 -0.164 160 141 100 0 0
0.0564 0.1362 -0.5576 0.646 0.731 -0.219 153 134 92 0 0
0.0512 0.1275 -0.6069 0.711 0.703 -0.002 159 145 104 0 0
0.0511 0.1273 -0.6089 0.617 0.781 -0.100 163 148 108 0 0
0.0510 0.1270 -0.6110 0.592 0.796 -0.125 169 153 112 0 0
0.0499 0.1250 -0.6235 0.636 0.770 -0.045 145 125 88 0 0
0.0498 0.1249 -0.6255 0.636 0.770 -0.045 132 112 79 0 0
0.0497 0.1245 -0.6295 0.590 0.795 -0.140 106 91 60 0 0
0.0491 0.1234 -0.6359 0.745 0.667 0.000 91 76 49 0 0
0.0491 0.1230 -0.6475 0.788 0.592 -0.170 105 89 66 0 0
0.0419 0.1113 -0.7056 0.821 0.446 0.358 111 94 65 0 0
0.0348 0.0994 -0.7711 0.641 0.651 -0.408 147 126 88 0 0
0.0425 0.1073 -0.8049 0.553 0.639 0.535 159 141 99 0 0
0.0435 0.1081 -0.8146 0.802 0.590 0.095 158 139 97 0 0
0.0437 0.1082 -0.8166 0.802 0.590 0.095 162 144 102 0 0
0.0438 0.1083 -0.8187 0.846 0.500 0.186 148 129 93 0 0
0.0441 0.1060 -0.8751 0.698 -0.193 0.690 164 163 160 0 0
0.0547 0.1194 -0.8710 0.337 0.720 0.606 194 194 192 0 0
-0.0593 0.0044 -0.2541 0.595 0.726 0.344 50 39 27 0 0
-0.0459 0.0198 -0.2813 0.498 0.647 0.577 152 137 101 0 0
-0.0453 0.0204 -0.2827 0.562 0.668 0.487 118 101 71 0 0
-0.0398 0.0266 -0.2982 0.446 0.672 0.591 104 93 81 0 0
-0.0337 0.0335 -0.3134 0.739 0.560 0.375 55 47 38 0 0
-0.0326 0.0337 -0.3359 0.288 0.803 0.521 24 21 18 0 0
-0.0294 0.0374 -0.3426 0.531 0.634 0.563 12 11 8 0 0
-0.0282 0.0388 -0.3437 0.798 0.575 0.180 7 6 5 0 0
-0.0286 0.0383 -0.3456 0.661 0.550 0.511 8 6 7 0 0
-0.0280 0.0389 -0.3469 0.722 0.513 0.464 28 23 22 0 0
-0.0274 0.0396 -0.3483 0.711 0.462 0.529 59 53 48 0 0
-0.0267 0.0404 -0.3496 0.651 0.648 0.397 74 67 58 0 0
-0.0263 0.0409 -0.3511 0.651 0.648 0.397 78 72 60 0 0
-0.0258 0.0413 -0.3525 0.651 0.648 0.397 78 71 59 0 0
-0.0255 0.0416 -0.3540 0.742 0.626 0.242 76 69 60 0 0
-0.0253 0.0419 -0.3555 0.742 0.626 0.242 58 54 46 0 0
0.0527 0.1396 -0.3419 0.720 0.570 0.395 70 57 42 0 0
0.0534 0.1403 -0.3430 0.880 0.347 0.325 79 66 50 0 0
0.0525 0.1389 -0.3496 0.899 0.272 -0.343 113 99 73 0 0
0.0632 0.1508 -0.3798 0.636 0.734 0.236 81 66 44 0 0
0.0637 0.1513 -0.3826 0.464 0.691 0.554 78 63 40 0 0
0.0637 0.1512 -0.3841 0.551 0.608 0.572 74 59 37 0 0
0.0656 0.1535 -0.3859 0.503 0.731 0.461 72 57 34 0 0
0.0709 0.1585 -0.4198 0.574 0.558 0.599 71 56 33 0 0
0.0719 0.1595 -0.4238 0.493 0.771 0.403 87 73 46 0 0
0.0723 0.1599 -0.4251 0.440 0.834 0.333 90 75 46 0 0
0.0698 0.1562 -0.4397 0.409 0.897 0.165 115 99 66 0 0
0.0698 0.1553 -0.4561 0.518 0.766 0.380 115 99 63 0 0
0.0690 0.1536 -0.4715 0.388 0.921 0.029 123 107 72 0 0
0.0671 0.1508 -0.4813 0.479 0.864 -0.158 155 136 94 0 0
0.0662 0.1492 -0.4905 0.576 0.799 -0.173 144 125 83 0 0
0.0591 0.1378 -0.5419 0.738 0.670 -0.077 160 142 96 0 0
0.0589 0.1374 -0.5474 0.705 0.700 -0.119 159 137 95 0 0
0.0568 0.1339 -0.5656 0.682 0.714 -0.158 168 149 107 0 0
0.0565 0.1334 -0.5677 0.658 0.753 0.000 147 128 88 0 0
0.0566 0.1334 -0.5694 0.667 0.744 0.038 153 135 99 0 0
0.0547 0.1305 -0.5823 0.450 0.786 0.424 159 140 100 0 0
0.0526 0.1268 -0.6048 0.420 0.906 0.052 135 119 89 0 0
0.0524 0.1263 -0.6089 0.617 0.781 -0.100 155 139 105 0 0
0.0370 0.0996 -0.7657 0.745 0.572 -0.344 156 141 96 0 0
0.0349 0.0964 -0.7792 0.649 0.728 0.223 152 133 94 0 0
0.0351 0.0966 -0.7811 0.456 0.515 0.725 92 73 42 0 0
0.0354 0.0967 -0.7851 0.574 0.606 0.551 48 33 13 0 0
0.0516 0.1129 -0.8683 0.044 0.037 0.998 177 176 174 0 0
0.0537 0.1155 -0.8676 -0.006 0.028 1.000 182 181 179 0 0
0.0533 0.1148 -0.8727 0.061 0.489 0.870 191 191 189 0 0
-0.0595 0.0019 -0.2482 0.470 0.844 0.258 171 154 124 0 0
-0.0438 0.0198 -0.2825 0.598 0.635 0.490 106 87 60 0 0
-0.0419 0.0216 -0.2947 0.253 0.889 0.383 33 30 22 0 0
-0.0343 0.0304 -0.3077 0.608 0.769 0.198 50 41 35 0 0
-0.0341 0.0307 -0.3092 0.608 0.769 0.198 50 42 37 0 0
-0.0341 0.0306 -0.3108 0.487 0.850 0.200 46 39 33 0 0
-0.0339 0.0307 -0.3124 0.538 0.819 0.201 47 41 35 0 0
-0.0269 0.0378 -0.3469 0.575 0.613 0.542 20 17 16 0 0
-0.0257 0.0391 -0.3497 0.663 0.643 0.383 99 93 82 0 0
-0.0253 0.0395 -0.3511 0.663 0.643 0.383 128 122 108 0 0
-0.0249 0.0400 -0.3526 0.663 0.643 0.383 120 114 99 0 0
-0.0245 0.0404 -0.3541 0.597 0.728 0.337 99 93 82 0 0
0.0473 0.1309 -0.3334 -0.088 0.594 0.800 52 45 31 0 0
0.0481 0.1319 -0.3345 0.167 0.529 0.832 57 49 38 0 0
0.0523 0.1369 -0.3382 0.234 0.966 0.105 98 83 61 0 0
0.0628 0.1485 -0.3684 0.476 0.555 0.682 88 74 48 0 0
0.0632 0.1490 -0.3697 0.701 0.674 0.234 89 75 48 0 0
0.0636 0.1492 -0.3756 0.459 0.590 0.665 80 65 43 0 0
0.0641 0.1498 -0.3768 0.443 0.673 0.593 76 61 40 0 0
0.0642 0.1499 -0.3782 0.678 0.625 0.388 74 59 40 0 0
0.0646 0.1502 -0.3796 0.779 0.616 0.117 73 58 39 0 0
0.0650 0.1506 -0.3824 0.753 0.554 0.356 70 55 35 0 0
0.0655 0.1512 -0.3836 0.604 0.600 0.525 70 55 34 0 0
0.0660 0.1517 -0.3848 0.633 0.610 0.477 70 55 34 0 0
0.0685 0.1544 -0.3925 0.494 0.747 0.445 60 45 26 0 0
0.0720 0.1586 -0.3978 0.695 0.381 0.610 63 47 30 0 0
0.0725 0.1591 -0.4006 0.441 0.213 0.872 62 47 28 0 0
0.0720 0.1563 -0.4454 0.342 0.890 0.301 112 95 64 0 0
0.0720 0.1562 -0.4470 0.455 0.888 -0.056 112 95 64 0 0
0.0707 0.1542 -0.4545 0.282 0.896 0.343 112 96 62 0 0
0.0710 0.1546 -0.4559 0.412 0.853 0.320 110 94 61 0 0
0.0700 0.1524 -0.4732 0.463 0.883 -0.075 137 118 81 0 0
0.0692 0.1512 -0.4788 0.600 0.775 -0.197 145 126 84 0 0
0.0691 0.1509 -0.4806 0.698 0.693 -0.181 157 138 96 0 0
0.0662 0.1461 -0.5051 0.452 0.848 -0.276 149 128 87 0 0
0.0631 0.1417 -0.5164 0.747 0.634 -0.197 147 128 87 0 0
0.0602 0.1369 -0.5401 0.698 0.704 -0.132 160 141 100 0 0
0.0539 0.1256 -0.6086 0.481 0.877 -0.008 131 118 91 0 0
0.0369 0.0962 -0.7783 0.770 0.634 0.066 158 140 96 0 0
0.0370 0.0961 -0.7825 0.753 0.376 0.541 86 67 41 0 0
0.0375 0.0966 -0.7841 0.276 0.796 0.538 73 54 28 0 0
0.0512 0.1097 -0.8662 0.400 0.067 0.914 170 170 168 0 0
0.0554 0.1145 -0.8740 0.158 0.399 0.903 197 197 195 0 0
-0.0568 0.0021 -0.2605 0.579 0.725 0.373 40 32 19 0 0
-0.0394 0.0222 -0.2941 0.549 0.728 0.411 48 41 35 0 0
-0.0383 0.0235 -0.2953 0.328 0.698 0.637 26 21 17 0 0
-0.0361 0.0259 -0.3041 0.818 0.454 0.353 96 83 65 0 0
-0.0357 0.0263 -0.3055 0.818 0.454 0.353 98 87 72 0 0
-0.0353 0.0267 -0.3070 0.579 0.558 0.594 54 45 35 0 0
-0.0345 0.0277 -0.3082 0.391 0.594 0.703 44 37 31 0 0
-0.0336 0.0287 -0.3095 0.391 0.594 0.703 40 35 31 0 0
-0.0332 0.0291 -0.3109 0.332 0.647 0.686 29 25 21 0 0
-0.0324 0.0300 -0.3122 0.677 0.584 0.447 23 19 15 0 0
-0.0310 0.0315 -0.3181 0.559 0.700 0.444 33 28 25 0 0
-0.0306 0.0320 -0.3196 0.432 0.814 0.388 39 35 31 0 0
-0.0302 0.0324 -0.3210 0.432 0.814 0.388 37 33 30 0 0
-0.0301 0.0319 -0.3341 0.745 0.645 0.168 27 25 21 0 0
-0.0246 0.0380 -0.3480 0.682 0.719 0.133 51 44 38 0 0
0.0415 0.1222 -0.3189 -0.450 0.778 0.438 89 81 68 0 0
0.0431 0.1241 -0.3196 -0.525 0.660 0.537 58 50 39 0 0
0.0503 0.1323 -0.3354 0.102 0.644 0.759 104 91 66 0 0
0.0521 0.1345 -0.3373 0.798 0.394 0.456 120 101 71 0 0
0.0661 0.1503 -0.3731 0.750 0.597 0.286 77 64 42 0 0
0.0649 0.1483 -0.3815 0.738 0.564 0.370 65 52 33 0 0
0.0697 0.1533 -0.4001 0.446 0.885 0.133 59 41 27 0 0
0.0754 0.1598 -0.4118 0.359 0.764 0.536 62 47 28 0 0
0.0742 0.1577 -0.4269 0.597 0.647 0.474 86 72 46 0 0
0.0733 0.1557 -0.4436 0.278 0.946 0.164 112 96 63 0 0
0.0552 0.1250 -0.6046 0.741 0.669 -0.054 153 141 114 0 0
0.0380 0.0948 -0.7786 0.578 0.808 -0.116 164 145 101 0 0
0.0378 0.0944 -0.7811 0.721 0.574 0.389 115 97 59 0 0
0.0387 0.0954 -0.7842 0.687 0.645 0.336 117 98 64 0 0
0.0457 0.1001 -0.8646 0.616 -0.016 0.788 141 140 134 0 0
0.0483 0.1033 -0.8655 0.447 0.068 0.892 158 157 155 0 0
-0.0556 0.0010 -0.2604 0.508 0.779 0.368 41 32 22 0 0
-0.0447 0.0139 -0.2757 0.451 0.851 0.269 28 21 16 0 0
-0.0362 0.0233 -0.3030 0.701 0.648 0.298 96 83 67 0 0
-0.0358 0.0236 -0.3044 0.630 0.503 0.592 90 78 63 0 0
-0.0348 0.0249 -0.3056 0.818 0.454 0.353 84 75 62 0 0
-0.0341 0.0257 -0.3069 0.659 0.464 0.591 67 59 50 0 0
-0.0332 0.0268 -0.3082 0.391 0.594 0.703 49 41 34 0 0
-0.0321 0.0280 -0.3109 0.520 0.500 0.693 46 42 34 0 0
-0.0314 0.0288 -0.3123 0.713 0.520 0.470 38 34 28 0 0
-0.0309 0.0294 -0.3137 0.631 0.629 0.454 24 21 16 0 0
-0.0261 0.0348 -0.3245 0.555 0.637 0.535 27 23 20 0 0
0.0491 0.1290 -0.3275 0.885 0.396 0.243 104 88 61 0 0
0.0538 0.1340 -0.3445 0.097 0.984 0.150 146 127 87 0 0
0.0531 0.1330 -0.3465 0.245 0.949 0.198 140 121 81 0 0
0.0491 0.1276 -0.3549 0.974 -0.222 0.044 142 124 87 0 0
0.0494 0.1278 -0.3563 0.967 -0.241 0.080 135 117 81 0 0
0.0662 0.1485 -0.3645 0.438 0.767 0.469 93 77 51 0 0
0.0702 0.1531 -0.3712 0.336 0.808 0.484 74 62 40 0 0
0.0707 0.1537 -0.3724 0.569 0.778 0.268 73 61 41 0 0
0.0709 0.1540 -0.3737 0.569 0.778 0.268 70 57 38 0 0
0.0718 0.1510 -0.4521 0.786 0.601 0.144 110 92 62 0 0
0.0730 0.1523 -0.4577 0.591 0.791 0.157 108 92 60 0 0
0.0732 0.1524 -0.4592 0.548 0.828 -0.117 120 106 77 0 0
0.0434 0.0980 -0.7951 0.738 0.296 0.606 148 128 92 0 0
0.0436 0.0981 -0.7971 0.749 0.448 0.488 133 114 75 0 0
0.0451 0.0965 -0.8651 0.659 -0.084 0.748 144 142 137 0 0
0.0468 0.0987 -0.8649 0.661 0.083 0.746 152 151 147 0 0
0.0493 0.1017 -0.8660 0.108 0.112 0.988 166 165 163 0 0
-0.0652 -0.0123 -0.2367 0.279 0.425 0.861 149 137 126 0 0
-0.0429 0.0137 -0.2770 0.397 0.862 0.316 16 11 6 0 0
-0.0348 0.0225 -0.3012 0.474 0.627 0.619 111 100 87 0 0
-0.0351 0.0221 -0.3030 0.566 0.707 0.423 102 91 77 0 0
-0.0342 0.0231 -0.3042 0.669 0.730 0.140 86 76 66 0 0
-0.0341 0.0233 -0.3058 0.560 0.821 0.108 52 44 37 0 0
-0.0335 0.0239 -0.3072 0.464 0.801 0.378 28 22 16 0 0
-0.0328 0.0247 -0.3085 0.398 0.728 0.558 31 23 19 0 0
-0.0322 0.0253 -0.3099 0.494 0.676 0.547 41 33 28 0 0
-0.0317 0.0259 -0.3113 0.490 0.594 0.638 60 54 46 0 0
-0.0304 0.0275 -0.3123 0.612 0.644 0.458 66 63 54 0 0
0.0671 0.1475 -0.3631 0.377 0.809 0.450 91 75 49 0 0
0.0683 0.1486 -0.3685 0.712 0.558 0.427 86 72 47 0 0
0.0680 0.1482 -0.3701 0.559 0.579 0.594 79 64 41 0 0
0.0769 0.1564 -0.4280 0.721 0.567 0.398 76 63 42 0 0
0.0772 0.1566 -0.4294 0.746 0.501 0.439 83 67 44 0 0
0.0724 0.1495 -0.4508 0.260 0.961 0.097 109 92 61 0 0
0.0725 0.1496 -0.4523 0.260 0.961 0.097 108 91 61 0 0
0.0728 0.1498 -0.4554 0.284 0.798 0.531 106 89 57 0 0
0.0736 0.1508 -0.4564 0.729 0.374 0.574 98 82 55 0 0
0.0661 0.1382 -0.5185 0.523 0.852 0.029 100 88 73 0 0
0.0658 0.1376 -0.5205 0.657 0.754 -0.001 112 100 83 0 0
0.0636 0.1343 -0.5312 0.801 0.568 -0.189 122 108 92 0 0
0.0634 0.1340 -0.5332 0.826 0.534 -0.180 123 109 94 0 0
0.0434 0.0949 -0.7992 0.806 0.524 0.274 153 135 94 0 0
0.0508 0.1008 -0.8657 0.361 0.069 0.930 171 170 168 0 0
-0.0558 -0.0036 -0.2468 0.409 0.671 0.619 197 181 146 0 0
-0.0335 0.0216 -0.3012 0.506 0.738 0.446 106 97 86 0 0
-0.0329 0.0223 -0.3041 0.560 0.821 0.108 58 50 43 0 0
-0.0328 0.0224 -0.3057 0.560 0.821 0.108 28 23 19 0 0
-0.0321 0.0231 -0.3070 0.464 0.801 0.378 52 47 42 0 0
-0.0307 0.0247 -0.3097 0.541 0.479 0.691 39 30 29 0 0
-0.0305 0.0249 -0.3112 0.490 0.594 0.638 41 34 29 0 0
0.0670 0.1457 -0.3516 0.680 0.555 0.479 110 94 65 0 0
0.0703 0.1488 -0.3724 0.399 0.622 0.674 67 55 33 0 0
0.0767 0.1548 -0.4099 0.668 0.664 0.337 56 41 26 0 0
0.0680 0.1388 -0.5056 0.961 0.272 0.048 136 126 103 0 0
0.0682 0.1390 -0.5072 0.940 0.338 0.048 138 128 108 0 0
0.0679 0.1385 -0.5092 0.958 0.283 -0.054 139 129 110 0 0
0.0682 0.1387 -0.5107 0.927 0.330 -0.178 142 131 111 0 0
0.0421 0.0914 -0.7827 0.340 0.820 0.460 142 122 86 0 0
0.0434 0.0915 -0.8120 0.873 0.172 0.457 170 151 109 0 0
0.0439 0.0920 -0.8136 0.866 0.182 0.467 170 150 109 0 0
0.0445 0.0927 -0.8150 0.824 0.399 0.402 170 152 109 0 0
0.0452 0.0912 -0.8619 0.278 0.126 0.952 141 137 132 0 0
-0.0389 0.0135 -0.2795 0.521 0.728 0.446 71 63 59 0 0
-0.0389 0.0134 -0.2811 0.556 0.639 0.533 120 111 101 0 0
-0.0383 0.0141 -0.2825 0.556 0.639 0.533 126 119 108 0 0
-0.0378 0.0146 -0.2840 0.654 0.629 0.421 119 111 101 0 0
-0.0374 0.0151 -0.2854 0.642 0.669 0.375 106 98 88 0 0
-0.0317 0.0214 -0.3025 0.639 0.758 0.130 59 54 47 0 0
-0.0256 0.0281 -0.3210 0.473 0.714 0.515 43 37 34 0 0
0.0634 0.1395 -0.3408 0.282 0.685 0.672 148 128 92 0 0
0.0682 0.1452 -0.3470 0.562 0.728 0.392 122 105 75 0 0
0.0725 0.1482 -0.3902 0.715 0.604 0.352 54 38 24 0 0
0.0731 0.1490 -0.3913 0.817 0.402 0.412 49 34 20 0 0
0.0730 0.1486 -0.3976 0.613 0.783 -0.105 49 36 20 0 0
0.0778 0.1540 -0.4099 0.581 0.789 0.202 44 29 17 0 0
0.0780 0.1541 -0.4113 0.353 0.803 0.479 40 26 15 0 0
0.0454 0.0884 -0.8636 0.617 -0.140 0.774 149 148 146 0 0
-0.0381 0.0120 -0.2781 0.521 0.728 0.446 12 10 6 0 0
-0.0377 0.0125 -0.2795 0.521 0.728 0.446 53 46 42 0 0
-0.0374 0.0127 -0.2810 0.556 0.683 0.473 101 93 85 0 0
-0.0369 0.0133 -0.2824 0.556 0.683 0.473 109 101 92 0 0
-0.0364 0.0139 -0.2838 0.556 0.683 0.473 70 60 53 0 0
-0.0359 0.0144 -0.2852 0.556 0.683 0.473 42 31 25 0 0
-0.0354 0.0149 -0.2867 0.540 0.746 0.389 37 27 19 0 0
-0.0350 0.0154 -0.2881 0.540 0.746 0.389 36 28 19 0 0
-0.0346 0.0158 -0.2896 0.540 0.746 0.389 46 38 29 0 0
0.0690 0.1437 -0.3517 0.628 0.761 0.161 104 89 61 0 0
0.0698 0.1446 -0.3542 0.668 0.562 0.487 91 76 51 0 0
0.0716 0.1461 -0.3668 0.529 0.812 0.249 73 60 39 0 0
0.0724 0.1461 -0.3863 0.736 0.665 0.126 62 46 30 0 0
0.0737 0.1475 -0.3916 0.250 0.642 0.724 49 34 20 0 0
0.0741 0.1479 -0.3928 0.413 0.840 0.352 46 33 17 0 0
0.0762 0.1502 -0.3992 0.186 0.932 0.311 55 40 24 0 0
0.0768 0.1509 -0.4004 0.608 0.705 0.366 58 42 27 0 0
0.0804 0.1547 -0.4135 0.434 0.823 0.368 48 34 21 0 0
0.0807 0.1550 -0.4149 0.571 0.773 0.274 50 39 24 0 0
0.0810 0.1553 -0.4162 0.571 0.773 0.274 48 39 22 0 0
0.0692 0.1363 -0.4894 0.955 -0.169 -0.243 105 93 75 0 0
0.0452 0.0853 -0.8634 0.292 0.007 0.956 152 150 145 0 0
0.0461 0.0864 -0.8645 0.190 0.033 0.981 158 157 153 0 0
-0.0626 -0.0193 -0.2357 0.113 0.568 0.815 179 177 178 0 0
-0.0610 -0.0173 -0.2368 0.510 0.518 0.687 179 173 170 0 0
-0.0572 -0.0127 -0.2404 0.453 0.573 0.683 142 128 106 0 0
-0.0552 -0.0102 -0.2413 0.680 0.430 0.594 168 153 126 0 0
-0.0363 0.0116 -0.2810 0.481 0.685 0.547 76 68 60 0 0
-0.0357 0.0123 -0.2824 0.481 0.685 0.547 86 80 71 0 0
-0.0350 0.0130 -0.2853 0.501 0.759 0.417 89 81 73 0 0
-0.0345 0.0136 -0.2867 0.483 0.822 0.302 93 86 77 0 0
-0.0342 0.0139 -0.2882 0.529 0.836 0.146 88 81 72 0 0
-0.0338 0.0143 -0.2897 0.483 0.822 0.302 84 77 69 0 0
0.0706 0.1433 -0.3544 0.697 0.649 0.304 80 65 42 0 0
0.0715 0.1440 -0.3629 0.557 0.615 0.558 68 55 35 0 0
0.0719 0.1443 -0.3672 0.806 0.568 0.164 70 57 38 0 0
0.0747 0.1467 -0.3854 0.748 0.592 0.300 59 43 28 0 0
0.0750 0.1470 -0.3868 0.748 0.592 0.300 60 44 28 0 0
0.0755 0.1476 -0.3880 0.526 0.665 0.530 59 43 28 0 0
0.0752 0.1471 -0.3913 0.220 0.746 0.629 49 34 20 0 0
0.0760 0.1481 -0.3923 0.393 0.743 0.542 45 32 16 0 0
0.0762 0.1482 -0.3937 0.355 0.908 0.223 45 32 16 0 0
0.0788 0.1511 -0.4013 0.648 0.758 0.072 52 38 27 0 0
0.0810 0.1533 -0.4107 0.254 0.840 0.479 62 52 37 0 0
0.0823 0.1548 -0.4144 0.470 0.825 0.313 86 76 60 0 0
0.0422 0.0825 -0.7943 0.969 0.170 0.177 179 166 123 0 0
0.0425 0.0828 -0.7962 0.955 0.098 0.278 170 156 116 0 0
-0.0502 -0.0067 -0.2464 0.479 0.434 0.763 146 131 106 0 0
-0.0495 -0.0059 -0.2478 0.547 0.490 0.679 157 143 115 0 0
-0.0371 0.0084 -0.2737 0.647 0.678 0.350 45 39 35 0 0
-0.0332 0.0126 -0.2867 0.619 0.751 0.230 114 107 100 0 0
-0.0322 0.0137 -0.2895 0.525 0.789 0.319 40 35 30 0 0
-0.0322 0.0137 -0.2911 0.536 0.844 -0.005 25 20 15 0 0
0.0737 0.1438 -0.3759 0.572 0.677 0.463 62 45 29 0 0
0.0744 0.1445 -0.3770 0.546 0.821 0.166 61 45 29 0 0
0.0756 0.1456 -0.3855 0.267 0.917 0.296 58 42 27 0 0
0.0760 0.1461 -0.3868 0.413 0.830 0.375 60 44 28 0 0
0.0766 0.1467 -0.3879 0.526 0.665 0.530 60 45 29 0 0
0.0769 0.1471 -0.3893 0.641 0.581 0.501 55 40 24 0 0
0.0781 0.1484 -0.3931 0.764 0.622 0.171 50 36 20 0 0
0.0791 0.1497 -0.3940 0.375 0.874 0.308 58 46 30 0 0
0.0795 0.1501 -0.3953 0.482 0.796 0.366 60 50 35 0 0
0.0799 0.1504 -0.3966 0.482 0.796 0.366 66 54 40 0 0
-0.0355 0.0077 -0.2783 0.550 0.786 0.282 11 10 9 0 0
-0.0343 0.0092 -0.2795 0.596 0.621 0.509 13 10 9 0 0
-0.0328 0.0107 -0.2837 0.565 0.736 0.373 96 89 82 0 0
-0.0324 0.0112 -0.2852 0.565 0.736 0.373 91 84 78 0 0
-0.0320 0.0116 -0.2866 0.618 0.709 0.341 53 45 41 0 0
-0.0313 0.0124 -0.2880 0.525 0.789 0.319 28 22 19 0 0
-0.0310 0.0128 -0.2894 0.525 0.789 0.319 20 18 14 0 0
-0.0306 0.0132 -0.2909 0.525 0.789 0.319 19 17 13 0 0
-0.0304 0.0134 -0.2924 0.548 0.825 0.134 28 25 23 0 0
-0.0300 0.0138 -0.2939 0.599 0.752 0.275 29 28 26 0 0
0.0440 0.1082 -0.2963 0.372 0.713 0.594 177 155 117 0 0
0.0784 0.1468 -0.3874 0.526 0.691 0.496 64 51 34 0 0
-0.0472 -0.0081 -0.2477 0.716 0.441 0.542 92 82 68 0 0
-0.0384 0.0019 -0.2686 0.693 0.190 0.696 67 62 56 0 0
-0.0365 0.0042 -0.2711 0.625 0.419 0.659 35 30 28 0 0
-0.0348 0.0062 -0.2753 0.623 0.533 0.572 33 28 26 0 0
-0.0345 0.0065 -0.2768 0.375 0.853 0.363 36 34 31 0 0
-0.0343 0.0066 -0.2783 0.623 0.774 0.113 16 16 14 0 0
-0.0340 0.0069 -0.2798 0.477 0.863 0.167 12 9 10 0 0
-0.0338 0.0071 -0.2813 0.403 0.691 0.600 37 32 28 0 0
-0.0326 0.0085 -0.2825 0.435 0.697 0.570 75 68 62 0 0
-0.0320 0.0093 -0.2838 0.435 0.697 0.570 81 74 66 0 0
-0.0313 0.0100 -0.2852 0.331 0.753 0.569 54 47 40 0 0
-0.0305 0.0110 -0.2865 0.398 0.836 0.379 44 36 32 0 0
-0.0301 0.0114 -0.2879 0.398 0.855 0.332 36 32 28 0 0
-0.0298 0.0118 -0.2894 0.398 0.855 0.332 37 37 32 0 0
-0.0294 0.0122 -0.2909 0.398 0.855 0.332 40 39 35 0 0
-0.0291 0.0125 -0.2923 0.548 0.825 0.134 37 36 33 0 0
0.0350 0.0947 -0.2906 -0.587 0.630 0.508 99 86 68 0 0
0.0440 0.1060 -0.2939 0.591 0.694 0.411 204 187 138 0 0
0.0815 0.1482 -0.3937 0.599 0.738 0.310 97 87 67 0 0
-0.0469 -0.0101 -0.2448 0.694 0.505 0.512 95 87 70 0 0
-0.0372 0.0009 -0.2686 0.674 0.226 0.704 66 63 56 0 0
-0.0361 0.0022 -0.2714 0.746 0.599 0.291 46 44 38 0 0
-0.0358 0.0024 -0.2729 0.784 0.576 0.229 50 49 42 0 0
-0.0307 0.0083 -0.2838 0.602 0.540 0.588 76 69 62 0 0
-0.0301 0.0091 -0.2851 0.602 0.540 0.588 80 73 67 0 0
-0.0294 0.0098 -0.2865 0.606 0.593 0.530 87 79 76 0 0
-0.0289 0.0104 -0.2879 0.597 0.642 0.481 73 69 65 0 0
-0.0283 0.0111 -0.2892 0.606 0.593 0.530 54 53 49 0 0
-0.0280 0.0114 -0.2907 0.594 0.726 0.348 42 42 38 0 0
0.0537 0.1153 -0.3075 0.268 0.722 0.638 224 204 153 0 0
0.0551 0.1170 -0.3083 0.183 0.690 0.700 224 204 153 0 0
0.0677 0.1318 -0.3328 0.502 0.766 0.401 146 129 91 0 0
0.0788 0.1433 -0.3792 0.198 0.959 0.201 83 68 52 0 0
0.0793 0.1437 -0.3820 0.654 0.753 0.065 91 80 62 0 0
0.0795 0.1439 -0.3834 0.731 0.670 0.130 97 86 68 0 0
-0.0421 -0.0080 -0.2676 0.281 0.050 0.958 37 35 31 0 0
-0.0345 0.0014 -0.2744 0.820 0.545 0.178 41 40 36 0 0
-0.0339 0.0021 -0.2758 0.713 0.667 0.214 24 23 20 0 0
-0.0277 0.0092 -0.2911 0.937 0.100 0.334 29 26 24 0 0
0.0480 0.1063 -0.2959 0.583 0.736 0.344 225 204 156 0 0
0.0484 0.1068 -0.2972 0.560 0.718 0.413 226 206 160 0 0
0.0485 0.1069 -0.2986 0.552 0.603 0.576 229 207 159 0 0
0.0562 0.1162 -0.3067 0.451 0.790 0.416 226 205 155 0 0
0.0577 0.1181 -0.3089 0.520 0.806 0.283 213 193 143 0 0
0.0580 0.1184 -0.3102 0.520 0.806 0.283 200 179 132 0 0
0.0617 0.1229 -0.3157 0.303 0.835 0.460 191 170 124 0 0
0.0753 0.1388 -0.3410 0.697 0.715 0.054 109 92 69 0 0
0.0803 0.1427 -0.3820 0.731 0.670 0.130 112 103 81 0 0
0.0805 0.1429 -0.3834 0.897 0.442 -0.011 114 105 84 0 0
-0.0393 -0.0070 -0.2686 0.472 -0.043 0.880 51 48 44 0 0
-0.0376 -0.0048 -0.2695 0.539 -0.026 0.842 69 64 60 0 0
-0.0358 -0.0025 -0.2705 0.632 0.160 0.758 57 54 50 0 0
-0.0340 -0.0003 -0.2714 0.656 0.668 0.351 41 40 35 0 0
-0.0337 -0.0001 -0.2729 0.633 0.739 0.232 33 32 27 0 0
-0.0336 0.0001 -0.2745 0.713 0.651 0.259 20 19 16 0 0
-0.0333 0.0003 -0.2760 0.791 0.567 0.228 14 12 11 0 0
-0.0341 -0.0009 -0.2779 0.936 0.325 -0.136 7 6 6 0 0
0.0539 0.1112 -0.3039 0.422 0.584 0.693 225 205 156 0 0
0.0572 0.1153 -0.3067 0.243 0.819 0.520 230 210 160 0 0
0.0663 0.1260 -0.3228 0.551 0.731 0.403 166 145 104 0 0
-0.0468 -0.0186 -0.2572 0.197 0.848 0.492 8 8 8 0 0
-0.0465 -0.0185 -0.2619 0.101 0.910 0.402 8 6 7 0 0
-0.0460 -0.0179 -0.2634 0.598 0.746 0.293 9 7 8 0 0
-0.0467 -0.0190 -0.2653 -0.075 0.951 0.299 12 10 11 0 0
-0.0461 -0.0183 -0.2667 -0.127 0.920 0.372 22 20 21 0 0
-0.0428 -0.0140 -0.2671 -0.111 0.482 0.869 24 23 21 0 0
-0.0373 -0.0071 -0.2699 0.313 0.069 0.947 44 39 37 0 0
-0.0354 -0.0046 -0.2707 0.661 0.054 0.748 29 25 23 0 0
-0.0329 -0.0014 -0.2714 0.656 0.668 0.351 24 23 20 0 0
-0.0331 -0.0018 -0.2731 0.734 0.679 0.012 21 20 17 0 0
-0.0335 -0.0025 -0.2749 0.944 0.328 -0.032 17 16 14 0 0
-0.0323 -0.0015 -0.2825 0.995 -0.043 0.086 5 4 5 0 0
0.0586 0.1148 -0.3065 0.431 0.687 0.585 234 216 168 0 0
0.0602 0.1168 -0.3087 0.486 0.747 0.455 200 179 131 0 0
0.0612 0.1179 -0.3096 0.353 0.728 0.588 198 177 132 0 0
0.0668 0.1244 -0.3216 0.566 0.709 0.422 162 142 101 0 0
0.0696 0.1277 -0.3275 0.431 0.564 0.705 170 150 106 0 0
0.0757 0.1342 -0.3495 0.487 0.651 0.583 70 57 40 0 0
0.0763 0.1349 -0.3507 0.474 0.681 0.557 64 51 35 0 0
0.0770 0.1357 -0.3518 0.616 0.702 0.358 64 51 34 0 0
0.0773 0.1360 -0.3531 0.596 0.583 0.552 71 58 41 0 0
0.0780 0.1369 -0.3542 0.609 0.616 0.500 74 61 45 0 0
0.0783 0.1372 -0.3555 0.608 0.714 0.347 72 58 45 0 0
0.0786 0.1375 -0.3568 0.608 0.714 0.347 79 67 53 0 0
0.0790 0.1379 -0.3581 0.794 0.608 -0.005 87 76 59 0 0
0.0794 0.1383 -0.3594 0.867 0.496 -0.039 94 83 63 0 0
0.0796 0.1386 -0.3608 0.866 0.498 -0.043 96 86 66 0 0
0.0803 0.1394 -0.3618 0.614 0.737 0.283 96 87 67 0 0
-0.0447 -0.0188 -0.2617 0.101 0.910 0.402 23 19 19 0 0
-0.0444 -0.0184 -0.2632 0.092 0.968 0.235 47 43 42 0 0
-0.0440 -0.0180 -0.2647 0.525 0.849 0.058 57 55 53 0 0
-0.0445 -0.0188 -0.2665 0.458 0.835 -0.306 62 60 59 0 0
-0.0423 -0.0160 -0.2673 0.464 0.498 0.733 58 56 54 0 0
-0.0356 -0.0076 -0.2713 0.759 -0.043 0.650 17 14 14 0 0
0.0629 0.1178 -0.3108 0.550 0.706 0.446 223 206 157 0 0
0.0666 0.1221 -0.3178 0.530 0.709 0.466 215 197 150 0 0
0.0697 0.1257 -0.3250 0.634 0.538 0.556 175 156 112 0 0
0.0720 0.1275 -0.3432 0.534 0.715 0.451 102 87 61 0 0
0.0725 0.1280 -0.3445 0.465 0.668 0.581 106 92 69 0 0
0.0770 0.1335 -0.3509 0.740 0.356 0.571 78 66 48 0 0
-0.0331 -0.0077 -0.2821 0.735 -0.330 0.592 4 4 5 0 0
0.0534 0.1042 -0.2923 0.554 0.626 0.549 237 221 180 0 0
0.0696 0.1236 -0.3196 0.258 0.777 0.573 184 166 120 0 0
0.0725 0.1259 -0.3406 0.275 0.930 0.245 101 85 61 0 0
0.0722 0.1255 -0.3422 0.228 0.819 0.527 92 77 54 0 0
0.0778 0.1315 -0.3632 0.997 -0.076 0.025 125 115 93 0 0
-0.0364 -0.0145 -0.2806 0.893 -0.308 0.329 5 5 5 0 0
0.0617 0.1121 -0.3035 0.360 0.652 0.667 236 218 172 0 0
0.0758 0.1277 -0.3452 0.369 0.811 0.453 101 89 69 0 0
0.0764 0.1284 -0.3464 0.602 0.732 0.318 101 92 71 0 0
0.0767 0.1288 -0.3477 0.602 0.732 0.318 99 92 71 0 0
0.0779 0.1302 -0.3485 0.930 0.249 0.270 98 90 71 0 0
0.0461 0.0547 -0.8579 0.095 0.030 0.995 169 164 161 0 0
0.0235 0.0624 -0.2632 -0.292 0.384 0.876 106 92 69 0 0
0.0587 0.1060 -0.2996 0.561 0.598 0.573 229 211 165 0 0
0.0592 0.1066 -0.3008 0.489 0.612 0.622 236 218 172 0 0
0.0659 0.1150 -0.3078 0.529 0.810 0.252 219 198 152 0 0
0.0760 0.1258 -0.3442 0.460 0.845 0.274 110 100 79 0 0
0.0757 0.1245 -0.3566 0.908 -0.406 0.106 84 74 50 0 0
-0.0386 -0.0221 -0.2725 0.917 0.287 0.276 19 19 21 0 0
-0.0383 -0.0218 -0.2740 0.926 0.313 -0.210 12 12 12 0 0
0.0222 0.0585 -0.2611 -0.177 0.274 0.945 118 105 86 0 0
0.0422 0.0836 -0.2766 0.232 0.745 0.625 236 221 179 0 0
0.0690 0.1165 -0.3097 0.528 0.710 0.466 222 204 156 0 0
0.0689 0.1163 -0.3112 0.492 0.744 0.452 227 210 163 0 0
0.0688 0.1161 -0.3128 0.189 0.776 0.602 216 199 151 0 0
0.0742 0.1217 -0.3338 0.666 0.669 0.329 98 84 60 0 0
0.0758 0.1234 -0.3404 0.729 0.395 0.559 111 100 74 0 0
-0.0366 -0.0177 -0.2083 -0.256 0.852 0.457 147 133 100 0 0
-0.0400 -0.0263 -0.2685 0.813 -0.059 0.580 85 75 62 0 0
-0.0396 -0.0259 -0.2701 0.716 0.189 0.673 64 58 50 0 0
-0.0387 -0.0248 -0.2713 0.716 0.189 0.673 52 49 45 0 0
-0.0365 -0.0221 -0.2738 0.906 0.175 0.386 15 13 12 0 0
-0.0360 -0.0215 -0.2752 0.925 0.137 0.356 12 9 10 0 0
0.0296 0.0660 -0.2585 0.452 0.822 0.348 159 144 113 0 0
0.0492 0.0902 -0.2813 0.309 0.640 0.703 215 197 156 0 0
0.0500 0.0912 -0.2824 0.741 0.490 0.459 222 205 164 0 0
0.0526 0.0944 -0.2857 0.558 0.771 0.306 235 219 179 0 0
0.0671 0.1120 -0.3068 0.650 0.632 0.422 227 208 159 0 0
0.0669 0.1116 -0.3084 0.324 0.782 0.532 218 197 151 0 0
0.0728 0.1180 -0.3276 0.696 0.693 0.188 89 71 52 0 0
0.0744 0.1199 -0.3312 -0.012 0.784 0.621 106 89 64 0 0
0.0752 0.1208 -0.3323 -0.012 0.784 0.621 105 89 64 0 0
0.0758 0.1215 -0.3334 -0.083 0.754 0.652 103 88 64 0 0
0.0759 0.1215 -0.3349 0.185 0.709 0.680 104 90 64 0 0
0.0762 0.1219 -0.3362 0.288 0.821 0.492 108 95 69 0 0
0.0751 0.1202 -0.3384 0.844 0.379 0.379 111 97 72 0 0
0.0755 0.1206 -0.3412 0.909 0.037 0.416 109 98 75 0 0
-0.0355 -0.0236 -0.2755 0.925 0.137 0.356 55 45 36 0 0
0.0293 0.0634 -0.2560 0.486 0.686 0.542 126 113 91 0 0
0.0377 0.0735 -0.2690 0.387 0.875 0.292 234 220 181 0 0
0.0490 0.0875 -0.2819 0.400 0.878 0.263 218 200 161 0 0
0.0685 0.1113 -0.3095 0.111 0.609 0.785 200 181 145 0 0
0.0747 0.1181 -0.3286 0.033 0.966 0.257 104 90 67 0 0
0.0753 0.1188 -0.3298 0.075 0.863 0.500 107 93 69 0 0
0.0760 0.1197 -0.3309 -0.012 0.784 0.621 111 97 75 0 0
0.0767 0.1205 -0.3320 -0.012 0.784 0.621 110 98 76 0 0
0.0760 0.1195 -0.3339 0.362 0.442 0.821 108 97 76 0 0
0.0766 0.1201 -0.3351 0.572 0.365 0.735 108 97 74 0 0
0.0754 0.1184 -0.3373 0.889 0.126 0.439 110 99 77 0 0
0.0351 0.0328 -0.7944 0.999 -0.032 -0.026 143 128 101 0 0
0.0299 0.0618 -0.2562 0.822 0.367 0.435 163 146 115 0 0
0.0308 0.0628 -0.2574 0.441 0.562 0.700 191 172 133 0 0
0.0383 0.0721 -0.2662 0.323 0.660 0.678 228 212 174 0 0
0.0602 0.0988 -0.2964 0.300 0.810 0.504 236 215 164 0 0
0.0757 0.1169 -0.3316 0.840 0.259 0.477 113 103 85 0 0
0.0762 0.1175 -0.3328 0.840 0.259 0.477 112 104 85 0 0
0.0768 0.1181 -0.3341 0.840 0.259 0.477 112 103 86 0 0
0.0773 0.1188 -0.3352 0.844 0.343 0.412 109 100 79 0 0
0.0609 0.0976 -0.2950 0.436 0.692 0.576 228 208 156 0 0
0.0614 0.0981 -0.2963 0.500 0.723 0.476 232 211 159 0 0
0.0702 0.1090 -0.3067 0.790 0.392 0.472 159 144 121 0 0
0.0467 0.0780 -0.2724 0.419 0.848 0.325 233 218 181 0 0
0.0479 0.0794 -0.2748 0.297 0.702 0.647 236 224 181 0 0
0.0611 0.0958 -0.2910 0.889 0.082 0.450 214 192 143 0 0
0.0653 0.1006 -0.3008 0.072 0.899 0.433 159 135 96 0 0
0.0740 0.1116 -0.3097 0.682 0.504 0.531 124 110 85 0 0
0.0750 0.1124 -0.3166 0.051 0.910 0.412 111 100 77 0 0
0.0752 0.1125 -0.3181 0.135 0.829 0.543 113 101 79 0 0
0.0757 0.1131 -0.3192 0.135 0.829 0.543 115 104 83 0 0
0.0761 0.1136 -0.3205 0.179 0.846 0.502 115 106 86 0 0
0.0258 0.0496 -0.2471 0.266 0.940 0.213 188 172 132 0 0
0.0417 0.0695 -0.2645 0.083 0.845 0.529 225 211 167 0 0
0.0498 0.0796 -0.2744 0.434 0.880 0.192 236 220 177 0 0
0.0521 0.0823 -0.2779 0.286 0.672 0.683 238 224 181 0 0
0.0536 0.0842 -0.2801 0.509 0.455 0.731 240 227 189 0 0
0.0553 0.0863 -0.2823 0.619 0.720 0.315 229 213 172 0 0
0.0612 0.0936 -0.2899 0.466 0.470 0.750 211 189 137 0 0
0.0620 0.0946 -0.2911 0.424 0.484 0.765 200 177 129 0 0
0.0626 0.0953 -0.2922 0.416 0.711 0.567 192 170 121 0 0
0.0628 0.0955 -0.2936 0.331 0.645 0.689 196 174 125 0 0
0.0635 0.0963 -0.2948 0.331 0.645 0.689 192 171 120 0 0
0.0643 0.0973 -0.2959 0.407 0.694 0.593 198 179 129 0 0
0.0765 0.1121 -0.3164 0.215 0.720 0.660 111 102 80 0 0
0.0768 0.1123 -0.3177 0.282 0.713 0.642 111 103 81 0 0
0.0771 0.1127 -0.3190 0.306 0.877 0.371 113 104 84 0 0
0.0775 0.1131 -0.3203 0.306 0.877 0.371 114 105 87 0 0
0.0442 0.0702 -0.2669 0.390 0.842 0.373 227 210 166 0 0
0.0549 0.0836 -0.2800 0.610 0.316 0.727 236 222 183 0 0
0.0564 0.0854 -0.2823 0.619 0.720 0.315 214 194 157 0 0
0.0630 0.0936 -0.2896 0.546 0.582 0.603 201 179 131 0 0
0.0635 0.0943 -0.2908 0.546 0.582 0.603 196 174 126 0 0
0.0640 0.0948 -0.2921 0.618 0.548 0.563 193 171 124 0 0
0.0643 0.0951 -0.2934 0.667 0.503 0.549 191 169 122 0 0
0.0653 0.0963 -0.2959 0.888 0.310 0.338 180 159 111 0 0
0.0661 0.0972 -0.2970 0.534 0.441 0.721 169 149 104 0 0
0.0683 0.0998 -0.3018 0.356 0.882 0.308 145 122 88 0 0
0.0687 0.1002 -0.3031 0.612 0.741 0.275 139 117 82 0 0
0.0420 0.0655 -0.2593 0.201 0.683 0.703 239 230 187 0 0
0.0437 0.0673 -0.2646 0.757 0.607 0.243 230 215 173 0 0
0.0441 0.0678 -0.2659 0.615 0.727 0.305 234 217 176 0 0
0.0442 0.0678 -0.2674 0.713 0.636 0.295 231 214 171 0 0
0.0549 0.0813 -0.2790 0.610 0.316 0.727 223 206 164 0 0
0.0558 0.0823 -0.2801 0.610 0.316 0.727 230 214 172 0 0
0.0563 0.0830 -0.2813 0.399 0.564 0.723 221 203 161 0 0
0.0576 0.0846 -0.2822 0.301 0.693 0.656 206 185 144 0 0
0.0585 0.0858 -0.2833 0.168 0.699 0.695 198 176 133 0 0
0.0637 0.0921 -0.2898 0.594 0.576 0.562 201 179 133 0 0
0.0641 0.0926 -0.2910 0.718 0.515 0.468 197 176 129 0 0
0.0202 0.0364 -0.2249 0.718 0.596 0.360 215 200 154 0 0
0.0344 0.0547 -0.2361 0.331 0.741 0.585 146 130 92 0 0
0.0404 0.0609 -0.2589 0.514 0.547 0.661 236 227 188 0 0
-0.0015 0.0069 -0.1963 0.681 0.588 0.437 145 127 92 0 0
0.0036 0.0129 -0.2082 0.453 0.782 0.428 149 133 100 0 0
0.0353 0.0534 -0.2361 0.504 0.834 0.224 151 134 94 0 0
-0.0003 0.0068 -0.1873 0.640 0.763 0.089 114 96 63 0 0
0.0053 0.0125 -0.2095 0.567 0.755 0.329 138 119 88 0 0
0.0082 0.0161 -0.2146 -0.110 0.417 0.902 172 153 114 0 0
0.0331 0.0473 -0.2448 0.640 0.590 0.492 148 123 91 0 0
0.0471 0.0645 -0.2659 0.378 0.587 0.716 238 221 180 0 0
0.0479 0.0655 -0.2671 0.386 0.642 0.662 236 216 176 0 0
0.0553 0.0750 -0.2742 0.384 0.773 0.504 200 181 140 0 0
0.0558 0.0756 -0.2755 0.384 0.773 0.504 204 184 141 0 0
0.0563 0.0761 -0.2768 0.384 0.590 0.711 197 176 128 0 0
0.0577 0.0779 -0.2791 0.468 0.556 0.687 203 182 136 0 0
0.0664 0.0885 -0.2929 0.947 0.067 0.315 137 119 87 0 0
0.0010 0.0050 -0.2006 0.523 0.767 0.371 100 84 58 0 0
0.0023 0.0063 -0.2048 0.582 0.651 0.487 137 120 88 0 0
0.0242 0.0351 -0.2157 0.265 0.524 0.809 198 180 138 0 0
0.0566 0.0741 -0.2756 0.493 0.430 0.757 199 180 136 0 0
0.0020 0.0040 -0.1977 0.501 0.843 0.195 102 87 63 0 0
0.0034 0.0053 -0.2047 0.582 0.651 0.487 127 112 79 0 0
0.0254 0.0344 -0.2156 0.501 0.562 0.658 204 184 140 0 0
0.0302 0.0403 -0.2228 0.569 0.515 0.641 218 201 155 0 0
0.0603 0.0764 -0.2803 0.777 0.447 0.442 168 148 111 0 0
0.0270 0.0341 -0.2154 0.262 0.685 0.680 197 176 133 0 0
0.0322 0.0402 -0.2269 0.602 0.794 0.088 195 178 133 0 0
0.0495 0.0605 -0.2647 0.334 0.344 0.878 200 182 139 0 0
0.0025 0.0014 -0.1758 0.491 0.671 0.555 143 128 97 0 0
0.0030 0.0020 -0.1771 0.402 0.832 0.381 116 98 70 0 0
0.0403 0.0475 -0.2421 0.491 0.825 0.279 109 88 57 0 0
0.0499 0.0592 -0.2575 0.658 0.697 0.286 236 221 179 0 0
0.0507 0.0598 -0.2646 0.733 0.301 0.610 203 187 142 0 0
0.0619 0.0732 -0.2865 0.697 0.123 0.707 107 95 73 0 0
