ply
format ascii 1.0
element vertex 669
property float x
property float y
property float z
property uchar diffuse_red
property uchar diffuse_green
property uchar diffuse_blue
end_header
-0.07102476098852453 0.1370767847670158 -0.7045282682772199 67 55 33
-0.06719813062608188 0.13803590823900974 -0.7041843026817481 66 55 37
-0.06728732793918016 0.13803397086017744 -0.706363190575051 89 79 60
-0.06657109551578999 0.1382297011740726 -0.7080222305628573 119 105 83
-0.06650806482409113 0.13826516017938897 -0.7101067733270879 143 128 102
-0.06577112354197309 0.13846598364899934 -0.7117535964718575 136 120 96
-0.06379210004265426 0.13897152048677575 -0.7125862937494255 113 98 75
-0.06141477507353338 0.13957471580462855 -0.7131521097614114 132 117 92
-0.060253751060632854 0.13987950510122693 -0.7145133000309792 110 96 72
-0.05734172247638847 0.14061374426411077 -0.7147145965161403 108 96 74
-0.05382169410865292 0.14149701234452733 -0.7145037264516743 121 109 87
-0.05089067973549871 0.14223572988952418 -0.714673516599848 131 119 94
-0.04830753019387318 0.1428890628046237 -0.7150665509809284 119 106 82
-0.04508497619180407 0.14369910226149143 -0.7150239941793537 120 108 85
-0.04149121080291371 0.14460005771874884 -0.714722040858579 122 109 90
-0.03971858573512538 0.14505444172570445 -0.7156349294726692 113 102 83
-0.03607115952215412 0.14596836640940516 -0.7152770626354428 99 86 65
-0.03373807777962362 0.14656001082791065 -0.7157977829069824 138 122 96
-0.03138554463359236 0.1471563605338593 -0.71629867096099 133 114 85
-0.02922094122563812 0.14770658957318678 -0.7169209443004734 135 117 88
-0.028029601719510328 0.14801825491790976 -0.7182026125899066 110 96 68
-0.027717170544969694 0.1481145333406965 -0.7200849161821661 161 149 126
-0.0276867428927135 0.1481417297723876 -0.722162735776011 106 95 75
-0.0266857175582714 0.14840675035837347 -0.7235738233720798 99 87 67
-0.022732032793684326 0.14939511016379653 -0.7229410490959214 114 102 78
-0.02172423612222879 0.14966170943307772 -0.7243389282989516 82 71 45
-0.024469172525103444 0.14900908640410004 -0.7283470414194827 130 117 89
-0.02390427714580079 0.14916725669321462 -0.7300592077394671 136 122 91
-0.07280107677492106 0.1374424082328464 -0.7908922960667407 87 76 56
-0.07126198116124666 0.13784010141127334 -0.7920220086048376 91 83 62
-0.06963829927229206 0.1382584572727173 -0.7930868791958069 90 82 60
-0.06638955925246409 0.13907431929154696 -0.7929632094435458 104 94 70
-0.0639926302367777 0.13968171884378125 -0.793451843104969 113 102 75
-0.06317927235279963 0.13990172332726158 -0.7950947338131698 111 100 72
-0.06086761626831 0.14048816735996525 -0.7956354358538585 112 98 71
-0.05889729708861399 0.14099107401167515 -0.7964212340391872 120 106 79
-0.056530979818023436 0.1415907661277374 -0.7969089223808883 82 68 42
-0.054798959696723964 0.14203529942440946 -0.7978601928026484 92 78 52
-0.05260764126005907 0.14259208816517233 -0.7984655772997569 76 62 36
-0.05106010284310991 0.14299143178911478 -0.7995450209691318 103 88 66
-0.05055642796947979 0.14313556707007646 -0.8014019156733381 113 98 76
-0.04900879746411074 0.1435348887784235 -0.8024765672515903 114 98 72
-0.049075461710928525 0.1435396229426124 -0.8047622692723728 129 112 85
-0.04942891891139384 0.14347429884982324 -0.8072677510824628 120 104 76
-0.04865540606742766 0.143684419326249 -0.8089251661548282 117 102 76
-0.04731568062389674 0.1440328937788841 -0.8101527785694125 127 111 82
-0.0473577995841529 0.14404371390279658 -0.8124292385387429 122 106 76
-0.04831895758748156 0.14383003241396802 -0.8154102851940497 128 112 81
-0.048372923773133514 0.14383803932668993 -0.8177044194563665 133 117 88
-0.04549489826558306 0.1445834745315439 -0.8200051478012743 140 122 88
-0.04258026273465543 0.1453165429250336 -0.8200122735273803 145 125 88
-0.040399439295987105 0.1458703174598212 -0.8205778094184137 149 130 92
-0.038533446147254624 0.14634715429338713 -0.8213813752040227 143 125 86
-0.03580080318976614 0.1470355552507076 -0.821505643605408 145 129 90
-0.0335236505511565 0.14761266641572313 -0.8219766462285171 161 143 105
-0.030282552244837335 0.14842504213523583 -0.8216866498204338 153 135 93
-0.028628945599567995 0.1488497934492798 -0.8226313515078731 141 122 81
-0.02791441253147839 0.14904528930736483 -0.8243109010382805 150 131 91
-0.02746803202588119 0.14917533799341492 -0.8262020670438711 152 135 96
-0.024957183887345274 0.14980922689155207 -0.8264610453662359 141 128 89
-0.023568478888356004 0.15016920879052953 -0.8276024991802722 140 128 93
-0.022787764150899475 0.1503808095911539 -0.8292247371759527 131 120 89
-0.021245253453188923 0.15077827555366774 -0.8302389847824776 121 110 80
-0.019786538039028273 0.15115526448673644 -0.8313166632468333 128 117 83
-0.018326310056528072 0.15153259191550247 -0.8323898871620257 142 128 96
-0.017829013620369982 0.15167500663536645 -0.8342344017590394 134 118 89
-0.017872362860057167 0.1516855653904601 -0.836515968414991 133 116 89
-0.01625268315487649 0.15210173949116162 -0.8374558933183979 136 120 89
-0.015335106536638554 0.15234666019248388 -0.8389612413946044 149 135 99
-0.014510087159499307 0.15256900345780175 -0.8405409852500234 140 126 92
-0.01677805936868476 0.1520372092308328 -0.8446423494825012 146 132 98
-0.015594223155706188 0.15234708759993423 -0.845934652010852 165 150 115
-0.014219730663824426 0.15270342451159286 -0.8470685909725403 164 148 114
-0.013048150122762558 0.1530102728452655 -0.8483664369390749 158 143 108
-0.006764786509339982 0.1545630290999559 -0.8454485263189512 154 140 104
-0.010899095534670833 0.15366194194468785 -0.8601889313356004 85 78 61
-0.012905080479940045 0.15319467470108294 -0.8641456910742514 59 53 39
-0.0149479087041271 0.15271854850944916 -0.8681456955157449 91 86 73
-0.01578104177946671 0.15253718200179536 -0.8711392878723399 121 120 112
-0.013337392015413563 0.1531539294198348 -0.8713725628491672 143 143 143
-0.016311947094549806 0.15245113656774828 -0.876186211757015 162 160 164
-0.008301752658075534 0.1544233263228934 -0.8716898586074392 174 172 177
-0.011410270339618944 0.15368799740242625 -0.8766262120765509 180 178 182
-0.0049013925238980405 0.15529429088867322 -0.8733705090296877 186 185 189
-0.11409595822192897 0.12382435120732675 -0.6485473120556644 101 90 74
-0.1065500381589555 0.12573137026392384 -0.6484351063498943 106 96 81
-0.10271051932726566 0.1267012204499438 -0.6483235442919257 96 86 70
-0.09986336383999622 0.12742508357085403 -0.6487717496836864 111 99 81
-0.09737184399638546 0.1280607639460226 -0.6494174105484196 110 97 78
-0.09456067801869009 0.12877557489603803 -0.6498710473105359 106 93 74
-0.09263683634491976 0.1292705032572006 -0.6508328461470817 112 100 78
-0.09115164427065972 0.12965673403046216 -0.6520460340928841 124 112 88
-0.08838069950130148 0.13036140926542172 -0.6525035656479033 121 107 83
-0.08562027632399094 0.1310634095521992 -0.6529594488015981 120 105 81
-0.08352151954720635 0.13160147406550626 -0.6537974225941757 106 93 70
-0.08161485561096446 0.13209192185997992 -0.6547436674734814 94 83 62
-0.07937974754458799 0.1326636601548549 -0.6554905523476865 84 75 59
-0.07727447426450582 0.1332031989829498 -0.6563088572441445 85 75 58
-0.07537469949040101 0.1336918112194912 -0.657244483692231 99 88 71
-0.07414361602671554 0.1340148329530313 -0.6585759869388014 86 73 59
-0.0731909109988636 0.13426892264252946 -0.6600727303518317 90 76 66
-0.07249249516301781 0.13446005748165646 -0.6617218008010787 95 82 65
-0.07145889238701983 0.13473415905714595 -0.6631682554242029 112 98 77
-0.07052882520114134 0.13498262400216643 -0.6646762624719601 122 106 82
-0.07101639492778919 0.1348802327039084 -0.6670460427851325 110 95 67
-0.07049916380518381 0.13502654175843024 -0.668807102744215 125 111 80
-0.0697574441919617 0.135228408076912 -0.6704314445835533 129 116 86
-0.06786848833361026 0.13571414220064104 -0.6713509053427336 121 106 77
-0.06664907685496141 0.13603417727027672 -0.6726783968402847 125 110 82
-0.06781509769805708 0.13576403218349614 -0.6754785943220553 111 96 68
-0.06740785125264345 0.1358831553190461 -0.6773104378343793 106 92 63
-0.06725941198917865 0.13593826820411023 -0.6793044752539705 105 92 65
-0.06594660058773652 0.13628140931206623 -0.6805740714430314 97 83 60
-0.06602172731862077 0.13628124551408 -0.6827101950185229 86 72 49
-0.0660743715710535 0.13628666920071203 -0.6848352845703763 89 73 47
-0.06389598640536281 0.13684385139846983 -0.6855579473832739 123 107 81
-0.06234807812962753 0.1372450772109665 -0.6866732529212307 125 110 84
-0.06214234279133954 0.13731440210451895 -0.6886360435468035 114 99 77
-0.06249478795943167 0.13724573596467984 -0.6909557463400541 89 75 53
-0.06311382033049279 0.13711119853362178 -0.6934496847595106 105 91 67
-0.06426533681375468 0.13684507080238364 -0.6962895694336693 116 102 76
-0.06639783937485633 0.13633651330488078 -0.6997664127671241 104 90 63
-0.06783716919594474 0.13599939198551939 -0.7028082998847832 92 79 57
-0.06459283415652597 0.13681996072742666 -0.7028342756317346 66 53 36
-0.06873905972670444 0.13581391939151494 -0.70763733292044 69 58 39
-0.06857379900776711 0.13587352445868556 -0.7096584603186261 101 89 67
-0.06823780530483953 0.13597533836398237 -0.7115705251640043 113 101 78
-0.06680262835357956 0.13634876272070218 -0.7127655707507545 124 111 88
-0.06477440761914188 0.13686868649564007 -0.7135688929603898 98 85 63
-0.06343555232632317 0.13721825323500747 -0.7148203808834344 123 110 86
-0.05568323132174652 0.13915216063231256 -0.7118383313009353 102 89 65
-0.05349379552219832 0.13971167979158394 -0.7125091315556775 115 101 78
-0.0509250054664622 0.14036484773434107 -0.7129222132406462 125 111 87
-0.04844682877680001 0.14099556980493036 -0.7133881513709401 145 130 104
-0.046153850251007406 0.14158049146726415 -0.7139706376451933 130 114 91
-0.04306216767008844 0.14236259537479135 -0.714011789373362 127 113 92
-0.04088838908276837 0.14291795601162033 -0.7146599548431025 117 104 85
-0.03880643615521345 0.1434505914389012 -0.7153640614285388 122 109 90
-0.03539576148967977 0.1443112321414248 -0.7151645958128907 125 112 90
-0.03263479158040988 0.14501137904184214 -0.71539457005734 124 108 84
-0.029870219446799573 0.14571234151422835 -0.7156137389065101 145 127 99
-0.028207279848823263 0.14614130192696215 -0.7165757549947913 145 128 95
-0.02648333968006744 0.14658528413746358 -0.7174921297248412 145 130 98
-0.02573850443822967 0.14678758143773585 -0.7190759984197234 163 149 122
-0.025643753688640303 0.14682944462258424 -0.7211069683613766 114 101 79
-0.02511790528072788 0.1469777111679331 -0.7228429133567084 96 84 62
-0.02436658738905867 0.14718161881179853 -0.7244235137427716 120 108 84
-0.023247750260655786 0.1474762036988853 -0.7257487752480553 104 92 69
-0.021754512328515996 0.1478631436567312 -0.7268116429060871 120 107 83
-0.02026196803200203 0.14824988372267306 -0.7278717310859979 122 107 81
-0.018787028048007026 0.14863225237337324 -0.7289408808295635 127 112 84
-0.06914259625053326 0.1364259938680517 -0.7886382482999013 98 89 70
-0.06716341872546966 0.13693352205059212 -0.7894421522381937 101 90 71
-0.06580973562527362 0.1372868572646765 -0.7906958202297314 100 91 69
-0.06483600684055349 0.1375465405910462 -0.7922240649276062 110 101 76
-0.06331311257972733 0.1379415313557269 -0.7933495586821642 120 110 83
-0.061694147599974325 0.13836016330366013 -0.794401257326626 112 101 75
-0.05892512676594994 0.13906209738854367 -0.7946030426288158 92 83 58
-0.057083689521289505 0.1395354477657208 -0.7954807019890273 68 59 33
-0.0551596614119802 0.14002910140081748 -0.7962925625220746 74 65 38
-0.05317539108940331 0.14053754888146947 -0.7970546756429588 66 56 29
-0.051924467849767925 0.1408653322911898 -0.7983572691865655 94 85 56
-0.05006899371459517 0.14134198081213412 -0.7992064435660784 103 93 68
-0.048901902036885686 0.14164907009596692 -0.8005660844221743 100 89 69
-0.047346435900212896 0.1420517745631688 -0.8016323462520462 111 97 73
-0.047184120246724304 0.14211143108447205 -0.8037437772103011 138 122 92
-0.047164448465763176 0.14213599031184687 -0.8059653062220362 132 115 84
-0.04624819464759705 0.14238129601155008 -0.8075111425536063 112 96 71
-0.047040454296128964 0.14220602667189192 -0.8103532090740841 104 89 63
-0.047513857213941885 0.1421092986539534 -0.8129590537863234 102 87 59
-0.048737988390625764 0.1418278451635513 -0.8161432053325832 110 95 66
-0.04334395840561939 0.14321486388364957 -0.8187659424834808 134 117 83
-0.04022385432610104 0.1440024190284575 -0.8186102692552399 144 126 90
-0.03855962678959102 0.14443169760600913 -0.8195714352755079 141 124 86
-0.03697421918501667 0.14484155015757916 -0.8205897500590905 149 134 96
-0.03424095623969284 0.1455337300499407 -0.8207106938799826 157 142 103
-0.03192454889385665 0.14612329921055534 -0.821148382290353 166 150 109
-0.028709620464421964 0.14693379959327194 -0.8208757204240391 174 155 112
-0.027465757433778992 0.1472594568517979 -0.8221396395536962 174 153 108
-0.026424032338715042 0.14753538587211684 -0.8235604242816306 191 171 125
-0.02523636386484371 0.1478471891521309 -0.8248646087196656 183 167 123
-0.02468317095291897 0.14800297345003385 -0.8266690211257391 178 164 122
-0.02340905137191887 0.14833600756363152 -0.8279019056360958 154 144 106
-0.0217670936236945 0.14875944805144356 -0.8288395795930397 133 123 91
-0.019341725931255327 0.14937542776121798 -0.829147913603909 129 122 89
-0.016924630189701584 0.14998930825518098 -0.8294553823207356 135 126 91
-0.016453285303152293 0.1501249014545565 -0.8313170103977192 131 119 85
-0.016081063931602968 0.15023614391099063 -0.8332595057655627 121 108 77
-0.01564283613071704 0.15036362020889027 -0.835150268344911 120 104 75
-0.015204397740994136 0.15049115923230802 -0.8370421059502184 130 113 82
-0.014351820554287797 0.15072046293345753 -0.8385991521025705 143 126 92
-0.01308645614568138 0.1510511750067309 -0.839819755744717 144 129 93
-0.014056784778155251 0.15083264458087217 -0.8428619323155487 147 133 95
-0.013505816882248833 0.1509878728457492 -0.8446670898237574 146 131 92
-0.012119042695106164 0.15134839949194592 -0.8457873937269289 155 140 102
-0.011257267333147858 0.15157995948420266 -0.8473365571407818 158 144 106
-0.005402487806249967 0.15303770500182617 -0.8447670621983847 156 142 106
-0.002460266127064792 0.15378003430319379 -0.8445832867837054 165 150 116
-0.008235728219967264 0.1524616611827365 -0.8606867855101609 84 78 59
-0.0065557153421048064 0.15291412063695226 -0.863824601945645 96 94 80
-0.00756333882607596 0.1526869285403506 -0.8669539424030275 125 122 118
-0.010369239772272665 0.15201853787480107 -0.8716147156416485 150 147 147
-0.013194755394204116 0.15134547557167136 -0.8763081555107877 165 163 165
-0.011354549084958643 0.1518172599565854 -0.8770434899642958 176 174 175
-0.006315647049102147 0.15307371481596907 -0.8750418653278448 182 180 183
4.836596330731746e-05 0.15465505075410235 -0.8718858532957517 188 187 190
-0.0925399389764916 0.12741224977195054 -0.6489920758952974 110 97 78
-0.09069478609936527 0.12788958284044719 -0.6499966669049286 118 106 84
-0.08851115030314993 0.12845130342249678 -0.650799360293072 115 103 79
-0.08629582491689847 0.12902088142378865 -0.6515779063776035 115 102 79
-0.08403497086574185 0.12960176650280172 -0.6523239805431981 112 97 74
-0.08225572794377511 0.130062504567242 -0.6533480777520023 125 112 87
-0.08041564970499904 0.13053837856476647 -0.6543321216511607 119 108 82
-0.07857918436192354 0.1310133162541905 -0.6553139957772514 95 85 62
-0.07668245007323729 0.1315032448102918 -0.6562556846818351 94 84 61
-0.07659399478510792 0.13154232289079332 -0.6582727338380768 115 104 81
-0.07360257819473467 0.13230509764986936 -0.6585529426870906 107 95 73
-0.07243961835238522 0.13261201461698802 -0.6599233700543927 104 92 70
-0.07092600029600843 0.1330063214367611 -0.6610806139376454 102 89 67
-0.0702185111676098 0.13319968185635053 -0.6627223924979784 102 88 68
-0.0702400276244646 0.13321135540755008 -0.664806573574831 96 83 63
-0.0696038931840813 0.13338694530916662 -0.6664932223567268 108 97 73
-0.07022345675967354 0.13324962534860835 -0.6689470377994855 100 90 67
-0.06836322803257816 0.13373025728132837 -0.6698867478064546 90 78 58
-0.06783759734844863 0.1338783214910496 -0.6716422407337574 96 82 60
-0.06675265727908888 0.13416574126200864 -0.6730536117282415 119 106 82
-0.06566841603749055 0.13445297493815572 -0.6744639565596642 92 79 54
-0.0645039806687977 0.13476017408136065 -0.6758230863285363 144 130 104
-0.06339471161359292 0.13505361682121927 -0.6772147769539605 113 97 74
-0.06474108966145709 0.13473539009747643 -0.6801381162620049 117 101 79
-0.06339486428372595 0.13508786433336498 -0.6813830794398626 96 81 55
-0.06406811219898836 0.13493736948523882 -0.6838943505976262 98 83 55
-0.061971019720850784 0.13547682617156936 -0.684665059811409 94 78 51
-0.06004061672999869 0.13597472949575062 -0.6855357013713398 108 92 67
-0.05960257634355215 0.13610099374796952 -0.6873479706371418 126 110 84
-0.05989361485376274 0.13604573739042092 -0.6896251207992259 118 102 75
-0.06065378530049956 0.13587371454701408 -0.6922055936351681 128 113 86
-0.06117630658861542 0.13576090281873948 -0.6946397630917496 92 78 53
-0.06204437320556619 0.13556211269454915 -0.6973006924633419 92 77 55
-0.0637873457460929 0.1351455929905474 -0.7005313944633003 94 82 60
-0.06433548308895987 0.13502655180090575 -0.7029999185226935 81 69 48
-0.066181130550335 0.13458461878404743 -0.7063143152749738 71 61 40
-0.06449188542974515 0.13502249992349968 -0.7073410961856941 79 71 51
-0.0657905801762261 0.1347167883160886 -0.7103122375566605 108 99 80
-0.0664489328005769 0.13457048412093378 -0.7128726258049456 95 85 63
-0.0641414624258776 0.13516218474441438 -0.7134928554901906 96 84 64
-0.062479243168481 0.13559329155906014 -0.7145313217457363 101 90 69
-0.06102159711945315 0.13597347184536265 -0.715701029345493 98 87 63
-0.05397893840691442 0.13774302078898745 -0.7131702531432127 107 96 72
-0.04982682922275611 0.13879332144369866 -0.712533523937313 130 119 96
-0.04703445717790353 0.13950528909658652 -0.7127886235729892 124 109 88
-0.044194931166706974 0.1402289159567932 -0.713003829216591 141 126 101
-0.041380791930922506 0.14094615825917056 -0.7132274477520698 125 109 86
-0.03951255164522438 0.14142809605016643 -0.7140783097005506 120 105 84
-0.0377510477432392 0.14188345279279693 -0.7149964246651186 118 103 83
-0.03449884722902574 0.1427094442367007 -0.7149022964660854 117 102 83
-0.03170580708192591 0.14342118556076291 -0.7151092321544408 117 101 79
-0.029080157756972924 0.14409123996822876 -0.7154215390174979 145 129 101
-0.026026517301165064 0.14486763086176374 -0.7154340130316007 175 157 123
-0.02465775342312171 0.1452251017785025 -0.7165898634135363 156 140 105
-0.023955694169547764 0.14541682623150148 -0.7182005680289301 198 183 153
-0.023152608181432416 0.14563366125985178 -0.7197417120070153 177 163 137
-0.02327970029978746 0.1456193079895681 -0.7219246519732323 126 113 86
-0.023153137213791586 0.14566802126318973 -0.723935322289769 139 127 101
-0.021910157372334815 0.1459941883859187 -0.7251729534082054 108 96 76
-0.02118882073769035 0.14619071528616082 -0.7267717199017212 110 96 79
-0.020251183590157484 0.1464409857513686 -0.7282192769615786 129 115 96
-0.022842261720010693 0.14581452577717208 -0.7321384315350166 143 130 104
-0.01647757536479577 0.14741311825747055 -0.729777353639441 138 124 98
-0.06733645896720525 0.13496053431095847 -0.7877222500576802 99 91 73
-0.06544950852073167 0.13544736876489355 -0.7885901585364294 105 97 78
-0.06350576419994497 0.1359482615630616 -0.7894119126481325 114 105 84
-0.062207183075908945 0.1362889740868356 -0.7906994608120769 117 106 85
-0.061239752360602806 0.13654747667508155 -0.7922270231067546 102 90 70
-0.058612748778112844 0.13721784302830314 -0.7925353995084694 98 85 66
-0.0569741501404733 0.1376428591254868 -0.793563416920145 64 55 34
-0.05513457480147754 0.13811771508323165 -0.7944392369779802 55 46 24
-0.053271176033934414 0.1385984437850138 -0.795292738107106 75 64 40
-0.05199833633487155 0.138932609531702 -0.7965799384434606 94 81 57
-0.050410920148460964 0.13934480043828745 -0.7976306019163965 99 88 60
-0.048679118157172574 0.1397927799320497 -0.7985698087869266 106 94 69
-0.04798770210106898 0.1399826488647059 -0.8002838707646287 103 92 71
-0.04656398573382137 0.140354158889926 -0.801448138157433 109 96 72
-0.04658569952954586 0.14036714544813078 -0.8036980448308078 88 72 46
-0.046777156710703205 0.1403380611919747 -0.8060793593780798 87 71 45
-0.04672292613754031 0.1403699367764618 -0.8082785277217577 86 73 48
-0.046991991491070695 0.1403216685862694 -0.8107261492678918 100 88 63
-0.04621265193712265 0.14053338980391317 -0.8123794986342436 102 90 64
-0.046001057965499664 0.14060434567913194 -0.8144663076342589 108 96 70
-0.04339253770090884 0.14126955799522314 -0.8147193368522305 114 102 76
-0.042164442148343445 0.14159249794665466 -0.8160246445255692 116 102 76
-0.03961043115010654 0.14224408982957454 -0.8163064582181586 119 104 74
-0.03686089555749822 0.14294408033694656 -0.8164293617529709 122 105 79
-0.0354061468436791 0.14332309159817386 -0.817546492257136 122 105 79
-0.03344581306450978 0.14382737503667722 -0.8182677432428488 121 106 78
-0.030752067915525316 0.14451336119738517 -0.8184123537342072 125 110 80
-0.02852778073349138 0.14508294904849178 -0.8189151236237587 141 125 94
-0.027075651873672946 0.14546116225674527 -0.820016201498701 152 134 101
-0.02584269720457774 0.14578504755950833 -0.8212862626029402 170 151 114
-0.025069618691547335 0.14599498555767865 -0.8229163240584171 187 168 128
-0.023994611101557456 0.14627971577338444 -0.8243076905287139 189 171 133
-0.020503527877999334 0.14716290135047883 -0.8237839235664728 190 173 135
-0.019413027022862184 0.14745140011857724 -0.8251546099357954 190 174 136
-0.01833024403772268 0.1477379740822951 -0.8265298202718396 187 174 136
-0.017055722578857735 0.1480720186785927 -0.8277503154066658 188 177 137
-0.01620110148077572 0.14830206315161854 -0.8293046290837272 170 158 116
-0.01496979955578076 0.14862537350615934 -0.8305558716033262 166 152 114
-0.014458444367230538 0.1487704107495622 -0.8323845652773768 145 130 91
-0.013113454087739618 0.1491218435060616 -0.8335410843416018 140 123 84
-0.012304185078804597 0.14934063156466842 -0.8351285719854472 152 136 96
-0.011931426273695644 0.1494513628119222 -0.8370700376651249 155 140 99
-0.012270747466797516 0.1493858517481722 -0.8395927158606326 142 128 86
-0.011959907473028969 0.14948129619039507 -0.8415893793766297 153 139 98
-0.010728131769197402 0.14980467308793552 -0.8428340691198468 154 140 103
-0.009998268677883115 0.15000382474251633 -0.8444884166764415 146 132 96
-0.008601244183928214 0.15036806379730783 -0.8455936682454087 149 136 101
-0.007385204196696693 0.15068749702991097 -0.8468452422902917 147 134 100
-0.001595913257753101 0.1521383857369062 -0.8443105220069368 137 123 89
0.0009876018315832513 0.1527960016379883 -0.8444128408534666 148 134 99
0.002217680590801574 0.15311874312417206 -0.8456327273705988 177 161 125
-0.004918261383962785 0.15140933485760202 -0.8583580226433126 126 118 92
-0.005404123358789148 0.15130784803413164 -0.8610360040648835 83 77 56
-0.006965758111996789 0.15094038709179905 -0.8646265090927151 71 66 47
-0.007373571010884705 0.15085830869725902 -0.8672518495212773 96 92 78
-0.008036828624411407 0.15071311514826602 -0.8700988565400978 129 125 117
-0.007730876529002895 0.1508075870207214 -0.8721283471218929 151 149 147
-0.006169386622659256 0.15121245242456033 -0.8730897036363817 167 166 165
-0.0003858318803950933 0.15266093196154606 -0.8704393756917989 177 175 177
-0.0005697578032315964 0.15263424168066078 -0.8728789723682681 184 182 187
0.0012577005868203983 0.15310470076869653 -0.8735947373165667 188 187 193
0.004745075870474069 0.15398533698646372 -0.8728756340145625 191 190 195
0.006985635122700784 0.15455776424903356 -0.8732206952630834 194 193 196
-0.0850231605828661 0.12748143785363417 -0.6511273921672661 100 89 68
-0.08307463476712795 0.12798653255079864 -0.652055398019411 102 90 67
-0.08102088448972738 0.12851801102650484 -0.6529166267985491 121 108 82
-0.0799175591019683 0.12881083143635275 -0.6543351170540799 140 125 100
-0.0774580013829225 0.12944412378112236 -0.6549470000324737 133 117 89
-0.07500631503660099 0.1300753889549309 -0.6555568681301509 129 114 85
-0.07308774736191478 0.1305727788037644 -0.6564785789754338 139 127 98
-0.07079944911543265 0.1311629380896695 -0.6571740240137233 163 150 122
-0.06969211900521688 0.13145663720463657 -0.6585735429590984 166 152 119
-0.06747048658211291 0.1320299893249802 -0.6592993091268333 161 145 114
-0.06893578821940946 0.13167801397714396 -0.6622505440528869 122 107 84
-0.06764143209632209 0.13201863317557688 -0.6635347190305995 121 108 84
-0.06850046799732687 0.1318188777017023 -0.6661281880564764 120 106 80
-0.06750292232288527 0.13208501898482716 -0.6675933573688669 114 101 76
-0.06639371972816249 0.13237916685576673 -0.6689889703978729 94 82 59
-0.06557490887321404 0.13260044688631253 -0.6705615908314277 80 68 45
-0.06284095916856533 0.13330218175820308 -0.6709524484023618 78 68 43
-0.0633615827321935 0.13318741777592874 -0.673349315074304 98 87 62
-0.06351214499602736 0.1331655180809445 -0.6755212679572985 115 101 77
-0.06370977582491211 0.1331318378920888 -0.6777258927411696 121 105 82
-0.06369753730687067 0.13315082301900988 -0.6798029741759464 111 95 71
-0.06134040155087375 0.13375792720171334 -0.6804134353287332 86 70 45
-0.061982415954561804 0.13361284277321328 -0.6829026454852525 89 76 50
-0.060448742272033895 0.13401339430615294 -0.6840252935784641 74 61 37
-0.059573542367759386 0.1342488061060332 -0.6855611970534591 71 56 32
-0.05617017204079547 0.13511812396686274 -0.6854923551153004 103 89 64
-0.05957139280073215 0.13428128653715105 -0.6897437444753943 108 95 67
-0.06049374697374643 0.13406604699795016 -0.6924287740387166 122 107 79
-0.061743210855017716 0.13376885244605935 -0.6953297552908393 112 96 72
-0.05919512029822804 0.13442368304901126 -0.6957989640000387 81 67 43
-0.06045659339035675 0.13412353951797787 -0.6987157121942257 86 71 48
-0.06191488322682445 0.13377412407885467 -0.7017675204237004 71 57 35
-0.06347458997502281 0.13339935618101473 -0.7048937258866002 64 51 31
-0.06346135788100193 0.13341886414682427 -0.707006029409213 71 62 41
-0.06364088709811677 0.13339008703023636 -0.7092468863394266 94 86 65
-0.06484858230123527 0.133103691777116 -0.7121641016922626 109 101 78
-0.06381704518377707 0.13337844462190304 -0.7136193066247322 108 97 75
-0.062180032581064804 0.1338048939437765 -0.7146746435646557 107 96 71
-0.062143094360583906 0.13383043000644163 -0.7167829146751795 97 85 61
-0.06193957578265377 0.13389771970310616 -0.7187835846416102 109 97 74
-0.04896029558141396 0.13716549233595446 -0.7122984137934953 121 109 85
-0.046413257877567754 0.13781965821718561 -0.7127158000990259 118 106 84
-0.043704074310571356 0.1385143818523098 -0.7130173987138815 131 118 93
-0.04030252736067633 0.13938245638513758 -0.7128467401534356 121 106 83
-0.03787404069320435 0.14000674553701298 -0.7133195200442314 116 103 80
-0.03547172844026819 0.14062442647261467 -0.7138029776954273 121 109 87
-0.03371517997035087 0.141080343785867 -0.7147164115516936 115 101 82
-0.03153059413046591 0.1416434102092466 -0.7153351323540578 108 93 73
-0.028112102120822602 0.14251538503082206 -0.7151080735118907 108 92 68
-0.025430711871507222 0.14320272596019626 -0.7153730995840673 152 133 104
-0.02416747253927415 0.14353496239369615 -0.7166009706636777 134 116 85
-0.02315093639080712 0.14380542141485303 -0.7179959436667187 185 174 142
-0.021967199144997063 0.14411772511384932 -0.7192744599352368 209 197 167
-0.021135035755025094 0.14434201141693126 -0.720793846282733 177 163 134
-0.021101514515860592 0.14436639842936427 -0.722866000630753 126 111 86
-0.02022456128774547 0.14460189874369345 -0.7243548005351819 105 92 72
-0.0192285796479591 0.144867181774263 -0.7257599107910941 95 84 66
-0.018054316469505977 0.14517706979173667 -0.7270391774246432 104 93 73
-0.021269601370058427 0.14438854239368104 -0.7313937839833835 118 107 85
-0.01531105168161348 0.145895570336449 -0.7293142678360856 126 113 89
-0.062290842825907355 0.13432635155126232 -0.7866884609853989 126 118 99
-0.06118780218669487 0.13461917271671073 -0.788116583030978 106 97 78
-0.0601749069894707 0.13488944494756855 -0.7896089807762828 90 80 62
-0.05803716829025268 0.13544091032852837 -0.7902764664181156 68 56 39
-0.05657469112403776 0.1358235312866709 -0.7914339623676208 51 38 21
-0.054911648701854165 0.13625626203357444 -0.7924406569342536 54 42 23
-0.05334005548087384 0.1366661055885578 -0.7935109671963252 78 67 46
-0.05071708518438475 0.13733869028899887 -0.7937989048253765 92 81 56
-0.049942105079516685 0.13754937970070974 -0.7954516595702182 100 87 61
-0.0484618480759971 0.13793631306720905 -0.7965787908078475 118 104 77
-0.046402599862386124 0.13846789990587685 -0.7972701537199073 91 76 52
-0.046493736884577364 0.13846214208956714 -0.799567041921666 79 65 42
-0.045457254853435075 0.13873814273891186 -0.8010201469949458 98 83 59
-0.04463211874173112 0.13896133275149014 -0.8026311929904746 107 93 68
-0.04472806379793362 0.13895442063919716 -0.8049378469889692 105 91 68
-0.04439471186553251 0.1390547728593436 -0.8069227110134981 100 88 67
-0.04431265147531055 0.1390923701003986 -0.8091002376679315 104 92 69
-0.045182102939360924 0.1388923342555135 -0.8120056741495438 102 92 66
-0.043462771529674704 0.13933889561435026 -0.8129395539575055 111 100 74
-0.042585442768046766 0.13957514941196253 -0.8145144781771078 116 104 78
-0.04318775774495576 0.1394419081671352 -0.8172259321011307 106 92 66
-0.04103608618948254 0.13999637902238327 -0.8178206510936392 133 117 91
-0.034288768132087366 0.14169825639833575 -0.8148574564445972 132 116 90
-0.032680690999506185 0.14211684038047326 -0.8158512391145556 127 111 85
-0.030695244300845054 0.142629605354369 -0.816547912766023 121 105 79
-0.02912226229882664 0.1430393637578703 -0.8175605756669749 121 105 79
-0.02660319140860004 0.14368525338666105 -0.8178301548274503 118 103 77
-0.024918568461575974 0.14412280528268812 -0.8187458835763628 134 117 91
-0.024112405588355645 0.14434107627446305 -0.8203477887092373 133 116 86
-0.022914470260344905 0.1446571177704924 -0.8216405837689501 139 123 93
-0.022664951488662072 0.14473646614222133 -0.8236807868748566 135 118 88
-0.017151879094787714 0.14612926156469427 -0.821552003980972 146 131 97
-0.016070823731404393 0.14641603552118776 -0.8229240443398538 166 150 113
-0.015108273195755584 0.14667323041404987 -0.8243889216179475 188 173 132
-0.014080825298754762 0.14694660789578645 -0.825800871008114 206 191 148
-0.012637691570552168 0.14732367451673523 -0.8268784015223761 192 178 134
-0.012702633389357537 0.14732452835220738 -0.8291643660008179 209 195 149
-0.013273430071240738 0.14719923193405632 -0.8318613180897119 207 192 145
-0.012472033162981011 0.14741622545908184 -0.8334554468753671 202 186 139
-0.011491358257551931 0.14767792789198847 -0.8349039848709185 184 169 122
-0.01014950675729448 0.14802969231896385 -0.836057987695136 164 151 106
-0.009073111325520689 0.1483152402232466 -0.8374254365511377 153 141 96
-0.008917111378886039 0.14837127733924121 -0.8395429954517147 148 135 94
-0.008387226322089603 0.1485205546472185 -0.8413568655667208 154 140 104
-0.007343330437617701 0.14879798838164474 -0.8427494849003614 148 134 99
-0.005450556400748152 0.1492870336301655 -0.84344168231184 138 125 92
-0.004977361165398431 0.14942216656879626 -0.8453006882027608 138 125 92
-0.0033761304087372435 0.14983848496954436 -0.8462269124923961 124 111 77
0.0028106617346879137 0.15139770379615203 -0.8433426134333094 147 131 98
0.003684063704020024 0.15163248745559382 -0.8448564300398543 158 142 109
0.005354004216556435 0.1520657719586923 -0.8457047250316345 162 147 112
-0.001045857809176487 0.1505053239311422 -0.8555611717331566 151 138 106
-0.0021106499672878254 0.15025729254127757 -0.8587194398502194 130 119 94
-0.002969486754629991 0.15006063489495564 -0.8617120177428876 82 76 56
-0.003789358228212525 0.14987373903901924 -0.8646787808164969 69 64 45
-0.004516075950809162 0.14971010182610767 -0.8675735184754101 105 101 86
-0.004280133634032124 0.14978630419148697 -0.8696561487630167 133 131 123
-0.004527200521770802 0.14974221888019867 -0.8721528600698036 154 153 150
-0.0012818817423409512 0.15056796566791908 -0.8716680309471849 168 166 168
-0.002332825879996947 0.15032369089646702 -0.8748547625819951 177 176 181
0.004278256952777171 0.15198748203171925 -0.8714636546887685 184 183 188
0.011944095172155056 0.15391370514997532 -0.8671365787825089 189 187 192
0.016357589516817095 0.15504714028456296 -0.8678466894920865 194 194 194
-0.0775562056405614 0.12755390155476332 -0.6532351240319734 127 111 88
-0.0754771207545929 0.12809399575214364 -0.6540691311123824 124 110 85
-0.0742748187580097 0.12841244296453116 -0.6554203084053583 140 125 97
-0.07226323920713626 0.128935413714861 -0.6562858432367078 125 110 81
-0.07054764977977632 0.1293835446519408 -0.6573238707017645 137 120 93
-0.06957957679040017 0.1296427412460513 -0.6588077381830655 153 134 103
-0.0679811257762987 0.13006122688969185 -0.6599101454740923 158 139 107
-0.06653926253498993 0.13044012083617193 -0.6611039257451163 177 159 129
-0.06797243218004362 0.1300925543766322 -0.6640412071841209 133 115 84
-0.06751597074788343 0.13022247752927862 -0.66583533748151 133 115 81
-0.06758341249046826 0.13022004624118821 -0.6679507108355872 145 129 96
-0.06252509432391504 0.13151256221332713 -0.6669257905181143 127 114 86
-0.06063973391359012 0.13200341491500922 -0.6678359024891519 107 95 71
-0.06029872204534714 0.13210412729762616 -0.6696944940888009 92 81 57
-0.059630293815939456 0.13228755178379015 -0.6713518145829049 74 63 39
-0.06064920275783647 0.1320447963170044 -0.6740571898768435 68 54 31
-0.06052173070349645 0.13209162104641517 -0.6760551282069536 97 81 60
-0.05888945417372404 0.1325184979236425 -0.6771149056063529 115 100 77
-0.05762448809873855 0.13285259064451854 -0.6784013321483305 81 66 43
-0.0600877710412889 0.13224520733892384 -0.6820302016225616 83 71 49
-0.05980076280027816 0.13233237966225658 -0.683936525903552 71 59 39
-0.05847257708333109 0.13268245386750033 -0.6851856378996282 82 67 47
-0.05787681161065708 0.13284758999797824 -0.6868972460245824 73 59 37
-0.05897194042357212 0.13258583712774435 -0.6896860104837572 86 74 49
-0.05899015515237638 0.1325960029957607 -0.6917940402879362 95 80 55
-0.05910607505748475 0.13258152475799798 -0.6939675603176537 107 91 66
-0.05511248120377782 0.13360440738236484 -0.6935031403451252 103 88 62
-0.05560753182805417 0.13349422174484327 -0.6959194925838845 91 75 51
-0.06001363022576414 0.1323969390412993 -0.7008698453076053 79 63 42
-0.06098715435636415 0.13216611796081784 -0.7036139510523112 74 60 38
-0.06067982347343745 0.13225859035107507 -0.7055313743978824 59 48 26
-0.06190564419244435 0.13196417824836254 -0.7084510601519542 72 62 41
-0.06368357645130318 0.13153050138041822 -0.7117399553380528 97 87 65
-0.06376605629116333 0.1315247001980373 -0.7139254928896607 114 103 79
-0.06211404966456596 0.13195655175717186 -0.7149717862264111 112 100 74
-0.04773945100294974 0.13562795958451307 -0.7118276240279602 117 105 81
-0.0450768196314241 0.1363145061445189 -0.7121661047310285 122 110 86
-0.04226620497968575 0.13703832452759784 -0.7123977423174257 122 110 85
-0.039721345014671144 0.13769505284796568 -0.7127991405197557 120 105 83
-0.037809442640751895 0.13819208947673853 -0.7136189419282033 120 108 87
-0.034592836750760025 0.13901813456160733 -0.7135534348038561 126 114 94
-0.03352985360259059 0.1393010005193535 -0.7149353822533123 113 100 82
-0.030784007150545717 0.14000822185868206 -0.7151734287831091 102 90 72
-0.0282550101969144 0.14066070508079373 -0.7155508162155907 98 83 62
-0.02461617062294999 0.14159297175109836 -0.7151628031597803 135 113 88
-0.023599759260285263 0.14186397222177655 -0.7165591097610272 142 121 91
-0.022089649943087153 0.14225943042634168 -0.7176149362907723 140 125 94
-0.021217779564571715 0.14249396712925633 -0.7191072318479697 165 149 122
-0.01947182697823638 0.14294883968794847 -0.719994721363161 155 139 113
-0.01869603278294482 0.14315913596812652 -0.7215503933853689 126 112 85
-0.01825424581156629 0.1432852422326193 -0.7233379512344811 108 94 71
-0.016846466364470264 0.1436548238165719 -0.7244529918943056 94 81 63
-0.015862638959164427 0.14391753841893973 -0.725861591424183 88 76 61
-0.019298613285483962 0.14306640991925082 -0.73036906620884 95 83 66
-0.015614918105386205 0.14400952683618495 -0.729885152611817 119 106 82
-0.06035109016791057 0.13290744960033768 -0.7856702942384306 114 105 88
-0.059193956260815694 0.13321453487367063 -0.787056116838257 67 56 40
-0.05763887536706078 0.13362181249119232 -0.788149425322034 45 33 17
-0.05593621332811921 0.13406622515716748 -0.789131141620594 53 41 25
-0.05444807158165166 0.1344565981756007 -0.7902663952360647 60 51 33
-0.052633478400922 0.1349291361398625 -0.7911578909824727 83 72 52
-0.05144043194050252 0.13524517044952605 -0.792504142010839 96 84 61
-0.04954202925841478 0.13573875048050554 -0.7933256680680472 112 99 73
-0.04773802059698018 0.13620853520216702 -0.7942123997259891 127 112 87
-0.04720320952651402 0.13635883026887258 -0.7960406059990358 130 115 92
-0.045030927141310795 0.13692125877951233 -0.7966456128571999 101 86 65
-0.04389697360333264 0.13722232735300216 -0.7980228439221166 118 103 82
-0.04222299385375908 0.13765928424070023 -0.7989923676604032 114 99 78
-0.041909070179150826 0.13775396767110804 -0.8009832040573036 125 110 89
-0.04215539656489692 0.1377076904535647 -0.8033993805101012 115 101 79
-0.042249146347958344 0.137699832431375 -0.8057040449748245 115 103 80
-0.041760268039325976 0.13783858560843126 -0.8075692439424207 112 100 75
-0.040920459390215325 0.13806563308618314 -0.8091678958392675 124 114 88
-0.03715911828729107 0.13902763207533528 -0.8085321878225851 117 106 79
-0.037301500862811365 0.13900755861638203 -0.8108767168185947 120 107 80
-0.03412815909462438 0.13982153061447017 -0.8106754120541493 128 113 87
-0.03410134523018593 0.13984401573519364 -0.8128898167063396 136 120 94
-0.03485072257784369 0.13967130688621004 -0.8157074383049636 118 102 76
-0.032401246147969576 0.14030311898028583 -0.8160509833204428 112 96 70
-0.030813254174389904 0.14071823791287047 -0.8170569409829592 118 102 76
-0.027586201381149172 0.14154548584058158 -0.8167810748195152 111 95 71
-0.024705164396033957 0.14228565390578762 -0.8167648903954596 118 103 79
-0.02337282356603146 0.1426363708299421 -0.8179536648597966 119 103 79
-0.022148673040397193 0.14295986863444052 -0.819224846208472 121 104 79
-0.020522480519390734 0.1433844230721975 -0.8201768299429704 123 106 81
-0.0202318547052997 0.14347321291387638 -0.8221808422172263 111 96 70
-0.015008748446579206 0.1448018741012172 -0.8202759900790201 127 112 83
-0.013434638852906244 0.14521321872018922 -0.8212525216417653 139 123 90
-0.01284700528450397 0.14537660076029674 -0.8230117539911355 141 125 89
-0.012504220650448233 0.14547845145758473 -0.8249672979661061 137 122 83
-0.011025284795883189 0.14586583326170582 -0.826013698567515 156 141 101
-0.010168340639658185 0.14609689198065529 -0.8275567287444736 181 166 124
-0.010074927639399295 0.1461360915364182 -0.8297145917728634 220 205 162
-0.009283235179491867 0.14635075843841058 -0.8313108116720296 218 205 159
-0.008020645222773959 0.1466837321818601 -0.8325250447421941 218 205 158
-0.0073567171362309 0.14686628930204534 -0.8342233930638442 203 188 144
-0.0052411843624812215 0.1474135065715635 -0.834739025119073 173 158 115
-0.006749891554237442 0.14705028925081987 -0.8382099827601731 157 143 100
-0.005406548650725984 0.14740351754857 -0.8393539435349131 161 147 107
-0.005354053690489913 0.1474325122233423 -0.8415556825360371 159 146 104
-0.0033567429955619343 0.14794996402770622 -0.8421581683075493 155 142 103
-0.002134803247070549 0.1482726549939909 -0.8433954449535211 157 143 107
-0.0008496373120411849 0.1486112071325851 -0.8445780849533056 151 137 101
0.005259849895724422 0.15016113070822684 -0.841751270063495 149 134 100
0.005281134090467099 0.15018222918415802 -0.8439705312683033 142 126 92
0.00609912698133655 0.15040337825277905 -0.8455276004287292 146 131 96
0.001931793532243098 0.14940471590874344 -0.8557699497220296 164 152 118
0.0010496634890502787 0.14919921730341185 -0.8587751467222525 143 134 105
-7.388849314593493e-05 0.14893317541510737 -0.8619919185946927 89 85 62
-0.0010311618879468298 0.14870892386472673 -0.8650759392827289 81 79 60
-0.0010224095121899035 0.14872715716485346 -0.8673455895801753 109 107 94
-0.001451921182732241 0.1486354347516935 -0.8699923943953699 135 134 127
-0.001701922825897484 0.14858879285532808 -0.8724908803650915 156 154 155
-0.0013282068898515242 0.14869867862394456 -0.874458817048473 168 166 169
0.012157533865514492 0.1520982911218816 -0.8651517266959796 177 176 181
0.013578533350177613 0.15247072724502786 -0.866189758457229 183 181 186
0.016434455378892293 0.15320310627703132 -0.8659839087013095 188 186 189
0.021285319866388985 0.15445169818935772 -0.8662910322347699 194 194 195
-0.07429376778119542 0.1265456270144929 -0.653664387241476 97 84 61
-0.07452961834377864 0.1264989401665666 -0.6558716261376851 132 118 91
-0.07285118122946649 0.12693938731178184 -0.656937687967291 140 124 96
-0.07017544830137118 0.12763357035750494 -0.6574016786373339 144 127 99
-0.06737200718894762 0.1283601979993526 -0.6577812200212872 142 125 95
-0.06585021286069434 0.128760692907127 -0.6589265669098265 134 119 86
-0.06428588322252962 0.1291719889469477 -0.6600429999627415 164 147 113
-0.06286925176155106 0.1295456894418662 -0.6612458708866834 155 136 103
-0.06178431283611019 0.12983499437680518 -0.6626482032127954 162 143 104
-0.0619920401928106 0.12979547033356825 -0.6648396404900211 144 127 92
-0.06082888893855107 0.1301046666460855 -0.666193560637363 120 104 79
-0.059713830412606306 0.13040161921358623 -0.6675753045380912 111 96 75
-0.05796415469598501 0.13085996712137662 -0.6685636265358313 89 76 54
-0.05805300948503983 0.1308507085373335 -0.6706866231595129 103 91 69
-0.05855680032343277 0.13073594754134815 -0.6730705423686504 99 86 65
-0.05871825045531809 0.13070827351890102 -0.675245822286568 79 66 45
-0.05835973920740006 0.13081283979774877 -0.6770994007141539 77 63 42
-0.056537190406693305 0.1312896790283133 -0.6780360810492291 84 70 51
-0.05873208937601865 0.13074501550445988 -0.6814960900706392 83 70 52
-0.05783391486865436 0.13098682989965887 -0.6830153265711671 71 58 40
-0.05636209809432802 0.13137447894059145 -0.6841706321103516 99 85 66
-0.05361354445995867 0.13208668240602334 -0.6845120751611289 94 81 60
-0.05763312633640774 0.13107831518463214 -0.6891572531685211 76 63 43
-0.05744725568877074 0.13113907742211278 -0.6911336363663366 78 63 42
-0.05401543393109162 0.13202491902472058 -0.6910313325178843 107 91 66
-0.052993411608729946 0.13229819149194033 -0.692467775280486 114 97 71
-0.054074787806697416 0.13203686143777127 -0.6952596783518145 111 94 69
-0.0550647620925134 0.13179880664397625 -0.6979995687552314 105 88 63
-0.05999725818398227 0.13055887536181202 -0.7033048838918223 102 86 61
-0.060185197563757065 0.13052477104484272 -0.7055440909007241 59 46 22
-0.061612725652853306 0.1301757030089001 -0.7085963337325913 77 65 44
-0.0635860269432243 0.1296880130540003 -0.7120146227486596 120 109 89
-0.06186751409810959 0.1301659337174564 -0.7172852556878003 120 106 80
-0.06055327757876802 0.130513594156635 -0.7185517513329021 119 105 82
-0.057239374869266724 0.1313692110496858 -0.7184860201706094 127 115 91
-0.04429013560339018 0.1346722837893891 -0.7119826415558924 120 108 84
-0.04055158156399202 0.13563550238970987 -0.7115923737729608 126 113 91
-0.03884438151117023 0.13608269980909504 -0.7125530606930728 116 101 81
-0.03625167552742983 0.1367547685285274 -0.7129136521572542 112 99 80
-0.03443091229997705 0.13723074288508677 -0.7137877585139676 110 99 81
-0.0319805553865517 0.13786657333916652 -0.7142309909922532 107 95 79
-0.02979294322049253 0.1384356373857944 -0.7148455772791134 106 95 80
-0.028377715853021707 0.1388085355538371 -0.715980293813486 107 93 76
-0.025884450399674463 0.13945514028268274 -0.7163755021653831 138 118 93
-0.02294788485360663 0.1402142505753514 -0.7164595907831653 146 123 94
-0.02123594741589599 0.140662388056003 -0.717376297477471 136 118 89
-0.020078825875642525 0.14096964706225906 -0.7186713497495938 145 128 101
-0.017662401300013397 0.1415965778712534 -0.7190937603547364 177 162 135
-0.016690448066599806 0.1418567918996041 -0.7205108726689087 169 156 126
-0.015579917972438018 0.1421521737654461 -0.7218304615120837 160 146 116
-0.014355020677735364 0.1424765730844625 -0.7230685580828973 125 111 88
-0.018157671111948104 0.1415249427511765 -0.7278221912507441 99 87 71
-0.016973783266018533 0.1418389729899965 -0.7290950763751394 107 96 78
-0.014171042614363388 0.1425638197043168 -0.7292265739402488 128 116 91
-0.012433443849065556 0.14301831473591264 -0.7301012316946542 140 125 94
-0.05746257261390986 0.13173390010843278 -0.7839616502432332 55 47 30
-0.056293722721672906 0.1320446875031957 -0.785334022098338 45 35 18
-0.05525615084224628 0.13232217052355955 -0.7868005128262099 48 36 20
-0.053842889419978 0.13269491615532292 -0.7879903115197966 67 56 38
-0.05258633433857965 0.1330279062721229 -0.7892924380754271 80 70 48
-0.05117312002467367 0.13340060493061745 -0.7904768410972602 96 84 61
-0.04961224227196187 0.13381072481483774 -0.7915491729213611 115 100 75
-0.04778986285896647 0.13428712179931157 -0.79242407581835 142 126 100
-0.04636016285892583 0.13466393628355836 -0.7935863524313592 136 120 95
-0.04524130365081544 0.1349619310612813 -0.7949774640091516 123 108 86
-0.04229428356297241 0.13572334262997296 -0.7949996464163078 108 93 72
-0.04237799630910677 0.13571646276434174 -0.7972854908126197 99 84 63
-0.04092599367026639 0.13609885733823956 -0.7984196941181152 109 94 70
-0.039090664552377696 0.1365783869977183 -0.7992616584407793 116 101 77
-0.038394436877752874 0.13676919361232456 -0.8009605316414161 115 101 76
-0.03885588845527643 0.1366666162712889 -0.8035377189432096 132 119 92
-0.0360888389916898 0.13738220972453882 -0.8036640101838175 122 110 83
-0.035619166361413795 0.13751559771621075 -0.8055341334784032 102 89 64
-0.03121458593058954 0.13864603287301913 -0.8043950640423676 111 97 72
-0.030458809310051876 0.13885187037851532 -0.8060394172403378 103 87 62
-0.028870154862064984 0.1392687211596822 -0.8070428659406931 106 91 65
-0.02658075844516372 0.13986307488042216 -0.8075019529429586 119 104 78
-0.02496769055755399 0.14028605215032516 -0.8084775052440935 118 103 78
-0.024525493252316843 0.14041240698673027 -0.8103575840397377 97 81 57
-0.02410592138980877 0.14053303859444974 -0.8122564727169241 102 86 61
-0.023363352820386124 0.1407354890659635 -0.8139046774536873 107 91 68
-0.02169490003690161 0.14117243909856045 -0.8148284260250379 93 77 55
-0.02037789927122624 0.1415203546165436 -0.8160237672043904 90 74 50
-0.01844792477771995 0.14202348492036182 -0.8167342726378429 109 91 67
-0.018689619442077865 0.14197665069833504 -0.8191527014530695 118 102 77
-0.017214893921290747 0.14236446736186592 -0.8202175075426373 124 109 79
-0.014361842678729086 0.1431012562837447 -0.8201856162417873 135 119 89
-0.012061755872938063 0.14369798140229817 -0.8205842230226147 135 120 87
-0.011087764526720334 0.14395893037311658 -0.8220336528083474 127 114 80
-0.010510598376238384 0.14411941232360254 -0.8237993552854803 129 114 80
-0.00861087426701862 0.14461469632876506 -0.8245048876491973 138 120 86
-0.008190140226419645 0.14473556968340873 -0.8263947126237712 143 127 93
-0.006607012501857246 0.14515067173873544 -0.8273483857110022 145 130 95
-0.005581018256064857 0.14542473764905883 -0.82874877244168 141 131 91
-0.005227946870077105 0.1455284864354462 -0.8306934646902179 206 196 153
-0.004013151396307535 0.1458503246687295 -0.8319390641805461 213 199 155
