ply
format ascii 1.0
element vertex 660
property float x
property float y
property float z
property uchar diffuse_red
property uchar diffuse_green
property uchar diffuse_blue
end_header
-0.011538572046904783 -0.11077248440899358 -0.3191538348719985 116 105 75
-0.012710770720084613 -0.11171788187427459 -0.3213234045889599 118 107 77
-0.010238608601714355 -0.11020750825720096 -0.32224100690341406 114 103 73
-0.01199623122680224 -0.11154815033288074 -0.32462025419038554 113 102 72
-0.010366742218674008 -0.11060550245975594 -0.3258260513725699 112 101 71
-0.012321451002778538 -0.11208006934685759 -0.32828569969291804 107 96 68
-0.013380842973813367 -0.11295143437479155 -0.33043904671250557 109 97 71
-0.014870625534199683 -0.1141137844475468 -0.33275120306344586 79 69 46
-0.015033992292597886 -0.11438150382798726 -0.3345983868534053 88 81 62
-0.016765292956134492 -0.11570807503586927 -0.337010248935675 78 71 54
-0.019041069312272424 -0.11740310922088026 -0.33962694248087044 83 76 59
-0.02193989050792 -0.11951994768367148 -0.34247997047885187 75 68 56
-0.023701719416126338 -0.12086973721986313 -0.3449323925051071 75 68 61
-0.02707746628700125 -0.12331101278359213 -0.3479840103788321 66 60 49
-0.029780992628854114 -0.12529920062293173 -0.3508034638602101 69 65 54
-0.034130091632702975 -0.1284011228008508 -0.3542434139715218 59 55 46
-0.03359438083039426 -0.12820106801179 -0.3558879667976697 42 38 29
-0.03701400649273828 -0.13067671080027918 -0.3590091887671726 42 38 30
-0.038364336433381996 -0.13175353545714594 -0.36136939667575263 33 28 22
-0.03937474636971758 -0.13260095938352065 -0.36360892249173626 37 32 26
-0.039740631797404 -0.13301260758418504 -0.3656104469996022 36 31 25
-0.043651542418574746 -0.1358250417724141 -0.3689656221669828 42 35 27
-0.04163546182415595 -0.13462464244560748 -0.3700699170701186 41 34 25
-0.045787898957102946 -0.13760274374165593 -0.37354116585389374 46 39 29
-0.04912393480772337 -0.1400292227879435 -0.37671506662893534 49 43 33
-0.04687384720569074 -0.13867075957172684 -0.3777346874197401 35 31 21
-0.04870920990318378 -0.1400815579032598 -0.3803425549010204 38 34 24
-0.05135076549118439 -0.14203989272703998 -0.38327600045735943 44 40 30
-0.05472508206478213 -0.14449636199500215 -0.3865107113100025 32 27 20
-0.05580643643896696 -0.14539847683358997 -0.38885283347485333 29 24 17
-0.05655783170694617 -0.14607725100209612 -0.3910702857316683 32 28 20
-0.05993110056557757 -0.14853623910120087 -0.3943412778039801 34 28 20
-0.06085261945060119 -0.1493319092510206 -0.3966428215516671 40 31 23
-0.06169914584822761 -0.15007718057769534 -0.3989201394080967 35 29 21
-0.06034389759418432 -0.1493272687248995 -0.40031033509782565 31 27 19
-0.05993839954620253 -0.14922245742439488 -0.4020848250418958 25 22 14
-0.06056994821665876 -0.14982255973355552 -0.4042848228950495 23 20 12
-0.06127295084469789 -0.1504716746188613 -0.40651917284543576 25 23 15
-0.06220347000303425 -0.15127596018537554 -0.4088527881188394 30 27 19
-0.06236302509338418 -0.1515564076418323 -0.41087246478263184 27 22 17
-0.06337910036562816 -0.15241984969688616 -0.4132525610559905 29 24 18
-0.06479345882508342 -0.15355489465464928 -0.41580604233266616 29 25 15
-0.06506932344528404 -0.15391570881490843 -0.4178882967752374 26 20 12
-0.0656702227162837 -0.15449814063107176 -0.4201116560852091 24 17 10
-0.06030351690141167 -0.15101699157519102 -0.41980454121873695 28 21 14
-0.06026511289894798 -0.15116378377082873 -0.4217532632180005 28 21 14
-0.059940777321289246 -0.15111596846176717 -0.42358181658738203 29 22 14
-0.059741350850405384 -0.1511533977802963 -0.4254654835185284 29 22 13
-0.05946004344086486 -0.15113516781779246 -0.4273155290434213 31 24 18
-0.06049483265241526 -0.15201447741888435 -0.429739061495455 24 18 13
-0.060477415219992114 -0.15217672118796083 -0.4317098737685842 26 22 15
-0.0601344095280848 -0.15211706622421267 -0.4335404360262245 28 24 15
-0.059835324920588656 -0.152087493332409 -0.43539160449250097 30 26 16
-0.06003138079273246 -0.15239601099746797 -0.4374632922929537 36 29 20
-0.05975078530451258 -0.15237939981581497 -0.4393265244483775 47 37 27
-0.05941605880774503 -0.1523259553038963 -0.4411671058140043 43 34 24
-0.05970330159393186 -0.15269748232677147 -0.4432878739753597 33 27 17
-0.05903651590821876 -0.15241749379880837 -0.44498274622338224 37 30 18
-0.05798407817059048 -0.15187393799975313 -0.4465031651946285 41 32 20
-0.05739065153423789 -0.15164402996359838 -0.4482305915959134 28 21 10
-0.05645581721755763 -0.1511806989684413 -0.4498025139398913 35 29 19
-0.055818901152646705 -0.15092103658387496 -0.45150990111777556 31 25 13
-0.05585563596590101 -0.15112224958683426 -0.45352747735924825 46 38 23
-0.05524274778060284 -0.15087916759478914 -0.4552475397968301 54 45 29
-0.054504453275182746 -0.15055026572300761 -0.45690958864351544 54 45 29
-0.054390402151427514 -0.15064873157668396 -0.45886241990177606 46 37 20
-0.057510150892779555 -0.15296200861702464 -0.4623317904527806 54 42 25
-0.05649441955330384 -0.1524437732651004 -0.4638714736690841 54 42 25
-0.05580265165283663 -0.15214739085946222 -0.4655627688416557 56 44 27
-0.056198802395179936 -0.15259662047512437 -0.4677699718027607 56 44 25
-0.051718708481724024 -0.14970336067580867 -0.4676588322422023 52 40 20
-0.054112081323807903 -0.15152201238224824 -0.47082011498108706 61 49 28
-0.05377456528451141 -0.15146864481176245 -0.47268197025661907 77 65 44
-0.05315250239046873 -0.15122017475816377 -0.4744079065334655 70 58 35
-0.05383873688236737 -0.15186954275483847 -0.47676775633932367 73 59 38
-0.052131033212570815 -0.15087612262598593 -0.47796864811680706 64 49 29
-0.05108685193756038 -0.1503379120564648 -0.4794894216407734 75 60 38
-0.05038046477435901 -0.15003156003868579 -0.4811743498939062 70 55 32
-0.044521547983066456 -0.1461855802569143 -0.48032146633917827 75 60 37
-0.05067469245617573 -0.1505917742160643 -0.48538793220594706 82 67 42
-0.05015592414189218 -0.15041464302467406 -0.48716904768926117 80 66 39
-0.04884708922648087 -0.14969439158714684 -0.4885568330114118 81 67 37
-0.04909135399565073 -0.15004195294352474 -0.49071959398427195 74 58 33
-0.0481082025838134 -0.1495455471463915 -0.4922690538900134 64 47 24
-0.04859345430404216 -0.1500593561137095 -0.49455843001197153 70 53 25
-0.04407667181727121 -0.14713105294337442 -0.4943174224140844 79 61 32
-0.043215045062707264 -0.14671759221766784 -0.4959206181441615 92 74 47
-0.042713327493288517 -0.14655189045698325 -0.4977069060191984 83 65 40
-0.040899643833150395 -0.1454826069141178 -0.49882084807830196 83 66 43
-0.040707915087141916 -0.14553035460576597 -0.5007654612293913 83 69 48
-0.04026647506504499 -0.14540619099681534 -0.5025829077212818 63 50 33
-0.04094795923309458 -0.14605615824721271 -0.5049843050622758 52 41 22
-0.03995554636843976 -0.14555246994229698 -0.5065187481535469 48 34 17
-0.038147229384657644 -0.14448595056704575 -0.5076248510833307 52 39 24
-0.037755634614885514 -0.1443963583491908 -0.5094705892178951 39 27 12
-0.038126512246837024 -0.1448330082537888 -0.5117196795794297 40 28 14
-0.03712640846535967 -0.14432374738957754 -0.5132470493716781 60 48 29
-0.036163920082570356 -0.143840334891767 -0.5147930342693677 87 73 50
-0.03474243859282755 -0.1430398349759332 -0.5160927982257728 90 75 50
-0.03390258646849334 -0.14264083612681736 -0.5177010761157627 94 80 52
-0.033063058363119846 -0.14224199761771322 -0.519308806291727 103 88 59
-0.0371988694455857 -0.14528180114576103 -0.5236027107617682 115 99 71
-0.036856916674533446 -0.14522774634987753 -0.5254892031151931 115 98 70
-0.03693722247126366 -0.145465813446298 -0.5276068906324745 107 92 63
-0.03695446727370716 -0.14566053937438206 -0.5296932884778595 130 115 85
-0.03599830462241743 -0.14518202909168423 -0.5312487135999989 117 102 69
-0.036270400370736894 -0.14555346227955546 -0.5334791846010576 125 107 76
-0.03644480218335494 -0.14585761686136173 -0.5356596526487167 131 113 83
-0.03665690684012199 -0.14618819434499505 -0.5378646242853964 130 115 84
-0.03802900711271806 -0.1473225568746907 -0.5407193822539251 130 117 85
-0.03761951529612048 -0.14722335618509985 -0.5425868269631423 122 108 78
-0.0372748879047578 -0.14716920649423593 -0.5444918003767549 119 105 75
-0.03665246932808586 -0.14692261647321853 -0.5462416989662262 131 118 88
-0.03632301045578801 -0.1468791801626227 -0.5481574734484242 139 125 98
-0.03805234756103351 -0.1482637992269109 -0.5512432440411459 127 113 86
-0.037786111730059246 -0.14826487221708914 -0.5532023956694729 121 107 80
-0.03619554322234611 -0.14734707982373674 -0.5544059825192579 125 111 83
-0.03528020578903501 -0.1468976466024936 -0.5559932345672552 134 119 88
-0.03512950160289502 -0.14697902898641302 -0.558020001415543 127 115 84
-0.03729198425623667 -0.14866715694168992 -0.5613867325337594 121 107 78
-0.03671598682759755 -0.14845392229540377 -0.5631761463758352 120 104 77
-0.03834656845391471 -0.14977406916415337 -0.5662515638834036 144 129 100
-0.038722074245953475 -0.1502227083203077 -0.5686030327250963 137 122 90
-0.03854287733129391 -0.15028607784692893 -0.5706334994790363 125 109 81
-0.039052318618771814 -0.15082856355176336 -0.5730718090895937 125 110 84
-0.039974454406948634 -0.15165859772220103 -0.5757592910614497 116 102 75
-0.03984323225176262 -0.15175626757853486 -0.5778286483707912 101 86 61
-0.040144366984399465 -0.15215508636215092 -0.5801579193205615 92 78 54
-0.04063498225209783 -0.15268620488765622 -0.58260474628512 88 75 50
-0.04003061985149581 -0.15245520655038985 -0.5843997568281258 101 85 60
-0.0406870928833199 -0.15310255660097616 -0.5869543214459048 113 97 71
-0.041309184878471294 -0.153726466033139 -0.5894939755657356 102 88 61
-0.04251766812504462 -0.1547595945290115 -0.5923950134846664 121 107 80
-0.041707893262440066 -0.15438633862308043 -0.5940758344031253 134 120 88
-0.04192628598107201 -0.1547300660285148 -0.5963842335223715 142 128 91
-0.04222515001884192 -0.1551302795262229 -0.5987459568399588 152 138 103
-0.04260273391867028 -0.15558580449640952 -0.6011604663926078 147 132 98
-0.043050006348269304 -0.1560903839756984 -0.6036227149160035 150 134 101
-0.04336159761952718 -0.1565006781637588 -0.6060059034917478 147 132 98
-0.04240144704720378 -0.15602323357177508 -0.6076026004945154 154 140 105
-0.04367064153408551 -0.15710299620408058 -0.6105895268761394 151 137 102
-0.04371771203958269 -0.1573295694259876 -0.6128196660009622 151 137 102
-0.042651649622871546 -0.15677841699691114 -0.614353406954894 153 139 103
-0.04301729552076422 -0.15722807954628457 -0.6167886083294957 154 140 103
-0.043615340134389724 -0.15784068122677478 -0.6193756384073534 161 147 110
-0.04468337319229043 -0.1587825606637473 -0.6222669900595095 153 138 102
-0.045743353378429524 -0.1597194980831923 -0.625161079676536 145 129 94
-0.04611490610075042 -0.16017528071003564 -0.6276226222575583 152 135 98
-0.047182981621608416 -0.16111913381494056 -0.6305360885173722 151 133 96
-0.04779028403671892 -0.16174099677930603 -0.6331606452870101 149 132 96
-0.048399315145624566 -0.1623645871261907 -0.6357921870657719 154 137 102
-0.04850244848879301 -0.16263420693792646 -0.6381014457417372 152 133 100
-0.04701388291935882 -0.16178850745616422 -0.6393782250945863 148 131 95
-0.0483674680215562 -0.1629351523819504 -0.6425079375197268 152 138 100
-0.04815931610949234 -0.16298735627136854 -0.6446232839396945 150 136 101
-0.04851835928733436 -0.16343764798159716 -0.6471139190760578 155 142 110
-0.04780015310844146 -0.16313245119358719 -0.6488984047007469 158 147 119
-0.04898894504588891 -0.16416578035366228 -0.6519457234790098 159 150 124
-0.04963414127729493 -0.1648182047203666 -0.6546404095896237 164 155 131
-0.05011530904889194 -0.1653559715540887 -0.6572318644530233 171 163 143
-0.050616903000639424 -0.16590856376496882 -0.6598423927303406 180 174 158
-0.051275135306496106 -0.1665717117612685 -0.6625635907513703 190 186 174
-0.052197892232345 -0.16742134499128705 -0.6654692180947965 199 196 188
-0.05287575961878499 -0.16809945109849364 -0.6682167829164635 209 206 200
-0.053114470632984745 -0.16846925372177324 -0.6706728669179288 215 212 207
-0.05359156751063754 -0.1690071468629461 -0.6732955270105964 217 214 212
-0.05403498649629862 -0.16952182093599077 -0.675900651858115 218 215 215
-0.05503056448570348 -0.17042563636801078 -0.6788893718970914 217 217 216
-0.055254517742811315 -0.17078682929329808 -0.6813555533421328 217 217 216
-0.05382864219426581 -0.16998639349606914 -0.6826881792053457 218 218 218
-0.05195370838287816 -0.16886929631912256 -0.683706772168049 218 218 219
-0.05306091231954252 -0.16985332335590383 -0.6867905583691104 217 217 219
-0.05256036374632561 -0.16970473666901506 -0.6887627617225516 217 217 219
-0.05186451549894161 -0.16941852483295028 -0.6905994557911435 217 217 219
-0.04999359629501671 -0.16850801205990568 -0.6939359358260963 217 217 219
-0.012920602409595014 -0.10612617613046227 -0.23406364557489673 158 154 149
-0.01091886208327919 -0.10493652965039676 -0.23521774600537804 116 109 97
-0.009666878420663563 -0.10424743772648855 -0.23655904654191204 107 97 78
-0.009048203215526324 -0.10398141693796151 -0.23806140277820736 109 97 71
-0.008710363361577586 -0.1039031285773252 -0.2396365871981941 105 93 66
-0.00837191222274744 -0.10382450995460726 -0.2412124962602146 106 92 65
-0.006706908415481494 -0.10285875006561757 -0.24244023412474572 100 88 61
-0.00850984428175168 -0.10421260838996625 -0.24458279413827042 97 83 56
-0.007063418739359478 -0.10339297784192929 -0.24586737802067876 102 88 61
-0.00673325428916112 -0.10332017454199918 -0.24744854467689104 96 82 56
-0.006880031499721537 -0.10356673444045886 -0.24915945690086702 96 82 56
-0.006686644657263874 -0.10358575348208872 -0.250780482358879 96 82 55
-0.006940018621071811 -0.10390411341229144 -0.2525251502770123 102 88 61
-0.0069989363908359165 -0.10409247059382398 -0.2542192446264672 105 91 64
-0.00718606033125925 -0.10436693704987773 -0.2559511637950304 90 76 49
-0.007249360934331303 -0.10455865948055157 -0.25765130161444993 86 72 45
-0.007316846431702342 -0.10475339320644218 -0.2593549338818905 99 85 58
-0.007201862813723703 -0.10482598404678498 -0.2610093742092744 107 93 66
-0.007336323163152553 -0.1050660236244082 -0.2627363993975398 105 91 64
-0.006375105778307882 -0.10457126755895521 -0.26415270700230487 101 87 60
-0.006247142043325327 -0.1046355081688039 -0.26580746293135504 98 84 57
-0.006320425409867436 -0.104834964158569 -0.2675221383790054 97 83 57
-0.0066515792415384745 -0.10520774284356627 -0.2693143000919264 97 83 57
-0.0066667427952925296 -0.10536863633142753 -0.27101716429162304 99 85 59
-0.0073807110780766405 -0.10599906011933657 -0.27292822936483985 106 93 67
-0.0072424421307886455 -0.10605737777427446 -0.274591197471498 115 101 75
-0.007174986634408798 -0.10616342398638506 -0.2762769388762788 122 108 81
-0.006928108480553807 -0.10614904833600852 -0.2779107232429632 116 102 72
-0.008168475767429267 -0.107134602281151 -0.27999485189215556 108 94 64
-0.008802310079549541 -0.10771289592004206 -0.28190133796428746 101 88 60
-0.00993443838019556 -0.10862672464642076 -0.2839644995937194 101 88 62
-0.010678703079632756 -0.10928017491273757 -0.2859146821793157 102 89 64
-0.01092953703826191 -0.10960202628667859 -0.2877171723346397 103 89 63
-0.009933008576532065 -0.10908460370725209 -0.28913489556259886 97 84 57
-0.011660289717583872 -0.11040077218894706 -0.2914030273486057 99 86 57
-0.01325923922615399 -0.1116312713951979 -0.29363920542311917 103 91 63
-0.013011559470688133 -0.11161870244179115 -0.2952991809150125 106 94 67
-0.011585173176560076 -0.11081215610658256 -0.29658545003124515 108 94 65
-0.011163390245180232 -0.11068230759361546 -0.2981901863307119 112 98 65
-0.011422185266447171 -0.1110112416832584 -0.3000145853632979 109 95 66
-0.013306304140876524 -0.11243621715009747 -0.30236806461017046 114 100 71
-0.014131405159382465 -0.11314785574628308 -0.3043859890337932 117 103 74
-0.01159638518709194 -0.11159354307506138 -0.3053096107631693 118 104 75
-0.012013184594956844 -0.11203009853973984 -0.3071975099908159 119 105 74
-0.012995390767613357 -0.11284853802244552 -0.3092762292491901 121 107 76
-0.013766944264171105 -0.1135253051318544 -0.31129067895140816 125 111 81
-0.015514341583119207 -0.11486136357503768 -0.3136366326932953 124 113 83
-0.013785571652424139 -0.11385068295417215 -0.3148219774339158 125 114 84
-0.01348153985365938 -0.1138020170514374 -0.3164850681000297 121 110 80
-0.014473418928627746 -0.11462902074246548 -0.3185899397826947 118 107 77
-0.013778924642769974 -0.11431689132205208 -0.32012418909866264 114 103 73
-0.012897046418092417 -0.11387807004990065 -0.3215937329822305 117 106 76
-0.011402271109510448 -0.1130247626911384 -0.3228504969480406 115 104 74
-0.013816297283423706 -0.11481466490360484 -0.32546192157793746 115 104 72
-0.013974971342947257 -0.1150799090298592 -0.3272968552246475 114 103 73
-0.013921039828355408 -0.11520155335969882 -0.3290600038802719 112 101 71
-0.016002377031898163 -0.11676850294429653 -0.3315788744101419 109 98 69
-0.016370352881940886 -0.11717647852620952 -0.3334998390981875 98 87 60
-0.016584536745529205 -0.11748064375142538 -0.33536961031516443 116 106 82
-0.016360695687220372 -0.1174884175752087 -0.3370854331410807 99 89 68
-0.016223876864971842 -0.11755527453954326 -0.33883408545255334 84 76 54
-0.021202585951700076 -0.12108863164264996 -0.3424376288104442 81 74 56
-0.023406392911565016 -0.1227430778326027 -0.345051685067989 81 73 61
-0.025933335662189416 -0.12461752922610339 -0.3477945695980915 67 61 49
-0.0290802043639119 -0.126913404772808 -0.3507772936005257 68 64 53
-0.03400007796068255 -0.13041312096394417 -0.35442969461557927 59 55 46
-0.03457592095176326 -0.1309675120859679 -0.3564886431732014 46 42 33
-0.035909334701045015 -0.1320364001121396 -0.35883507329868175 46 42 33
-0.037041371076519475 -0.1329692545664476 -0.3611133110198194 35 31 22
-0.037780149093490784 -0.13363569950849724 -0.3632498451035398 35 31 22
-0.03793570596465065 -0.13390653294214477 -0.3651704409528022 36 32 23
-0.041903577900283734 -0.1367672527678117 -0.36854662128976223 40 33 23
-0.03925673827376888 -0.13513518108824568 -0.36940732489529016 41 35 24
-0.04263250256920734 -0.13759547870103025 -0.3725779937698319 50 44 32
-0.04732132935243366 -0.14094972308447407 -0.3762716547950039 51 45 34
-0.045178435479263895 -0.13966053224397207 -0.3773307048785667 41 34 24
-0.04670351436450346 -0.14086549393540668 -0.37981642592651377 39 32 22
-0.0494226166454462 -0.1428834678114656 -0.38277894842832005 48 41 31
-0.05076487345357475 -0.14396569523176084 -0.3852113804491654 48 41 31
-0.05215216653405863 -0.14507924919837661 -0.3876692487650306 36 29 19
-0.05284190109594772 -0.14571859840860144 -0.38985717324305275 41 34 24
-0.052732225437878394 -0.1458140314027935 -0.3917304195760147 45 38 27
-0.05492993235571006 -0.14748128892140827 -0.3945332227004155 43 36 25
-0.05638805284719889 -0.14864563152585586 -0.3970482478634295 40 32 22
-0.05549407790466207 -0.14820779614674046 -0.39861689348101703 39 31 22
-0.0566893921230012 -0.14919403661127617 -0.40103647418691324 33 26 17
-0.05719881541080271 -0.14971325631114218 -0.40318220002856203 37 32 22
-0.057435363474304085 -0.15004677658134208 -0.405220106378652 30 25 15
-0.057612631058907904 -0.15034016381508247 -0.4072369452604203 41 35 26
-0.058173818122080445 -0.15089579757761584 -0.40941650458771206 30 23 17
-0.05824249987842084 -0.15111571312345223 -0.41139521781665245 31 24 16
-0.058884931182872496 -0.1517275634119073 -0.4136173308286603 30 23 13
-0.058677500305022334 -0.1517595350654224 -0.4154864798269109 31 23 14
-0.05736914063304066 -0.15103970566707767 -0.4168914676204327 32 24 15
-0.05745032175492143 -0.15126897673072234 -0.4188846911538586 35 27 18
-0.057374614420922065 -0.15139129148137281 -0.42081379203808306 29 21 13
-0.05794723865880003 -0.15195696830398975 -0.4230233361810278 30 22 15
-0.060306401311318064 -0.15374455097424983 -0.42600769763888935 37 29 20
-0.0576593747526436 -0.15210951908646875 -0.4268364013886258 28 20 14
-0.05860890579981193 -0.1529340580075494 -0.4292215357404436 25 17 11
-0.058610386436143885 -0.15311046938186074 -0.4311988056685904 32 25 16
-0.058516100489173745 -0.1532215686756425 -0.4331366563263181 29 22 12
-0.05816555173794641 -0.15315743327867865 -0.4349637796837076 37 30 19
-0.05847453807666497 -0.153545028644812 -0.43708416169494346 44 35 21
-0.058067447313251835 -0.15344249984977087 -0.4388899025921069 62 50 34
-0.05727309978739345 -0.15307474851277417 -0.44052366069405174 63 52 37
-0.056686428824328255 -0.1528492686975426 -0.4422500885704848 49 41 27
-0.056825442713437174 -0.15312124301546798 -0.4443038748709837 39 30 16
-0.055993204198933666 -0.15272757564854778 -0.44592119493512694 44 33 18
-0.05561309540398604 -0.1526439246149318 -0.4477434092884056 44 35 22
-0.0539542830276884 -0.15168319983259448 -0.44898285310191216 32 25 12
-0.0538074017727527 -0.15175955605351965 -0.4509117497864444 37 29 16
-0.05399071232557723 -0.15206271914594288 -0.4529947996878496 37 27 13
-0.053783320693093384 -0.15209795853145053 -0.45490048840423686 50 39 24
-0.05317061355473812 -0.15185503211111404 -0.4566196913268915 48 38 21
-0.05463132815479421 -0.1530363003094334 -0.4593065872787818 64 52 35
-0.05495510959165012 -0.15343719434432096 -0.46146921718082556 62 50 32
-0.053747857281947975 -0.15278627161682035 -0.4629152841544283 55 42 24
-0.052223066044895156 -0.15191687816135524 -0.46420910387345493 58 45 27
-0.05256470651727649 -0.15233050854946617 -0.46638535769969963 49 36 16
-0.051237181795788594 -0.15159650835207428 -0.4677700562376012 74 62 41
-0.050253473294085665 -0.15109879755034897 -0.46931666600142585 58 46 23
-0.0509605350450133 -0.15176442870757717 -0.47167473297297374 72 60 36
-0.05080155249658491 -0.15183445353896424 -0.47362030371695185 103 91 65
-0.05061479667459476 -0.15188553967930885 -0.47555447031112386 66 52 29
-0.05025872011770835 -0.1518201943394478 -0.4774081675950942 72 57 35
-0.04552099123709771 -0.1487367005312615 -0.4771214005399493 70 55 32
-0.04753366003608281 -0.15030290550679842 -0.4801313728982941 74 59 36
-0.047320457345461114 -0.15033600333670044 -0.4820551972541638 73 58 35
-0.04737257987940685 -0.1505521760466514 -0.4841121827550829 79 65 39
-0.04695367411877846 -0.15044380539596475 -0.4859380319210014 82 68 41
-0.0465345251710341 -0.15033535738479176 -0.48776477822508624 92 79 48
-0.04609728785628775 -0.15021452019540266 -0.48958348119293926 106 91 62
-0.04577419878144409 -0.15017254176466482 -0.49146055764467345 70 54 28
-0.04509877100260132 -0.14988747301336425 -0.4931610733633516 80 63 36
-0.04307113756562922 -0.14866874027316013 -0.4941757369398764 80 62 32
-0.042210132013163176 -0.14825524944964627 -0.4957789107582272 119 100 75
-0.04173203765690389 -0.14810621778819985 -0.4975770741753357 73 53 34
-0.04067125677977601 -0.14755460662780506 -0.49907688583664295 57 39 24
-0.041649271815648564 -0.14841207706466636 -0.5016259445289339 48 32 21
-0.039936801462558624 -0.1474099811877021 -0.5027894707663301 41 27 17
-0.04040550534229073 -0.14791594117391577 -0.5050819608090877 48 36 23
-0.038632434019666206 -0.1468715574484779 -0.5062097414970018 42 30 15
-0.03897179242343518 -0.14728844262555257 -0.5084392743896842 49 38 21
-0.038576995832350525 -0.1471975724842327 -0.5102869729896851 65 54 35
-0.03868786468495328 -0.1474568808486213 -0.512402748961576 76 63 43
-0.03902197843815583 -0.14787107383099177 -0.5146400921122692 86 72 49
-0.0376019117529921 -0.14707055233202715 -0.515948288413362 114 99 71
-0.037954667954226334 -0.14749808116591306 -0.5182003129069704 113 98 66
-0.037995514337979486 -0.14770982029068125 -0.5202893573914601 120 106 76
-0.03880937136832707 -0.1484577043298881 -0.5227975327214521 121 107 78
-0.0379839745082485 -0.1480694432931803 -0.524426012462742 123 107 78
-0.03778341390766343 -0.14811451810755516 -0.5263928511505759 133 116 88
-0.03742234640441519 -0.14804840965832045 -0.5282742527732354 128 113 84
-0.03742315513159694 -0.14823355413011702 -0.5303548264195057 127 112 81
-0.03707031567273228 -0.14817345808627885 -0.5322441332051185 123 108 75
-0.03762571990997271 -0.14874412983873697 -0.5346352249800973 131 115 85
-0.03770966208269075 -0.14898781027127517 -0.5367707487674123 133 118 88
-0.03759066728486357 -0.14909078821647836 -0.5387968090329565 124 109 79
-0.0393360424374902 -0.15048957080787573 -0.5418643318457044 117 104 74
-0.03923024385836196 -0.15060249209751828 -0.5439064579340829 122 108 80
-0.03863391635415933 -0.15037456338749328 -0.5456755299330406 121 107 77
-0.03821581182311118 -0.1502706174898206 -0.5475454150190744 122 109 76
-0.03804554622706821 -0.15033918617659386 -0.5495566487135551 119 106 76
-0.037713334740194754 -0.15029525380126713 -0.5514780618026071 117 103 76
-0.03748570215415531 -0.1503242456497733 -0.5534605773228516 127 113 86
-0.03808911033677456 -0.15093202065140993 -0.5559206182162698 131 117 90
-0.037521385073411156 -0.15072465910114607 -0.5577134162382735 137 122 92
-0.03763609700869608 -0.15099274681174962 -0.5599001751291084 127 114 84
-0.038107512108706915 -0.15150969621036997 -0.5622967872343279 114 99 72
-0.0386015629184705 -0.15204286312436482 -0.5647115082032987 138 120 94
-0.038979622666039965 -0.15249561022284425 -0.5670636682705656 140 123 95
-0.03935834784055703 -0.15294922753822005 -0.5694207948024261 129 113 86
-0.04015085415672853 -0.15369190109500117 -0.5720255562429869 99 84 61
-0.041534120340304265 -0.15484736281440725 -0.5749849889408734 51 41 23
-0.04277863392787207 -0.15590677483520232 -0.5778712893448377 33 25 9
-0.04366511496785813 -0.1567169646789461 -0.5805533439739268 32 25 12
-0.04395820390823291 -0.15711336093975659 -0.582888543743548 37 30 16
-0.044285316025695104 -0.15753390330645406 -0.5852483700832226 42 33 15
-0.0435410606376104 -0.1572062246176246 -0.5869693509911227 55 43 23
-0.04344079232985837 -0.15732863285114923 -0.5890781615697098 86 75 51
-0.04416578412546596 -0.15802823730757182 -0.5916886623466868 101 86 63
-0.04477926661343401 -0.15865040996013274 -0.5942376749219136 118 104 80
-0.044313130377732046 -0.158517871446609 -0.5961347220451969 125 110 81
-0.04369792496821939 -0.15828111410524043 -0.5979416188186745 139 124 90
-0.04413758484932501 -0.1587827011786814 -0.6003960946817412 145 130 94
-0.044675609168601915 -0.1593535962994572 -0.6029161249680346 149 134 99
-0.04422759898478468 -0.15923444800313422 -0.6048322223585809 141 125 92
-0.04474745952276213 -0.15979339030357417 -0.6073496753373196 148 133 99
-0.045529795119250316 -0.16053672448716816 -0.6100358632899828 139 125 90
-0.04478636653518281 -0.16021123986943522 -0.6117755557731154 139 125 90
-0.04507931555308878 -0.16061233120231455 -0.614164683708425 156 142 107
-0.044469682989060816 -0.16038084215332166 -0.6159904138632435 149 135 100
-0.045317483131423364 -0.16117175521528238 -0.6187365961981265 159 145 110
-0.04472578530266827 -0.16095320668354762 -0.6205777004324373 154 140 105
-0.04514895292297533 -0.1614470149135516 -0.6230644783414849 150 135 101
-0.04557307643783712 -0.1619419383352394 -0.6255568705621134 151 133 101
-0.04609331866598035 -0.16250480923506888 -0.6281158198604849 153 137 101
-0.048185762527511805 -0.16417260037508452 -0.6316903186504417 151 137 100
-0.04896971040367715 -0.1649220541586054 -0.6344337427643525 154 139 103
-0.049708994537717544 -0.16564070709574424 -0.63715494509543 154 140 106
-0.047562673229055746 -0.16433113768105856 -0.6380092731843062 152 139 109
-0.04938431649679764 -0.1658115625021028 -0.6414420769021654 154 141 114
-0.04968214058518633 -0.16622102854218065 -0.6438901210752255 157 145 122
-0.04998071759921041 -0.16663142612647763 -0.6463431863671161 165 157 137
-0.0501913836953054 -0.16698034813191936 -0.6487429252290614 183 176 160
-0.053022402751701087 -0.16917457127107033 -0.6528775797314266 194 192 178
-0.0544851361445744 -0.17040656361894874 -0.6561214187846236 206 203 194
-0.055438938608485366 -0.17128089948279585 -0.659036661670411 211 210 205
-0.05639599748469648 -0.1721582020735647 -0.6619616505148663 213 212 210
-0.05735621457172446 -0.17303840557523897 -0.6648963579311267 215 216 214
-0.05705395143482306 -0.1730291272491829 -0.6669904554343147 216 217 215
-0.05576732152607461 -0.17232575118856563 -0.6684227994974743 216 218 216
-0.056449913188154344 -0.17301141567516795 -0.671184624011502 218 219 220
-0.05712147460323469 -0.17389482123160982 -0.6762550940838008 218 218 219
-0.05653489719590582 -0.17409702153681356 -0.6828005148542133 218 218 218
-0.05657074541397794 -0.1743283642405577 -0.685146835361018 218 218 219
-0.01626371367792777 -0.11048295302478864 -0.2367089101519989 169 168 163
-0.013221755685121503 -0.10859373401260296 -0.23760192019232934 139 135 126
-0.011467543293453869 -0.10756706425406726 -0.23881875586570564 110 102 85
-0.010900293216880796 -0.10733596157910721 -0.24033992874924834 96 87 65
-0.010607091996554074 -0.1072886756745658 -0.24193286822266344 100 89 64
-0.010277798557799214 -0.10721727041667772 -0.24351735427740162 93 82 55
-0.00974898306862669 -0.1070120635027027 -0.24504988854510992 103 89 62
-0.00921535550167786 -0.10680364738330672 -0.24658136909813383 110 96 69
-0.008621278826668952 -0.10655466858453047 -0.24809683206662034 101 87 61
-0.008531836773214452 -0.10664454942135936 -0.24974867965750303 98 84 58
-0.008257232331813746 -0.10661022410496726 -0.2513519316839886 99 85 58
-0.008517498638994397 -0.10693532997239891 -0.25310273730538757 99 85 58
-0.008454559742869516 -0.10704352199337572 -0.2547674981672792 91 77 50
-0.008699250173171483 -0.10735864635164 -0.25651943291040913 101 87 60
-0.008906391968378252 -0.10764879240873462 -0.25826385110728894 90 76 49
-0.007753418813209609 -0.10702459906878825 -0.25962917723288953 94 80 53
-0.007769286280025461 -0.10718638759649923 -0.26132281999967794 97 83 56
-0.008224227577214832 -0.10764375855886854 -0.26314347344381495 99 85 58
-0.008598476877704625 -0.10804716401901565 -0.2649447641441045 99 85 58
-0.00868549891352012 -0.10825755336346266 -0.2666668131177313 106 92 65
-0.008125703323676695 -0.10803270355618994 -0.26820394193197195 115 101 74
-0.008437965490231389 -0.10839509980509691 -0.2699953523534101 113 100 72
-0.00824530576399761 -0.10841769709399152 -0.2716419570789905 115 102 74
-0.008676979902573614 -0.10886104202146733 -0.27347418167284143 114 101 72
-0.008545705344704835 -0.10892536378578548 -0.2751430174206444 101 88 59
-0.008745069792575222 -0.10921269470856018 -0.27691224238291856 103 89 60
-0.0082521746136128 -0.10903356975491149 -0.2784764117332079 109 95 67
-0.008204410734599321 -0.10915465203665216 -0.2801754576440882 99 85 58
-0.011201708406939376 -0.11132982532427702 -0.28280195785280715 96 83 57
-0.012331956814192663 -0.11224651755722327 -0.2848705792537077 94 83 61
-0.013855102488318088 -0.11342890511758086 -0.28706625321557605 74 65 46
-0.014874142321825545 -0.11427171189838428 -0.28911365562535923 64 55 36
-0.013885916781071761 -0.11375983786316304 -0.290542421241984 63 54 35
-0.012993870225949278 -0.1133127916585153 -0.29199990933861397 62 53 35
-0.014137624183174796 -0.11424078070204802 -0.29409708403118406 73 63 44
-0.013531261841111974 -0.11398689749669488 -0.29564662065556035 77 66 45
-0.013657102820288342 -0.11422783503653688 -0.2974292543421971 89 77 53
-0.012458573661368794 -0.11357379152748459 -0.2987905451001263 100 86 58
-0.013631313090809977 -0.1145228201401837 -0.3009131695278854 113 99 70
-0.013932758042037863 -0.11488318586864889 -0.3027601524046476 115 101 72
-0.014049544114209417 -0.1151189362760652 -0.3045503228804227 118 104 75
-0.013625467102160865 -0.11498897069994632 -0.3061660473115636 122 109 78
-0.013532414678121857 -0.11508309409166997 -0.3078914410134504 121 108 76
-0.014144452420860931 -0.11565468707490734 -0.30985216333327553 121 108 76
-0.014583547878982778 -0.11610958104199823 -0.311759783855619 121 108 76
-0.0143350296714026 -0.11609912396533671 -0.313441081998315 125 113 83
-0.014436375303038151 -0.11632579332274132 -0.31524146685920545 125 114 84
-0.015149950315359345 -0.1169675382413776 -0.3172516533340613 122 111 81
-0.013959247969936778 -0.11631908490738271 -0.31861879849996066 120 109 79
-0.014287503146492797 -0.1167001734416446 -0.32050342965155726 118 107 77
-0.011674336836960397 -0.11508703874596404 -0.32137990043159403 116 105 75
-0.00997399114804623 -0.11409236469077921 -0.32256462085705184 114 103 73
-0.015681882757274335 -0.11812319233666871 -0.32632055730473153 117 106 74
-0.015884348915068264 -0.11842023586505163 -0.3281759058467211 120 109 77
-0.01580898189030136 -0.11852897232164744 -0.3299366777073609 119 108 77
-0.017262551685477828 -0.1196759023333949 -0.33223943661120386 116 105 74
-0.01834311100060365 -0.12057021679915425 -0.33441745381438054 112 100 69
-0.018265572057586055 -0.12067846419411932 -0.3361884741993534 109 96 68
-0.01881298002880344 -0.12121148798429814 -0.338185711639978 111 99 73
-0.01881834007922681 -0.12137653712079507 -0.3399918289167112 108 97 72
-0.01896471583023021 -0.12163764990699588 -0.341851397189459 89 80 57
-0.022175053478190876 -0.12398224404962785 -0.3448301858469206 79 72 55
-0.024267179397603755 -0.12556764802104237 -0.34741380040817665 68 62 49
-0.02781692723326773 -0.1281455054765582 -0.3505441330210598 66 62 51
-0.031336304650778274 -0.13070409980361183 -0.3536788937109449 55 51 42
-0.03253286292772936 -0.13168321681881318 -0.35596549850435794 45 41 32
-0.03379855899373585 -0.13271001438392138 -0.35828481554227143 46 42 32
-0.03456539887088339 -0.13339777034224837 -0.3604239032950042 41 37 26
-0.03518374933457907 -0.13398486422217376 -0.3625122163666695 46 42 31
-0.035723161969067246 -0.13451860422074613 -0.3645753108140325 40 36 25
-0.04002040950768365 -0.13761342937834076 -0.3680756176934845 43 37 25
-0.04096261868898779 -0.13842314533442898 -0.3703090528836468 49 43 30
-0.042351916435098474 -0.1395382069353918 -0.3727206391486766 55 49 36
-0.04316414042880981 -0.14026043071965583 -0.3749166216285002 53 46 33
-0.04314812528424672 -0.14041820253262766 -0.37679605683763273 45 37 26
-0.04456641345560028 -0.1415547772359133 -0.37923835009976886 45 37 26
-0.0477427837725381 -0.14389185011627925 -0.38237884202579625 53 45 34
-0.04869899078765391 -0.14471470703295142 -0.38465788222379194 50 42 31
-0.050453501831701164 -0.1460831834932526 -0.3872595623602854 42 34 23
-0.05017134217024216 -0.14606152055140098 -0.3890590197688515 47 39 28
-0.05098629890304429 -0.14678945610945834 -0.39129907471872427 45 38 26
-0.05202829962511929 -0.14767303346257193 -0.39363606945780255 44 37 23
-0.05362219558625117 -0.14893439766461203 -0.3962026124061641 50 41 29
-0.054415665190974405 -0.14964932667094413 -0.39845275452861584 54 43 34
-0.05534284997807418 -0.15045619055065584 -0.4007630205104784 46 37 26
-0.05580864477098102 -0.15094801363792498 -0.40289024402446033 46 37 27
-0.05548499869473619 -0.15090011792722088 -0.4046966549112369 49 40 29
-0.054330746982918454 -0.15028392420048958 -0.40616065097554743 55 46 34
-0.054144362395687234 -0.1503300710013713 -0.4080250848958752 47 40 25
-0.05477607109227414 -0.15093651391180807 -0.4102330239971582 35 27 14
-0.055448813575552536 -0.15157150592158747 -0.4124631763512001 31 23 13
-0.056160731168301975 -0.15223379605581272 -0.41471500740514855 33 24 14
-0.057324634385836154 -0.15320626474332721 -0.41716357791762526 38 30 19
-0.05824369013731384 -0.1540115555467691 -0.41951507893646284 43 35 24
-0.05767414707898827 -0.15379688544863673 -0.42123652448074883 41 33 22
-0.05765836488845427 -0.15396197568031444 -0.4231960785789795 41 33 21
-0.058840665185365015 -0.1549490581458153 -0.42567488576635204 46 39 25
-0.057287717169720254 -0.15406019614287206 -0.4269758461290526 33 25 14
-0.05762249082387905 -0.15446647467898286 -0.4290948829775505 30 21 12
-0.05674702881919044 -0.1540423638167776 -0.43068874004917096 35 26 17
-0.056658663826495814 -0.1541586016271259 -0.43262740970162333 36 27 17
-0.05653242298087746 -0.1542490291258531 -0.4345516303164896 38 30 18
-0.05672468397578906 -0.15455844250174774 -0.4366190884161504 57 45 30
-0.056275782116655265 -0.1544275938927251 -0.43840456585014553 56 42 25
-0.055674427549992384 -0.15419203892865538 -0.44012273907040456 56 43 27
-0.0550728983523765 -0.15395638591185595 -0.4418410798335348 51 40 26
-0.05447137969656779 -0.1537207621297001 -0.4435596711015808 50 38 23
-0.0539858754202579 -0.15356495985608992 -0.44533106089009944 55 42 26
-0.05349043634377215 -0.1534023855677816 -0.447098638415254 49 38 24
-0.05307480818485194 -0.15329479681613278 -0.44890335567802936 47 39 23
-0.053108846645475216 -0.15349683586866686 -0.4509154356552827 42 33 17
-0.05320169790163087 -0.15373961981146395 -0.4529574097041978 53 41 27
-0.052695174979142057 -0.15356986604535433 -0.4547249344615503 45 33 17
-0.05295139700447665 -0.15392563252492947 -0.45684772387927886 45 33 16
-0.05298815825651271 -0.15413050081701588 -0.4588717276617863 51 38 20
-0.05257658507590232 -0.1540265977783946 -0.4606883030802439 56 42 23
-0.05241119543026437 -0.15409251729508444 -0.46262184252675675 79 65 46
-0.04957789651194058 -0.15231874871665269 -0.4632955643223856 49 34 14
-0.05024778883102893 -0.1529607338275344 -0.4656245075092942 51 36 15
-0.04934609636909834 -0.15251882316558074 -0.46720919434968944 75 61 38
-0.04919587825513741 -0.15259547270958282 -0.46915289721871306 61 49 25
-0.049665407669507 -0.1531001522043213 -0.4713968058602628 68 56 31
-0.04907000288979485 -0.15286987165657376 -0.4731308854453397 102 90 64
-0.04846874067402537 -0.15263557128387273 -0.47486241412933927 63 50 23
-0.04837837302951495 -0.1527542693842424 -0.4768430750765908 69 55 29
-0.04447820635308525 -0.15024031303996824 -0.47696252347060064 64 49 26
-0.04331476284166161 -0.14961696413180278 -0.47841304819868924 65 50 29
-0.04215864517009338 -0.14899849902375065 -0.47986515641597016 74 59 37
-0.04319887787176854 -0.14989890281387158 -0.4824030279135553 69 54 30
-0.04276338331630131 -0.14977901204986366 -0.48421398059436477 101 87 60
-0.04263952836542753 -0.14987485697696573 -0.48618149315727255 87 73 45
-0.04276883007841681 -0.15014612880581713 -0.4882781595095126 111 97 69
-0.042801793950009354 -0.15035099255933737 -0.490329589005913 67 52 27
-0.04255983254413148 -0.1503657167439739 -0.49224491784555846 77 61 40
-0.04183324766333246 -0.15004488709708796 -0.49391602068536344 60 47 24
-0.041170337612730645 -0.14976815656486842 -0.495619330847704 63 49 29
-0.040523467999817875 -0.1495025452878354 -0.49733086809412813 41 27 9
-0.03999271793269665 -0.14931744477567047 -0.4991021473458943 53 39 21
-0.04183739805983808 -0.15077966720987146 -0.5020992791458224 57 41 24
-0.039827555889486804 -0.14956913892548107 -0.5031106078343511 82 69 52
-0.03956924160983147 -0.14957338203844744 -0.5050271038056531 96 85 63
-0.039049068367710216 -0.14939604239322385 -0.506808603144564 92 81 56
-0.041981766201281495 -0.151615759344353 -0.5104004280252706 104 91 66
-0.04070316060449511 -0.1509125245461703 -0.5117912676977809 103 88 63
-0.040743492127372466 -0.15112516799752712 -0.5138763481693029 99 84 59
-0.0386648362475584 -0.14986587922051875 -0.5148405482150471 116 101 76
-0.03922308362255958 -0.15043858486717754 -0.517202915039121 115 98 71
-0.04004044467499385 -0.1511918707953744 -0.519708936795475 118 101 72
-0.03841456189437806 -0.1502468624811696 -0.5209100291068498 124 109 80
-0.03940189693294055 -0.15111902679596362 -0.5235149909316849 119 105 76
-0.039003907801668125 -0.15102804155205665 -0.5253776708270261 126 110 82
-0.03890115615490311 -0.15114261284903682 -0.5274018089081373 128 112 84
-0.039301277682261826 -0.15160743882589625 -0.5297024493153871 130 115 85
-0.038494991790947314 -0.15123268708893445 -0.5313475042565912 130 115 84
-0.038216836728742015 -0.1512257059110174 -0.5332820969615456 133 118 86
-0.03809046637860722 -0.15132461492911004 -0.5353020600899187 127 112 82
-0.04207054878495853 -0.15428525654007774 -0.539597368439245 117 103 74
-0.04122987287935087 -0.15388747154684362 -0.5412337937105088 121 107 78
-0.04133508051926793 -0.15414910990972946 -0.543397114100642 119 105 76
-0.039890404730868856 -0.1533301475764406 -0.544695987148663 119 105 78
-0.0392509349415201 -0.15307260243826465 -0.5464441443888626 120 106 79
-0.03860499525265565 -0.15281055729011803 -0.5481888148339179 111 96 70
-0.03976712776558372 -0.15381052107995863 -0.550957534664083 116 102 75
-0.03946076211126692 -0.15378592699678056 -0.5528993737495005 115 101 74
-0.039431578188064365 -0.15395504905430885 -0.5550009651409693 120 106 79
-0.04019872120746515 -0.15468069824649028 -0.5575614257608409 116 102 75
-0.04063868440518348 -0.15517828791449395 -0.5599400153669591 124 108 80
-0.04004140651626237 -0.15495134083065545 -0.561724909163473 121 109 81
-0.04060247104091522 -0.15553426007659762 -0.5641810585913001 111 97 71
-0.04105784537906021 -0.15604374724161243 -0.5665811277438944 123 107 84
-0.04145123776263532 -0.15651031673058063 -0.5689499465373726 100 88 65
-0.04238629803112942 -0.15735631419110124 -0.5716406591892329 46 37 20
-0.044372569324284517 -0.15893868736439265 -0.5749563208969373 24 18 8
-0.04478450884852153 -0.15941990875275805 -0.5773547166939816 14 13 4
-0.04520623482956365 -0.15990841065118144 -0.5797636820161148 17 14 7
-0.04543628095709784 -0.160263074863153 -0.5820635495610424 27 23 15
-0.045666642212766256 -0.16061831788054892 -0.5843676067766524 37 32 21
-0.04589749159872153 -0.16097426188645653 -0.5866759676318882 52 43 27
-0.046124332793930745 -0.16132775566169522 -0.588985941876286 66 55 35
-0.04636046402327887 -0.1616881232423128 -0.591305531478227 96 84 60
-0.045302164345306706 -0.1611408556398445 -0.5928457024265035 105 91 66
-0.04469481369303882 -0.16090985778868125 -0.5946582000064338 118 104 79
-0.045080012353025944 -0.16137552184869444 -0.5970761847815285 127 111 82
-0.04546599430843329 -0.16184215956865985 -0.5994993853807165 145 131 96
-0.04530702221126626 -0.1619265271218283 -0.6015926998818785 146 130 95
-0.04588954898438394 -0.16253197085667362 -0.604145332584771 147 132 98
-0.04647371202170064 -0.16313906855696841 -0.6067046137221054 150 135 102
-0.04705932908607985 -0.16374769416652388 -0.6092704528527862 142 128 93
-0.047646393388891484 -0.16435784483822585 -0.611842867272119 141 127 92
-0.04823498555996389 -0.16496957920124886 -0.6144219289226772 144 130 95
-0.04698491710354227 -0.16428843661769693 -0.6158532286466673 154 140 105
-0.04718657110107413 -0.1646285630987966 -0.6181960300657028 153 139 104
-0.046635784916437995 -0.1644394515328062 -0.6200674481729537 153 140 105
-0.0465430650495359 -0.16457289486247703 -0.6222299494441035 149 136 102
-0.04701964807647718 -0.16510750484282966 -0.6247573803358171 150 137 104
-0.04737183841495682 -0.16555495822388888 -0.6272106442463213 153 141 111
-0.04824658100619733 -0.16637104347704462 -0.6300034381033253 146 136 110
-0.04939849956912573 -0.16738312529445237 -0.6329815162565756 150 141 117
-0.04994989791839466 -0.16797256113674391 -0.6355804483460562 165 157 138
-0.05097531906925057 -0.168896802153082 -0.6384919405922488 178 171 155
-0.05215444642247055 -0.16993017094772328 -0.6415110893958069 196 193 179
-0.05326616416435742 -0.17091673286150366 -0.6444947872717607 204 202 193
-0.052071827734506415 -0.1702763085974877 -0.6459779753717015 209 207 203
-0.05232974121803488 -0.1706610470049102 -0.6484123709620349 215 212 210
-0.058176769409965245 -0.17499349900519987 -0.654533089375169 216 214 213
-0.05942145752561115 -0.17607726645392424 -0.6576412151315232 218 216 216
-0.06079398117474777 -0.17725216538592214 -0.6608430275158858 217 217 217
-0.016228873601706537 -0.11258954425292916 -0.23850550813743204 177 177 175
-0.01587141733855779 -0.1125003445420171 -0.24008939404968568 170 170 163
-0.014077773430964627 -0.11144522262536088 -0.24130080141933696 145 141 131
-0.012120763129056578 -0.11027981728866876 -0.24246529628747182 110 104 89
-0.012145845896467555 -0.11044778717999862 -0.24414716597337857 100 91 72
-0.012127100445559397 -0.11058645246984561 -0.24581958135384718 110 98 77
-0.011231361116774238 -0.11013487121833748 -0.24725993791330947 119 104 81
-0.010696264875452957 -0.1099260523498502 -0.2487961377446161 116 100 76
-0.010358769415130045 -0.10985034828663817 -0.25038598568732834 111 98 70
-0.010524469209748921 -0.11011373647311665 -0.25211369302712117 110 97 68
-0.0106473765484629 -0.11034852940807222 -0.2538323559215343 110 96 69
-0.010013038618437248 -0.1100731430314745 -0.2553447960422668 120 107 80
-0.010283150471222191 -0.11040751679792715 -0.25710803417915057 121 107 80
-0.010696006608465355 -0.11083842598426216 -0.25891418474120476 114 100 73
-0.00984062375196948 -0.11041421837748337 -0.26036757466369004 109 95 68
-0.00927686940081189 -0.11018668150540156 -0.2619025099819369 110 97 70
-0.009599171609474683 -0.11055709140237516 -0.2636896507648207 111 100 72
-0.00944297850688712 -0.11060481712200629 -0.26534307491206194 107 96 68
-0.009498805433130558 -0.11079582935364496 -0.26705914131792213 96 83 56
-0.009560747078576709 -0.11099118078669369 -0.2687793070380119 104 90 63
-0.00988873360512632 -0.1113664492674087 -0.27057940388464913 102 87 62
-0.01019555878098101 -0.11172771859724434 -0.27237659732105013 95 79 54
-0.010259859075608738 -0.1119253840271113 -0.2741054429322705 91 76 48
-0.010435660203812536 -0.11219863277569522 -0.2758697741598105 94 81 51
-0.011060131701167153 -0.11277548331539447 -0.27777091598721526 106 95 64
-0.01180450128093477 -0.1134338135615596 -0.27971247919262987 100 88 63
-0.012863712607251748 -0.11430554895101067 -0.2817540499372758 84 71 51
-0.01555032950479912 -0.11627891859066589 -0.28429648766411586 65 54 36
-0.015220039029537225 -0.1169955625158875 -0.29461984670843555 39 34 21
-0.01389668174961703 -0.11625605766799042 -0.29594569700806356 41 35 19
-0.013388016885713894 -0.11606859736339228 -0.297528466930422 48 39 19
-0.014088701225747846 -0.11670118242389843 -0.2994990126741039 97 86 61
-0.01557112994613466 -0.11786439499386084 -0.30172616548793063 106 93 66
-0.01613558857355074 -0.11840555311542447 -0.3036635208491304 104 90 63
-0.01645530833512096 -0.11878102898429338 -0.30552541998941 108 94 66
-0.015807636152390447 -0.11850022526795242 -0.3070737716680929 114 100 71
-0.015033336780091167 -0.11813344495712957 -0.3085802765258462 115 101 70
-0.016356043804351267 -0.11919057725415447 -0.3107808864207348 113 99 68
-0.0151663672383609 -0.11854190691228084 -0.3121516768276773 118 104 73
-0.015529974455269185 -0.11894831197552011 -0.31404061700556135 126 113 84
-0.015759743328376152 -0.11926409138052901 -0.31588806732622493 123 110 80
-0.015749149719545885 -0.1194167738466472 -0.3176572262927188 119 109 79
-0.01648081808480495 -0.12007430156396728 -0.3196813125076036 117 107 77
-0.019078240234631394 -0.12200106485861154 -0.32234899905050296 117 106 76
-0.01595944593731738 -0.12004068694058184 -0.323061352741677 117 106 76
-0.016440696600303895 -0.12052885093618414 -0.3250100387932319 113 102 72
-0.017547875265231244 -0.12144335001358321 -0.32718050237339014 115 104 74
-0.01832044709893557 -0.1221306554418933 -0.32924034049364936 111 100 69
-0.016245292185229687 -0.120879481582322 -0.3303042393838295 113 102 72
-0.01852813816284332 -0.1225958006673731 -0.33290283697546946 110 99 68
-0.019351221576670463 -0.12331868811769098 -0.3349936262446706 110 97 67
-0.02061478307332773 -0.12434219148872247 -0.33724708620919164 111 97 68
-0.021592072225986053 -0.12517122047752782 -0.3394048006536841 108 95 66
-0.02088288873874075 -0.12485109637806024 -0.34095992531557434 114 103 75
-0.02095535020649497 -0.1250639327173316 -0.34279823967584305 118 109 83
-0.020249408080323467 -0.12474609288189756 -0.34435536094284636 96 89 67
-0.020116297220218432 -0.12481902173371562 -0.34612208939132894 79 74 56
-0.026217078438968755 -0.12914605362129591 -0.35018679409580095 65 61 48
-0.030152140217746815 -0.13199713366861257 -0.35347498002265354 55 49 40
-0.03217254123450747 -0.13354256931325925 -0.3560678974006948 49 41 33
-0.0324474081941738 -0.13389688453182746 -0.35801801526939536 52 45 35
