ply
format ascii 1.0
element vertex 828
property float x
property float y
property float z
property float nx
property float ny
property float nz
property uchar diffuse_red
property uchar diffuse_green
property uchar diffuse_blue
property uchar class
property uchar detection
end_header
0.0036 -0.0539 -0.1633 0.374 -0.722 0.582 148 130 93 0 0
0.0039 -0.0566 -0.1670 0.449 -0.663 0.599 163 148 109 0 0
0.0057 -0.0693 -0.1762 -0.443 -0.896 0.012 143 128 89 0 0
0.0056 -0.0690 -0.1776 -0.463 -0.866 0.188 142 125 87 0 0
0.0053 -0.0676 -0.1792 -0.425 -0.893 0.149 141 122 84 0 0
0.0052 -0.0712 -0.1953 0.029 -0.921 0.389 143 128 92 0 0
0.0051 -0.0710 -0.1968 -0.003 -0.973 0.232 134 118 84 0 0
0.0050 -0.0710 -0.1982 0.083 -0.981 0.175 129 111 78 0 0
0.0049 -0.0712 -0.2010 0.434 -0.900 0.039 127 111 75 0 0
0.0049 -0.0712 -0.2024 0.546 -0.838 0.020 124 108 72 0 0
0.0048 -0.0714 -0.2037 0.642 -0.766 -0.035 125 109 72 0 0
0.0047 -0.0743 -0.2174 0.734 -0.633 0.246 130 115 82 0 0
0.0048 -0.0749 -0.2187 0.668 -0.707 0.231 122 107 74 0 0
0.0047 -0.0750 -0.2215 0.677 -0.726 0.124 120 105 73 0 0
0.0047 -0.0756 -0.2228 0.617 -0.724 0.307 113 98 67 0 0
0.0046 -0.0756 -0.2243 0.360 -0.766 0.533 109 94 64 0 0
0.0045 -0.0774 -0.2339 0.814 -0.544 0.205 120 105 72 0 0
0.0041 -0.0780 -0.2454 0.536 -0.844 0.009 129 114 82 0 0
0.0041 -0.0782 -0.2468 0.474 -0.880 0.001 129 115 80 0 0
0.0020 -0.0779 -0.2929 0.706 -0.674 0.217 134 119 85 0 0
0.0020 -0.0783 -0.2943 0.706 -0.674 0.217 135 121 86 0 0
0.0018 -0.0507 -0.1595 0.331 -0.552 0.765 174 159 118 0 0
0.0020 -0.0521 -0.1607 0.220 -0.622 0.751 154 139 99 0 0
0.0021 -0.0530 -0.1620 0.125 -0.546 0.828 141 127 87 0 0
0.0045 -0.0696 -0.1720 0.356 -0.917 -0.179 177 161 117 0 0
0.0044 -0.0694 -0.1734 0.371 -0.929 0.006 173 156 113 0 0
0.0043 -0.0692 -0.1748 0.440 -0.891 -0.112 157 140 98 0 0
0.0042 -0.0691 -0.1762 0.394 -0.917 -0.065 145 127 87 0 0
0.0042 -0.0691 -0.1776 0.394 -0.917 -0.065 140 119 82 0 0
0.0041 -0.0691 -0.1790 0.458 -0.887 0.059 138 117 80 0 0
0.0037 -0.0682 -0.1847 0.117 -0.954 0.276 153 138 96 0 0
0.0038 -0.0712 -0.1939 -0.095 -0.981 0.171 150 136 95 0 0
0.0038 -0.0715 -0.1953 -0.028 -0.947 0.321 145 131 94 0 0
0.0037 -0.0717 -0.1966 0.226 -0.878 0.423 134 119 82 0 0
0.0036 -0.0722 -0.2008 0.374 -0.852 0.366 124 108 73 0 0
0.0035 -0.0718 -0.2022 0.464 -0.829 0.313 122 107 72 0 0
0.0036 -0.0726 -0.2035 0.467 -0.856 0.224 124 109 74 0 0
0.0037 -0.0739 -0.2061 0.509 -0.692 0.511 125 109 75 0 0
0.0037 -0.0764 -0.2155 0.576 -0.709 0.407 124 109 76 0 0
0.0038 -0.0771 -0.2168 0.560 -0.729 0.393 127 112 78 0 0
0.0027 -0.0839 -0.2659 0.764 -0.643 0.056 127 112 80 0 0
0.0027 -0.0841 -0.2674 0.764 -0.643 0.056 128 113 80 0 0
-0.0224 -0.0968 -0.8724 0.897 -0.311 0.314 174 173 172 0 0
0.0008 -0.0538 -0.1618 -0.047 -0.539 0.841 134 120 90 0 0
0.0028 -0.0673 -0.1682 0.021 -0.992 0.125 168 153 111 0 0
0.0027 -0.0671 -0.1709 0.227 -0.973 0.050 176 161 117 0 0
0.0026 -0.0672 -0.1723 0.426 -0.873 0.236 182 165 121 0 0
0.0027 -0.0681 -0.1735 0.443 -0.788 0.427 183 165 121 0 0
0.0028 -0.0688 -0.1748 0.443 -0.788 0.427 182 165 121 0 0
0.0028 -0.0694 -0.1761 0.435 -0.807 0.399 173 156 111 0 0
0.0026 -0.0700 -0.1843 0.423 -0.846 0.324 154 140 96 0 0
0.0023 -0.0687 -0.1859 0.408 -0.771 0.489 155 141 96 0 0
0.0023 -0.0714 -0.1953 -0.074 -0.933 0.353 142 128 89 0 0
0.0024 -0.0722 -0.1965 0.173 -0.841 0.513 134 119 80 0 0
0.0024 -0.0726 -0.1978 0.113 -0.920 0.375 128 112 76 0 0
0.0024 -0.0732 -0.1992 0.198 -0.925 0.326 122 106 70 0 0
0.0023 -0.0730 -0.2006 0.441 -0.792 0.423 123 107 72 0 0
0.0023 -0.0734 -0.2019 0.624 -0.717 0.310 121 105 70 0 0
0.0023 -0.0741 -0.2046 0.685 -0.670 0.284 124 108 73 0 0
0.0024 -0.0746 -0.2059 0.685 -0.670 0.284 122 106 72 0 0
0.0022 -0.0747 -0.2102 0.674 -0.633 0.382 130 114 81 0 0
0.0025 -0.0847 -0.2424 0.780 -0.625 -0.014 121 107 72 0 0
0.0015 -0.0859 -0.2669 0.788 -0.615 0.033 128 113 80 0 0
-0.0305 0.0496 -0.4528 0.379 -0.925 -0.007 82 71 49 0 0
-0.0336 0.0454 -0.5374 -0.606 -0.619 0.500 97 89 76 0 0
-0.0335 0.0441 -0.5408 -0.252 -0.961 0.115 116 107 96 0 0
-0.0336 0.0438 -0.5426 -0.312 -0.945 0.104 123 115 104 0 0
-0.0336 0.0433 -0.5463 -0.188 -0.982 -0.007 129 124 119 0 0
-0.0336 0.0426 -0.5479 -0.631 -0.750 0.201 175 173 171 0 0
-0.0332 0.0400 -0.5487 -0.717 -0.631 0.295 196 195 197 0 0
-0.0331 0.0389 -0.5521 0.441 -0.888 0.129 207 208 211 0 0
-0.0006 -0.0541 -0.1604 0.648 -0.597 0.474 130 117 97 0 0
0.0013 -0.0665 -0.1669 0.183 -0.948 0.261 155 138 102 0 0
0.0012 -0.0672 -0.1709 -0.019 -0.984 0.177 174 159 116 0 0
0.0012 -0.0675 -0.1722 0.014 -0.947 0.320 182 167 122 0 0
0.0013 -0.0684 -0.1735 0.274 -0.829 0.487 190 174 128 0 0
0.0014 -0.0691 -0.1748 0.274 -0.829 0.487 196 181 133 0 0
0.0015 -0.0698 -0.1760 0.182 -0.801 0.571 205 192 141 0 0
0.0013 -0.0899 -0.2557 0.696 -0.714 0.075 105 90 60 0 0
-0.0309 0.0462 -0.4367 0.269 -0.859 0.436 14 11 9 0 0
-0.0325 0.0511 -0.4534 0.366 -0.910 0.193 84 75 55 0 0
-0.0350 0.0431 -0.5364 0.150 -0.861 0.486 93 82 65 0 0
-0.0354 0.0436 -0.5445 -0.382 -0.902 0.199 108 98 86 0 0
-0.0355 0.0425 -0.5500 0.002 -0.982 0.187 121 117 113 0 0
-0.0355 0.0421 -0.5518 -0.052 -0.939 0.340 129 128 124 0 0
-0.0350 0.0384 -0.5539 0.170 -0.972 0.161 171 169 169 0 0
-0.0350 0.0383 -0.5559 0.388 -0.919 0.073 184 183 182 0 0
-0.0351 0.0381 -0.5578 0.382 -0.912 0.149 202 202 200 0 0
-0.0364 0.0404 -0.5770 0.813 -0.503 0.292 206 206 209 0 0
-0.0365 0.0407 -0.5792 0.907 -0.308 0.288 206 205 209 0 0
-0.0030 -0.0463 -0.1517 -0.272 -0.901 0.337 186 174 147 0 0
-0.0002 -0.0675 -0.1722 0.206 -0.883 0.421 197 183 138 0 0
-0.0000 -0.0688 -0.1734 0.396 -0.638 0.660 192 178 132 0 0
0.0000 -0.0696 -0.1747 0.381 -0.563 0.734 190 176 127 0 0
0.0002 -0.0710 -0.1758 0.381 -0.563 0.734 193 179 131 0 0
0.0004 -0.0720 -0.1770 0.489 -0.620 0.613 194 181 135 0 0
0.0012 -0.0882 -0.2202 0.629 -0.753 0.193 125 110 78 0 0
0.0012 -0.0887 -0.2215 0.615 -0.772 0.157 119 104 74 0 0
0.0007 -0.0887 -0.2329 0.661 -0.726 0.191 116 100 67 0 0
0.0007 -0.0890 -0.2342 0.661 -0.726 0.191 113 97 64 0 0
0.0006 -0.0891 -0.2356 0.618 -0.776 0.128 112 96 64 0 0
0.0002 -0.0904 -0.2497 0.618 -0.755 0.220 106 91 63 0 0
0.0001 -0.0912 -0.2539 0.594 -0.802 -0.054 105 90 59 0 0
-0.0008 -0.0927 -0.2784 0.736 -0.665 0.123 119 104 71 0 0
-0.0008 -0.0934 -0.2827 0.628 -0.659 0.415 124 109 76 0 0
-0.0008 -0.0940 -0.2840 0.658 -0.646 0.387 125 110 77 0 0
-0.0007 -0.0947 -0.2853 0.695 -0.645 0.317 126 111 78 0 0
-0.0019 -0.0913 -0.2967 0.733 -0.584 0.349 154 141 104 0 0
-0.0050 -0.0807 -0.3243 0.951 -0.045 -0.307 66 58 46 0 0
-0.0341 0.0499 -0.4530 0.588 -0.790 0.174 79 72 53 0 0
-0.0338 0.0482 -0.4542 0.819 -0.571 0.059 78 69 51 0 0
-0.0334 0.0456 -0.4551 0.899 -0.380 0.216 101 89 73 0 0
-0.0371 0.0439 -0.5407 -0.254 -0.716 0.651 82 69 50 0 0
-0.0373 0.0421 -0.5518 0.235 -0.937 0.260 100 95 84 0 0
-0.0368 0.0377 -0.5557 0.170 -0.972 0.161 115 110 101 0 0
-0.0368 0.0374 -0.5575 0.215 -0.951 0.223 117 113 104 0 0
-0.0367 0.0367 -0.5592 0.398 -0.884 0.246 120 115 109 0 0
-0.0368 0.0363 -0.5610 0.426 -0.880 0.211 141 136 133 0 0
-0.0379 0.0385 -0.5761 0.813 -0.503 0.292 206 206 208 0 0
-0.0378 0.0380 -0.5779 0.907 -0.308 0.288 199 199 200 0 0
-0.0213 -0.0865 -0.6919 0.990 0.021 0.137 88 79 69 0 0
-0.0048 -0.0434 -0.1479 0.142 -0.968 0.206 177 178 174 0 0
-0.0007 -0.0841 -0.2139 0.072 -0.912 0.405 68 57 38 0 0
-0.0006 -0.0848 -0.2152 0.303 -0.801 0.516 75 64 43 0 0
-0.0006 -0.0856 -0.2165 0.303 -0.801 0.516 82 70 47 0 0
-0.0002 -0.0876 -0.2175 0.291 -0.722 0.628 101 89 62 0 0
-0.0001 -0.0886 -0.2187 0.291 -0.722 0.628 116 104 75 0 0
-0.0001 -0.0893 -0.2200 0.470 -0.763 0.443 135 124 93 0 0
-0.0000 -0.0900 -0.2212 0.470 -0.763 0.443 129 117 92 0 0
-0.0002 -0.0897 -0.2241 0.706 -0.698 0.123 120 104 72 0 0
-0.0005 -0.0890 -0.2285 0.649 -0.761 -0.013 108 93 63 0 0
-0.0006 -0.0895 -0.2313 0.650 -0.754 0.089 106 92 62 0 0
-0.0006 -0.0897 -0.2327 0.650 -0.754 0.089 101 86 56 0 0
-0.0007 -0.0897 -0.2341 0.759 -0.640 0.116 103 88 55 0 0
-0.0011 -0.0909 -0.2467 0.480 -0.869 0.120 103 90 59 0 0
-0.0011 -0.0909 -0.2482 0.443 -0.843 0.306 108 95 63 0 0
-0.0011 -0.0914 -0.2495 0.443 -0.843 0.306 107 94 63 0 0
-0.0011 -0.0917 -0.2509 0.580 -0.811 0.074 110 95 66 0 0
-0.0012 -0.0922 -0.2537 0.594 -0.802 -0.054 105 90 59 0 0
-0.0017 -0.0913 -0.2626 0.603 -0.717 0.351 109 96 64 0 0
-0.0017 -0.0938 -0.2708 0.688 -0.724 -0.055 124 108 75 0 0
-0.0018 -0.0937 -0.2723 0.710 -0.701 -0.071 122 107 74 0 0
-0.0020 -0.0942 -0.2780 0.459 -0.861 0.221 118 103 70 0 0
-0.0019 -0.0946 -0.2794 0.657 -0.709 0.257 123 108 75 0 0
-0.0021 -0.0946 -0.2824 0.306 -0.935 0.179 124 107 77 0 0
-0.0021 -0.0951 -0.2837 0.205 -0.926 0.317 124 107 76 0 0
-0.0030 -0.0930 -0.2962 0.621 -0.700 0.353 158 145 109 0 0
-0.0039 -0.0926 -0.3130 0.772 -0.614 0.166 119 105 76 0 0
-0.0039 -0.0932 -0.3143 0.616 -0.431 0.659 119 103 76 0 0
-0.0037 -0.0944 -0.3155 0.650 -0.461 0.604 118 102 77 0 0
-0.0036 -0.0953 -0.3168 0.869 -0.338 0.361 118 102 79 0 0
-0.0354 0.0475 -0.4521 0.769 -0.639 0.004 70 61 48 0 0
-0.0354 0.0471 -0.4539 0.787 -0.616 0.036 70 60 45 0 0
-0.0352 0.0458 -0.4552 0.878 -0.439 0.190 70 58 46 0 0
-0.0339 0.0348 -0.4677 0.538 -0.736 0.411 120 104 78 0 0
-0.0337 0.0336 -0.4690 0.311 -0.766 0.562 98 86 59 0 0
-0.0384 0.0360 -0.5589 0.398 -0.884 0.246 104 97 83 0 0
-0.0384 0.0356 -0.5607 0.426 -0.880 0.211 104 98 86 0 0
-0.0385 0.0352 -0.5625 0.389 -0.879 0.275 104 98 88 0 0
-0.0384 0.0342 -0.5640 0.567 -0.776 0.274 102 95 87 0 0
-0.0384 0.0339 -0.5659 0.720 -0.694 -0.007 105 99 92 0 0
-0.0423 0.0412 -0.6207 0.946 0.159 0.283 104 95 86 0 0
-0.0063 -0.0430 -0.1480 -0.347 -0.906 0.241 177 178 175 0 0
-0.0028 -0.0669 -0.1640 0.355 -0.814 0.460 158 146 108 0 0
-0.0028 -0.0686 -0.1706 0.209 -0.875 0.437 111 95 74 0 0
-0.0028 -0.0693 -0.1719 0.447 -0.759 0.473 147 133 103 0 0
-0.0016 -0.0867 -0.2120 0.349 -0.931 0.112 49 37 25 0 0
-0.0021 -0.0842 -0.2139 0.046 -0.879 0.474 51 39 26 0 0
-0.0015 -0.0888 -0.2186 0.126 -0.676 0.726 106 93 71 0 0
-0.0014 -0.0899 -0.2198 0.260 -0.706 0.659 146 135 108 0 0
-0.0013 -0.0909 -0.2210 0.200 -0.915 0.349 147 135 109 0 0
-0.0015 -0.0905 -0.2239 0.607 -0.786 0.117 125 108 79 0 0
-0.0019 -0.0919 -0.2379 0.322 -0.945 0.057 106 91 58 0 0
-0.0033 -0.0944 -0.2750 0.549 -0.836 0.006 128 113 80 0 0
-0.0032 -0.0949 -0.2764 0.553 -0.829 0.088 125 110 77 0 0
-0.0043 -0.0937 -0.2946 0.673 -0.602 0.430 146 132 96 0 0
-0.0042 -0.0945 -0.2958 0.673 -0.602 0.430 150 136 101 0 0
-0.0048 -0.0965 -0.3149 0.747 -0.472 0.467 122 107 80 0 0
-0.0048 -0.0969 -0.3163 0.772 -0.383 0.507 122 106 79 0 0
-0.0186 -0.0405 -0.3944 0.681 -0.441 0.584 92 84 64 0 0
-0.0399 0.0357 -0.5529 0.559 -0.829 0.023 85 73 50 0 0
-0.0404 0.0374 -0.5577 0.200 -0.972 0.122 88 75 54 0 0
-0.0405 0.0371 -0.5595 0.172 -0.970 0.174 91 78 58 0 0
-0.0402 0.0341 -0.5640 0.350 -0.852 0.390 95 85 70 0 0
-0.0399 0.0251 -0.5917 -0.567 -0.429 0.704 192 194 197 0 0
-0.0229 -0.0942 -0.6808 0.911 -0.408 -0.058 89 79 65 0 0
-0.0232 -0.0934 -0.6834 0.990 -0.022 0.136 98 87 74 0 0
-0.0029 -0.0869 -0.2106 0.110 -0.994 -0.005 47 36 21 0 0
-0.0034 -0.0862 -0.2177 0.068 -0.757 0.650 65 52 35 0 0
-0.0033 -0.0870 -0.2190 0.034 -0.784 0.620 94 81 63 0 0
-0.0028 -0.0901 -0.2198 0.085 -0.735 0.673 140 128 105 0 0
-0.0027 -0.0912 -0.2210 0.200 -0.915 0.349 165 153 126 0 0
-0.0026 -0.0916 -0.2223 0.187 -0.937 0.296 152 138 113 0 0
-0.0028 -0.0918 -0.2265 0.473 -0.872 0.127 128 109 75 0 0
-0.0029 -0.0920 -0.2279 0.543 -0.820 0.180 122 106 72 0 0
-0.0033 -0.0924 -0.2392 0.288 -0.957 0.022 107 92 59 0 0
-0.0034 -0.0924 -0.2406 0.288 -0.957 0.022 107 92 61 0 0
-0.0036 -0.0920 -0.2421 0.391 -0.901 -0.187 106 91 62 0 0
-0.0037 -0.0918 -0.2436 0.470 -0.878 -0.096 105 90 61 0 0
-0.0037 -0.0921 -0.2450 0.745 -0.665 0.047 105 90 61 0 0
-0.0045 -0.0956 -0.2747 0.609 -0.784 0.124 121 106 73 0 0
-0.0058 -0.0938 -0.2945 0.423 -0.900 0.111 143 128 95 0 0
-0.0058 -0.0940 -0.2960 0.455 -0.886 0.086 143 128 95 0 0
-0.0059 -0.0942 -0.2974 0.497 -0.868 -0.015 141 126 94 0 0
-0.0059 -0.0942 -0.2989 0.497 -0.868 -0.015 137 122 91 0 0
-0.0060 -0.0943 -0.3004 0.497 -0.868 -0.015 137 122 90 0 0
-0.0060 -0.0946 -0.3018 0.361 -0.930 -0.069 134 121 89 0 0
-0.0059 -0.0957 -0.3045 0.643 -0.632 0.433 130 117 83 0 0
-0.0059 -0.0961 -0.3059 0.615 -0.587 0.526 132 119 85 0 0
-0.0063 -0.0963 -0.3149 0.707 -0.707 -0.009 124 109 78 0 0
-0.0063 -0.0967 -0.3164 0.723 -0.607 0.329 130 115 83 0 0
-0.0060 -0.0986 -0.3173 0.781 -0.396 0.484 127 112 80 0 0
-0.0198 -0.0430 -0.3935 0.807 -0.545 0.229 112 104 82 0 0
-0.0365 0.0376 -0.4392 0.616 -0.705 -0.351 9 8 6 0 0
-0.0427 0.0389 -0.5605 -0.205 -0.956 0.208 90 77 54 0 0
-0.0429 0.0395 -0.5628 -0.270 -0.942 0.198 91 79 57 0 0
-0.0427 0.0378 -0.5659 -0.014 -0.918 0.396 93 82 62 0 0
-0.0426 0.0290 -0.5959 0.276 -0.926 -0.257 186 186 184 0 0
-0.0435 0.0300 -0.6107 0.377 -0.904 -0.200 95 87 74 0 0
-0.0238 -0.0960 -0.6717 0.915 -0.365 -0.173 78 67 53 0 0
-0.0241 -0.0953 -0.6742 0.861 -0.451 -0.233 87 75 59 0 0
-0.0240 -0.0960 -0.6757 0.814 -0.561 -0.151 102 90 71 0 0
-0.0241 -0.0962 -0.6776 0.782 -0.604 -0.151 112 101 81 0 0
-0.0242 -0.0960 -0.6798 0.886 -0.459 -0.059 117 104 84 0 0
-0.0074 -0.0554 -0.1559 0.382 -0.523 0.762 130 118 101 0 0
-0.0063 -0.0634 -0.1631 0.155 -0.857 0.491 117 102 71 0 0
-0.0063 -0.0636 -0.1644 0.288 -0.905 0.313 98 86 60 0 0
-0.0049 -0.0857 -0.2178 -0.076 -0.842 0.534 65 54 37 0 0
-0.0039 -0.0938 -0.2261 -0.153 -0.909 0.388 144 126 91 0 0
-0.0042 -0.0925 -0.2277 0.417 -0.842 0.342 140 122 86 0 0
-0.0042 -0.0930 -0.2291 0.486 -0.634 0.601 129 113 76 0 0
-0.0043 -0.0929 -0.2305 0.322 -0.599 0.733 125 111 73 0 0
-0.0044 -0.0927 -0.2320 0.563 -0.697 0.444 121 108 70 0 0
-0.0044 -0.0932 -0.2333 0.547 -0.828 0.124 113 99 64 0 0
-0.0046 -0.0927 -0.2363 0.319 -0.926 -0.203 104 89 56 0 0
-0.0049 -0.0924 -0.2406 0.086 -0.975 0.206 107 92 61 0 0
-0.0050 -0.0925 -0.2435 0.013 -0.989 0.145 105 90 60 0 0
-0.0049 -0.0933 -0.2447 0.495 -0.845 0.203 105 90 60 0 0
-0.0049 -0.0937 -0.2461 0.324 -0.899 0.293 106 91 62 0 0
-0.0069 -0.0960 -0.2954 -0.344 -0.935 0.086 137 123 91 0 0
-0.0078 -0.0966 -0.3149 0.275 -0.958 -0.082 125 110 79 0 0
-0.0078 -0.0967 -0.3164 0.201 -0.963 0.180 131 116 84 0 0
-0.0077 -0.0978 -0.3176 0.689 -0.664 0.291 132 117 85 0 0
-0.0190 -0.0480 -0.3636 0.073 -0.971 0.228 44 34 23 0 0
-0.0192 -0.0480 -0.3685 0.441 -0.832 0.338 80 68 50 0 0
-0.0193 -0.0481 -0.3701 0.449 -0.845 0.289 79 63 47 0 0
-0.0378 0.0350 -0.4401 0.050 -0.915 -0.400 9 8 7 0 0
-0.0390 0.0377 -0.4540 0.167 -0.931 0.325 59 51 45 0 0
-0.0389 0.0363 -0.4572 0.284 -0.829 0.481 78 67 57 0 0
-0.0094 -0.0521 -0.1550 0.014 -0.448 0.894 95 82 59 0 0
-0.0077 -0.0633 -0.1617 0.419 -0.862 0.285 122 105 78 0 0
-0.0076 -0.0647 -0.1656 0.188 -0.900 0.394 95 85 67 0 0
-0.0076 -0.0651 -0.1669 0.185 -0.948 0.260 93 86 69 0 0
-0.0052 -0.0834 -0.1847 0.270 -0.873 0.407 88 77 58 0 0
-0.0053 -0.0946 -0.2287 -0.047 -0.689 0.724 147 132 99 0 0
-0.0054 -0.0947 -0.2315 0.480 -0.758 0.441 128 112 76 0 0
-0.0064 -0.0928 -0.2434 0.003 -0.940 0.341 108 93 62 0 0
-0.0063 -0.0938 -0.2446 0.227 -0.883 0.410 108 93 62 0 0
-0.0079 -0.0973 -0.2891 -0.091 -0.747 0.659 130 117 83 0 0
-0.0078 -0.0982 -0.2903 0.284 -0.808 0.516 132 119 85 0 0
-0.0082 -0.0969 -0.2952 0.721 -0.681 0.129 129 116 82 0 0
-0.0071 -0.1042 -0.2991 0.665 -0.745 0.052 127 112 81 0 0
-0.0092 -0.0971 -0.3147 0.184 -0.983 -0.003 132 117 86 0 0
-0.0093 -0.0971 -0.3163 0.059 -0.995 0.086 132 117 86 0 0
-0.0309 -0.1175 -0.8223 0.640 -0.656 0.400 176 162 116 0 0
-0.0308 -0.1183 -0.8238 0.640 -0.656 0.400 177 163 117 0 0
-0.0090 -0.0650 -0.1655 0.188 -0.900 0.394 76 66 50 0 0
-0.0072 -0.0863 -0.2064 -0.232 -0.965 0.123 60 46 27 0 0
-0.0073 -0.0945 -0.2387 0.551 -0.831 0.074 117 100 67 0 0
-0.0075 -0.0941 -0.2402 0.470 -0.771 0.430 113 97 64 0 0
-0.0060 -0.1044 -0.2493 0.757 -0.418 0.502 114 100 65 0 0
-0.0059 -0.1054 -0.2505 0.522 -0.633 0.572 113 99 63 0 0
-0.0059 -0.1058 -0.2518 0.423 -0.740 0.523 115 101 67 0 0
-0.0058 -0.1067 -0.2530 0.423 -0.740 0.523 117 102 70 0 0
-0.0057 -0.1083 -0.2570 0.133 -0.983 0.123 105 90 59 0 0
-0.0056 -0.1091 -0.2582 0.069 -0.995 0.068 109 94 63 0 0
-0.0057 -0.1092 -0.2596 0.069 -0.995 0.068 115 100 69 0 0
-0.0057 -0.1092 -0.2610 0.267 -0.950 0.163 115 100 69 0 0
-0.0070 -0.1093 -0.2858 0.112 -0.990 0.084 124 111 79 0 0
-0.0071 -0.1096 -0.2901 -0.279 -0.898 0.339 124 111 77 0 0
-0.0083 -0.1055 -0.2987 0.462 -0.875 -0.147 126 111 79 0 0
-0.0100 -0.1025 -0.3207 0.658 -0.737 -0.155 127 112 80 0 0
-0.0103 -0.1018 -0.3240 0.653 -0.754 0.067 127 113 80 0 0
-0.0231 -0.0494 -0.3863 0.567 -0.788 -0.239 73 63 51 0 0
-0.0086 -0.0857 -0.2037 -0.188 -0.976 -0.111 97 83 54 0 0
-0.0087 -0.0856 -0.2051 -0.188 -0.976 -0.111 76 62 36 0 0
-0.0086 -0.0862 -0.2064 -0.222 -0.935 0.276 57 43 25 0 0
-0.0076 -0.0987 -0.2321 0.578 -0.754 0.314 166 149 113 0 0
-0.0077 -0.1015 -0.2428 0.720 -0.318 0.617 112 97 63 0 0
-0.0068 -0.1065 -0.2431 0.294 -0.944 0.150 110 95 62 0 0
-0.0068 -0.1067 -0.2445 0.222 -0.975 0.020 112 97 64 0 0
-0.0070 -0.1068 -0.2487 0.447 -0.799 0.403 109 94 61 0 0
-0.0069 -0.1074 -0.2500 0.447 -0.799 0.403 109 94 62 0 0
-0.0069 -0.1079 -0.2513 0.298 -0.913 0.278 112 97 63 0 0
-0.0070 -0.1081 -0.2527 0.283 -0.876 0.391 114 99 66 0 0
-0.0069 -0.1085 -0.2540 0.290 -0.916 0.276 113 98 65 0 0
-0.0070 -0.1085 -0.2555 0.248 -0.962 0.112 104 89 56 0 0
-0.0071 -0.1087 -0.2569 0.040 -0.995 0.092 99 84 53 0 0
-0.0069 -0.1098 -0.2580 -0.244 -0.967 0.076 103 88 57 0 0
-0.0070 -0.1099 -0.2594 -0.244 -0.967 0.076 111 96 66 0 0
-0.0071 -0.1095 -0.2610 0.080 -0.987 0.140 114 99 69 0 0
-0.0081 -0.1088 -0.2771 0.552 -0.803 -0.226 133 120 89 0 0
-0.0082 -0.1083 -0.2787 0.684 -0.729 -0.038 134 121 87 0 0
-0.0084 -0.1092 -0.2843 0.065 -0.989 0.135 120 106 76 0 0
-0.0082 -0.1107 -0.2869 0.162 -0.987 -0.010 121 108 75 0 0
-0.0083 -0.1105 -0.2884 -0.155 -0.984 0.083 119 106 72 0 0
-0.0084 -0.1106 -0.2898 -0.007 -0.988 0.155 119 106 73 0 0
-0.0094 -0.1059 -0.2926 0.352 -0.921 -0.169 122 109 75 0 0
-0.0090 -0.1093 -0.2961 0.351 -0.926 0.137 127 112 81 0 0
-0.0110 -0.1064 -0.3256 0.770 -0.503 0.392 125 109 80 0 0
-0.0236 -0.0521 -0.3754 0.289 -0.953 0.085 71 59 43 0 0
-0.0237 -0.0522 -0.3770 0.429 -0.898 0.096 65 56 41 0 0
-0.0438 -0.0077 -0.6069 0.432 -0.756 0.491 93 80 62 0 0
-0.0314 -0.1182 -0.7657 0.401 -0.916 -0.003 162 143 104 0 0
-0.0323 -0.1174 -0.7792 0.381 -0.900 0.210 89 70 42 0 0
-0.0363 -0.1216 -0.8731 0.323 -0.108 0.940 175 172 171 0 0
-0.0098 -0.0844 -0.1942 -0.237 -0.893 0.384 49 36 17 0 0
-0.0101 -0.0849 -0.2024 0.375 -0.926 -0.046 101 90 60 0 0
-0.0102 -0.0849 -0.2039 0.375 -0.926 -0.046 99 88 60 0 0
-0.0102 -0.0850 -0.2052 0.040 -0.999 -0.033 80 68 43 0 0
-0.0088 -0.1003 -0.2317 0.243 -0.764 0.598 179 163 128 0 0
-0.0084 -0.1026 -0.2326 0.096 -0.917 0.386 170 152 117 0 0
-0.0082 -0.1086 -0.2497 0.513 -0.794 0.325 111 95 62 0 0
-0.0083 -0.1085 -0.2512 0.402 -0.903 0.152 111 95 62 0 0
-0.0083 -0.1086 -0.2526 0.406 -0.839 0.362 113 97 64 0 0
-0.0085 -0.1092 -0.2582 0.236 -0.972 0.005 102 87 59 0 0
-0.0085 -0.1096 -0.2595 0.533 -0.843 0.078 104 88 62 0 0
-0.0085 -0.1098 -0.2609 0.533 -0.843 0.078 106 91 63 0 0
-0.0092 -0.1101 -0.2753 0.558 -0.829 -0.019 122 109 77 0 0
-0.0095 -0.1095 -0.2784 0.649 -0.755 -0.098 126 112 82 0 0
-0.0096 -0.1116 -0.2881 0.311 -0.947 -0.078 114 99 70 0 0
-0.0096 -0.1119 -0.2895 0.210 -0.973 0.097 111 96 68 0 0
-0.0097 -0.1118 -0.2910 0.150 -0.974 0.170 114 100 71 0 0
-0.0108 -0.1097 -0.3050 0.649 -0.702 0.295 133 119 84 0 0
-0.0106 -0.1116 -0.3074 0.628 -0.650 0.428 132 118 83 0 0
-0.0106 -0.1118 -0.3088 0.562 -0.798 0.217 132 118 83 0 0
-0.0109 -0.1130 -0.3175 0.549 -0.665 0.506 135 121 86 0 0
-0.0125 -0.1059 -0.3227 0.871 -0.328 0.365 133 119 84 0 0
-0.0252 -0.0528 -0.3768 0.429 -0.898 0.096 58 49 36 0 0
-0.0256 -0.0519 -0.3821 0.167 -0.967 -0.193 78 71 58 0 0
-0.0300 -0.0336 -0.4005 -0.444 -0.695 -0.565 87 79 60 0 0
-0.0417 0.0093 -0.4724 0.774 -0.400 0.490 91 79 52 0 0
-0.0415 0.0038 -0.4886 0.525 -0.776 0.350 107 95 72 0 0
-0.0431 0.0063 -0.5104 0.387 -0.912 -0.137 112 97 70 0 0
-0.0433 0.0065 -0.5124 0.440 -0.892 -0.101 121 107 78 0 0
-0.0435 0.0070 -0.5145 0.336 -0.932 -0.134 123 107 77 0 0
-0.0259 -0.1142 -0.6117 0.672 -0.740 -0.020 132 117 96 0 0
-0.0379 -0.1230 -0.8743 0.207 -0.218 0.954 174 173 171 0 0
-0.0187 -0.0325 -0.1505 0.175 -0.696 0.696 179 178 171 0 0
-0.0114 -0.0852 -0.1996 0.041 -0.992 0.118 85 70 44 0 0
-0.0115 -0.0850 -0.2010 -0.066 -0.997 -0.030 93 79 52 0 0
-0.0116 -0.0850 -0.2024 -0.066 -0.997 -0.030 101 90 62 0 0
-0.0104 -0.0991 -0.2305 0.395 -0.584 0.709 210 194 154 0 0
-0.0102 -0.1005 -0.2316 0.106 -0.762 0.639 203 189 154 0 0
-0.0095 -0.1086 -0.2483 0.167 -0.982 0.085 122 106 73 0 0
-0.0095 -0.1093 -0.2510 0.063 -0.984 0.168 118 102 69 0 0
-0.0096 -0.1092 -0.2524 -0.064 -0.908 0.415 114 100 65 0 0
-0.0096 -0.1098 -0.2537 -0.035 -0.978 0.204 106 91 57 0 0
-0.0097 -0.1096 -0.2552 0.002 -0.999 -0.050 111 96 64 0 0
-0.0105 -0.1110 -0.2751 0.558 -0.829 -0.019 116 102 73 0 0
-0.0108 -0.1126 -0.2863 0.558 -0.820 -0.127 101 87 61 0 0
-0.0110 -0.1120 -0.2880 0.311 -0.947 -0.078 95 80 56 0 0
-0.0110 -0.1122 -0.2894 0.210 -0.973 0.097 94 79 56 0 0
-0.0111 -0.1120 -0.2909 0.150 -0.974 0.170 92 78 54 0 0
-0.0271 -0.0530 -0.3834 0.345 -0.903 -0.254 71 62 50 0 0
-0.0427 0.0037 -0.4775 0.092 -0.995 0.025 96 84 60 0 0
-0.0428 0.0036 -0.4793 0.120 -0.983 0.141 103 90 65 0 0
-0.0431 0.0031 -0.4883 0.301 -0.911 0.284 116 104 78 0 0
-0.0431 0.0026 -0.4900 0.301 -0.911 0.284 115 103 76 0 0
-0.0431 0.0020 -0.4916 0.301 -0.911 0.284 100 88 63 0 0
-0.0467 0.0064 -0.5432 0.598 -0.801 0.034 106 94 74 0 0
-0.0346 -0.1189 -0.7612 0.129 -0.985 0.114 156 139 94 0 0
-0.0348 -0.1190 -0.7654 -0.046 -0.998 -0.037 148 133 89 0 0
-0.0356 -0.1180 -0.7769 0.304 -0.929 0.210 76 60 35 0 0
-0.0197 -0.0348 -0.1502 -0.074 -0.980 0.186 178 178 176 0 0
-0.0165 -0.0555 -0.1641 0.153 -0.758 0.634 120 105 74 0 0
-0.0132 -0.0837 -0.2012 -0.253 -0.963 0.092 96 82 53 0 0
-0.0132 -0.0838 -0.2026 -0.253 -0.963 0.092 88 77 48 0 0
-0.0140 -0.0848 -0.2208 0.572 -0.662 0.484 77 68 53 0 0
-0.0113 -0.1022 -0.2327 -0.017 -0.863 0.504 210 195 157 0 0
-0.0112 -0.1033 -0.2339 0.027 -0.888 0.458 214 199 158 0 0
-0.0106 -0.1091 -0.2439 0.292 -0.938 0.189 114 99 67 0 0
-0.0107 -0.1094 -0.2452 0.292 -0.938 0.189 120 105 73 0 0
-0.0109 -0.1088 -0.2482 0.322 -0.874 0.364 126 110 77 0 0
-0.0107 -0.1101 -0.2493 0.535 -0.807 0.250 126 110 77 0 0
-0.0108 -0.1103 -0.2507 0.463 -0.848 0.258 123 108 74 0 0
-0.0109 -0.1099 -0.2522 0.375 -0.788 0.487 119 105 69 0 0
-0.0109 -0.1107 -0.2535 0.319 -0.886 0.336 119 107 70 0 0
-0.0109 -0.1106 -0.2549 0.343 -0.939 -0.002 124 110 76 0 0
-0.0111 -0.1107 -0.2578 0.395 -0.918 -0.037 125 112 78 0 0
-0.0121 -0.1133 -0.2862 -0.042 -0.972 -0.231 69 57 38 0 0
-0.0123 -0.1127 -0.2878 0.280 -0.950 -0.140 64 51 34 0 0
-0.0125 -0.1122 -0.2894 0.047 -0.997 0.065 67 53 38 0 0
-0.0126 -0.1122 -0.2909 -0.004 -0.977 0.213 60 47 31 0 0
-0.0145 -0.1119 -0.3269 0.695 -0.540 0.475 133 118 85 0 0
-0.0145 -0.1127 -0.3282 0.686 -0.568 0.455 133 118 83 0 0
-0.0447 0.0023 -0.4881 0.019 -0.915 0.403 128 116 91 0 0
-0.0447 0.0017 -0.4896 0.185 -0.881 0.435 127 116 88 0 0
-0.0445 0.0001 -0.4908 0.062 -0.975 0.214 134 122 97 0 0
-0.0446 0.0005 -0.4929 0.287 -0.958 -0.024 121 109 85 0 0
-0.0449 0.0010 -0.4950 0.409 -0.912 0.020 119 107 83 0 0
-0.0465 0.0037 -0.5170 0.436 -0.849 0.299 131 115 89 0 0
-0.0466 0.0035 -0.5188 0.252 -0.966 0.051 129 112 88 0 0
-0.0353 -0.1233 -0.7579 0.116 -0.993 0.020 160 143 97 0 0
-0.0371 -0.1228 -0.7904 -0.058 -0.887 0.457 97 84 64 0 0
-0.0211 -0.0353 -0.1501 0.358 -0.855 0.376 178 178 180 0 0
-0.0201 -0.0424 -0.1575 0.123 -0.257 0.959 121 104 77 0 0
-0.0179 -0.0560 -0.1640 0.359 -0.794 0.491 101 86 61 0 0
-0.0147 -0.0838 -0.2026 -0.431 -0.898 0.092 83 71 41 0 0
-0.0121 -0.1079 -0.2399 0.363 -0.884 0.293 170 155 118 0 0
-0.0121 -0.1091 -0.2439 0.254 -0.945 0.207 127 112 80 0 0
-0.0121 -0.1094 -0.2452 0.220 -0.964 0.149 128 114 81 0 0
-0.0121 -0.1096 -0.2466 0.100 -0.981 0.163 125 110 77 0 0
-0.0122 -0.1097 -0.2480 -0.046 -0.920 0.388 126 109 78 0 0
-0.0122 -0.1105 -0.2507 0.224 -0.961 0.162 123 108 73 0 0
-0.0124 -0.1100 -0.2522 0.176 -0.837 0.518 122 109 71 0 0
-0.0123 -0.1108 -0.2535 0.176 -0.837 0.518 123 110 73 0 0
-0.0124 -0.1107 -0.2549 0.504 -0.714 0.486 125 112 76 0 0
-0.0122 -0.1127 -0.2587 0.621 -0.711 0.331 123 110 74 0 0
-0.0122 -0.1132 -0.2600 0.621 -0.711 0.331 121 107 72 0 0
-0.0136 -0.1133 -0.2862 -0.110 -0.965 -0.239 48 37 23 0 0
-0.0140 -0.1122 -0.2909 -0.003 -0.956 0.293 41 30 19 0 0
-0.0139 -0.1130 -0.2921 0.152 -0.855 0.496 44 33 19 0 0
-0.0141 -0.1128 -0.2937 -0.101 -0.803 0.588 48 37 21 0 0
-0.0141 -0.1133 -0.2965 0.304 -0.877 0.373 79 65 41 0 0
-0.0146 -0.1144 -0.3096 0.489 -0.848 -0.205 133 118 84 0 0
-0.0465 0.0022 -0.4881 0.019 -0.915 0.403 103 91 70 0 0
-0.0463 0.0006 -0.4911 0.004 -0.939 0.345 129 117 94 0 0
-0.0464 0.0004 -0.4929 0.216 -0.976 -0.006 117 105 82 0 0
-0.0465 0.0003 -0.4947 0.409 -0.912 0.020 120 108 85 0 0
-0.0467 0.0006 -0.4986 0.660 -0.748 0.074 97 85 62 0 0
-0.0370 -0.1235 -0.7579 0.116 -0.993 0.020 165 149 104 0 0
-0.0371 -0.1236 -0.7600 0.116 -0.993 0.020 152 134 93 0 0
-0.0384 -0.1187 -0.7659 -0.076 -0.997 0.022 139 124 88 0 0
-0.0389 -0.1181 -0.7728 -0.025 -0.999 -0.038 25 15 8 0 0
-0.0401 -0.1383 -0.8680 0.411 -0.301 0.861 177 176 174 0 0
-0.0152 -0.0812 -0.1767 -0.082 -0.968 0.236 115 100 66 0 0
-0.0151 -0.0820 -0.1779 0.116 -0.971 0.211 90 75 46 0 0
-0.0151 -0.0823 -0.1793 0.163 -0.955 0.249 68 53 29 0 0
-0.0152 -0.0827 -0.1806 0.163 -0.955 0.249 61 47 27 0 0
-0.0152 -0.0826 -0.1820 0.039 -0.874 0.484 56 44 28 0 0
-0.0155 -0.0819 -0.1835 -0.097 -0.985 0.144 53 39 24 0 0
-0.0160 -0.0811 -0.1905 0.215 -0.701 0.680 50 40 24 0 0
-0.0160 -0.0821 -0.1931 -0.051 -0.980 0.192 56 41 25 0 0
-0.0160 -0.0822 -0.1945 -0.017 -0.985 0.172 80 65 40 0 0
-0.0162 -0.0825 -0.2000 -0.156 -0.952 0.263 96 83 49 0 0
-0.0163 -0.0830 -0.2027 -0.245 -0.968 -0.052 81 67 40 0 0
-0.0161 -0.0876 -0.2145 0.432 -0.884 0.181 37 27 18 0 0
-0.0168 -0.0859 -0.2220 -0.253 -0.949 0.191 95 86 72 0 0
-0.0142 -0.1014 -0.2300 0.185 -0.944 0.272 166 151 114 0 0
-0.0140 -0.1041 -0.2351 0.066 -0.889 0.453 183 165 125 0 0
-0.0132 -0.1147 -0.2582 0.174 -0.506 0.845 121 107 74 0 0
-0.0135 -0.1140 -0.2598 0.207 -0.950 0.235 119 105 71 0 0
-0.0135 -0.1144 -0.2612 0.207 -0.950 0.235 115 101 66 0 0
-0.0137 -0.1151 -0.2682 0.360 -0.918 0.167 118 104 70 0 0
-0.0137 -0.1153 -0.2696 0.523 -0.807 0.275 117 102 68 0 0
-0.0148 -0.1138 -0.2846 0.220 -0.890 -0.399 41 31 19 0 0
-0.0151 -0.1131 -0.2862 -0.110 -0.965 -0.239 42 33 22 0 0
-0.0156 -0.1135 -0.2979 -0.058 -0.835 0.547 81 70 45 0 0
-0.0157 -0.1138 -0.2993 0.349 -0.832 0.430 119 105 74 0 0
-0.0157 -0.1141 -0.3007 0.333 -0.806 0.489 135 119 87 0 0
-0.0158 -0.1149 -0.3065 0.021 -0.994 -0.105 121 105 74 0 0
-0.0152 -0.1192 -0.3096 0.662 -0.675 0.326 129 114 81 0 0
-0.0151 -0.1200 -0.3109 0.765 -0.600 0.233 130 115 82 0 0
-0.0161 -0.1205 -0.3318 0.836 -0.538 0.107 128 114 82 0 0
-0.0162 -0.1212 -0.3346 0.805 -0.592 0.041 120 107 81 0 0
-0.0166 -0.1196 -0.3367 0.791 -0.582 0.188 110 99 75 0 0
-0.0264 -0.1325 -0.5622 -0.493 -0.870 -0.002 125 110 87 0 0
-0.0275 -0.1279 -0.5666 0.107 -0.962 0.250 127 112 88 0 0
-0.0275 -0.1282 -0.5683 0.015 -0.982 0.187 132 116 92 0 0
-0.0403 -0.1186 -0.7683 0.055 -0.990 -0.132 105 87 56 0 0
-0.0414 -0.1410 -0.8680 0.558 -0.227 0.798 178 177 175 0 0
-0.0238 -0.0369 -0.1512 -0.326 -0.729 0.602 178 178 180 0 0
-0.0171 -0.0787 -0.1757 -0.145 -0.640 0.755 103 87 51 0 0
-0.0167 -0.0810 -0.1767 -0.082 -0.968 0.236 92 78 47 0 0
-0.0167 -0.0815 -0.1780 -0.078 -0.988 0.136 98 85 53 0 0
-0.0166 -0.0824 -0.1792 0.053 -0.929 0.365 87 75 47 0 0
-0.0165 -0.0829 -0.1805 0.053 -0.929 0.365 55 43 21 0 0
-0.0167 -0.0827 -0.1819 0.039 -0.874 0.484 49 36 22 0 0
-0.0169 -0.0821 -0.1834 0.194 -0.947 0.256 49 35 21 0 0
-0.0175 -0.0798 -0.1879 0.352 -0.805 0.478 71 58 35 0 0
-0.0175 -0.0805 -0.1892 0.352 -0.805 0.478 78 65 44 0 0
-0.0174 -0.0820 -0.1931 -0.051 -0.980 0.192 60 44 23 0 0
-0.0176 -0.0821 -0.1973 -0.219 -0.951 0.216 77 62 35 0 0
-0.0177 -0.0823 -0.2001 -0.156 -0.952 0.263 103 90 55 0 0
-0.0177 -0.0827 -0.2014 -0.156 -0.952 0.263 106 93 60 0 0
-0.0181 -0.0832 -0.2097 -0.269 -0.878 0.396 61 51 33 0 0
-0.0180 -0.0877 -0.2244 -0.283 -0.455 0.844 135 119 93 0 0
-0.0148 -0.1084 -0.2384 0.491 -0.753 0.439 193 172 129 0 0
-0.0147 -0.1091 -0.2396 0.488 -0.795 0.361 205 188 138 0 0
-0.0147 -0.1097 -0.2409 0.488 -0.795 0.361 226 211 165 0 0
-0.0146 -0.1105 -0.2421 0.508 -0.712 0.485 173 155 115 0 0
-0.0141 -0.1153 -0.2495 0.135 -0.991 -0.020 140 125 90 0 0
-0.0160 -0.1153 -0.2842 0.438 -0.792 -0.426 32 26 15 0 0
-0.0173 -0.1120 -0.2954 -0.103 -0.878 0.468 43 34 23 0 0
-0.0171 -0.1135 -0.2979 -0.033 -0.877 0.480 62 53 38 0 0
-0.0170 -0.1142 -0.2992 0.242 -0.826 0.510 83 71 49 0 0
-0.0163 -0.1212 -0.3105 0.688 -0.718 0.103 130 115 82 0 0
-0.0163 -0.1217 -0.3119 0.598 -0.726 0.338 130 115 82 0 0
-0.0163 -0.1219 -0.3133 0.455 -0.746 0.487 130 115 83 0 0
-0.0163 -0.1225 -0.3146 0.543 -0.750 0.377 131 117 83 0 0
-0.0162 -0.1235 -0.3158 0.644 -0.670 0.370 134 120 85 0 0
-0.0173 -0.1221 -0.3313 0.797 -0.541 0.269 131 117 83 0 0
-0.0367 -0.0409 -0.3997 0.014 -0.761 -0.648 41 32 18 0 0
-0.0393 -0.0300 -0.4088 0.221 -0.609 -0.762 91 79 62 0 0
-0.0286 -0.1278 -0.5577 0.194 -0.280 0.940 140 125 100 0 0
-0.0285 -0.1301 -0.5636 0.367 -0.929 -0.041 138 121 94 0 0
-0.0287 -0.1300 -0.5655 0.295 -0.953 0.072 142 126 98 0 0
-0.0287 -0.1301 -0.5673 0.400 -0.913 0.084 143 126 98 0 0
-0.0359 -0.1362 -0.7195 0.783 -0.613 0.108 133 118 78 0 0
-0.0360 -0.1363 -0.7215 0.854 -0.509 0.106 153 138 98 0 0
-0.0424 -0.1272 -0.8046 0.225 -0.794 0.565 55 43 27 0 0
-0.0423 -0.1281 -0.8060 0.157 -0.871 0.465 46 34 19 0 0
-0.0248 -0.0411 -0.1576 0.035 -0.206 0.978 178 176 171 0 0
-0.0240 -0.0459 -0.1597 -0.278 -0.413 0.867 165 153 128 0 0
-0.0185 -0.0786 -0.1757 0.264 -0.583 0.769 110 95 60 0 0
-0.0181 -0.0810 -0.1767 -0.110 -0.993 -0.042 65 51 28 0 0
-0.0182 -0.0812 -0.1780 -0.161 -0.981 0.112 76 64 37 0 0
-0.0181 -0.0818 -0.1793 -0.154 -0.978 0.142 80 69 42 0 0
-0.0181 -0.0825 -0.1819 -0.262 -0.845 0.466 48 36 19 0 0
-0.0194 -0.0819 -0.2029 -0.190 -0.973 0.134 86 72 46 0 0
-0.0196 -0.0829 -0.2098 -0.264 -0.895 0.360 73 62 40 0 0
-0.0162 -0.1087 -0.2383 0.251 -0.892 0.375 162 138 106 0 0
-0.0161 -0.1094 -0.2395 0.204 -0.935 0.290 188 168 124 0 0
-0.0161 -0.1098 -0.2409 0.204 -0.935 0.290 200 183 138 0 0
-0.0153 -0.1173 -0.2533 -0.258 -0.904 0.342 142 126 86 0 0
-0.0186 -0.1135 -0.2980 -0.023 -0.929 0.369 50 41 31 0 0
-0.0371 -0.1375 -0.7147 0.755 -0.653 -0.058 149 133 97 0 0
-0.0444 -0.1179 -0.7776 -0.107 -0.924 0.367 94 79 58 0 0
-0.0438 -0.1296 -0.8072 0.042 -0.849 0.527 74 60 44 0 0
-0.0432 -0.1501 -0.8669 0.296 -0.149 0.944 184 184 182 0 0
-0.0428 -0.1522 -0.8672 0.240 -0.113 0.964 188 187 185 0 0
-0.0436 -0.1494 -0.8721 0.612 -0.318 0.724 192 191 189 0 0
-0.0236 -0.0580 -0.1677 -0.025 -0.859 0.511 133 117 85 0 0
-0.0237 -0.0578 -0.1692 -0.119 -0.913 0.391 172 155 116 0 0
-0.0197 -0.0810 -0.1794 -0.210 -0.978 0.009 67 54 30 0 0
-0.0200 -0.0819 -0.1875 -0.111 -0.963 0.247 77 63 39 0 0
-0.0203 -0.0817 -0.1917 0.138 -0.965 0.222 68 53 32 0 0
-0.0212 -0.0819 -0.2085 0.259 -0.966 0.030 83 69 42 0 0
-0.0213 -0.0820 -0.2099 0.119 -0.966 0.230 79 67 44 0 0
-0.0213 -0.0826 -0.2126 -0.236 -0.878 0.417 53 41 27 0 0
-0.0210 -0.0846 -0.2137 -0.068 -0.548 0.834 58 46 31 0 0
-0.0208 -0.0856 -0.2149 -0.138 -0.889 0.436 45 33 20 0 0
-0.0208 -0.0863 -0.2162 -0.130 -0.838 0.530 48 37 24 0 0
-0.0183 -0.1042 -0.2350 -0.054 -0.583 0.810 173 157 115 0 0
-0.0176 -0.1089 -0.2382 -0.011 -0.960 0.278 142 117 91 0 0
-0.0176 -0.1099 -0.2423 -0.075 -0.960 0.269 152 130 85 0 0
-0.0176 -0.1102 -0.2436 -0.000 -0.872 0.490 169 148 103 0 0
-0.0158 -0.1234 -0.2575 0.088 -0.995 0.051 140 124 86 0 0
-0.0158 -0.1245 -0.2600 0.157 -0.950 0.271 118 105 73 0 0
-0.0158 -0.1256 -0.2655 0.263 -0.815 0.517 117 102 69 0 0
-0.0172 -0.1213 -0.2738 0.855 -0.518 0.007 106 94 63 0 0
-0.0172 -0.1214 -0.2752 0.850 -0.527 0.024 97 87 60 0 0
-0.0166 -0.1248 -0.2757 0.737 -0.592 -0.325 76 69 50 0 0
-0.0168 -0.1242 -0.2774 0.737 -0.592 -0.325 42 34 25 0 0
-0.0171 -0.1231 -0.2791 0.745 -0.541 -0.391 23 17 12 0 0
-0.0174 -0.1221 -0.2808 0.713 -0.555 -0.429 22 18 10 0 0
-0.0202 -0.1116 -0.2941 -0.298 -0.716 0.631 30 23 15 0 0
-0.0181 -0.1264 -0.3090 0.356 -0.798 0.487 129 114 83 0 0
-0.0180 -0.1274 -0.3101 0.402 -0.905 0.141 129 114 83 0 0
-0.0187 -0.1281 -0.3249 0.652 -0.757 0.038 136 123 88 0 0
-0.0188 -0.1282 -0.3263 0.493 -0.859 -0.139 137 124 89 0 0
-0.0199 -0.1251 -0.3349 0.650 -0.742 0.165 133 117 85 0 0
-0.0199 -0.1254 -0.3363 0.692 -0.710 0.127 133 118 85 0 0
-0.0199 -0.1257 -0.3377 0.692 -0.710 0.127 132 117 85 0 0
-0.0201 -0.1269 -0.3465 0.634 -0.620 0.462 52 42 29 0 0
-0.0307 -0.1312 -0.5487 0.919 -0.366 0.145 147 134 101 0 0
-0.0385 -0.1395 -0.7154 0.844 -0.535 0.023 137 121 92 0 0
-0.0385 -0.1398 -0.7172 0.857 -0.511 0.070 130 115 88 0 0
-0.0386 -0.1401 -0.7189 0.840 -0.537 0.073 135 120 88 0 0
-0.0462 -0.1178 -0.7779 -0.107 -0.924 0.367 66 53 36 0 0
-0.0454 -0.1240 -0.7837 0.393 -0.875 0.281 65 49 28 0 0
-0.0454 -0.1245 -0.7854 0.393 -0.875 0.281 60 45 25 0 0
-0.0453 -0.1251 -0.7871 0.182 -0.968 0.173 57 42 24 0 0
-0.0451 -0.1281 -0.7934 0.192 -0.846 0.497 74 56 36 0 0
-0.0450 -0.1509 -0.8709 0.656 -0.468 0.592 189 189 187 0 0
-0.0251 -0.0575 -0.1678 -0.102 -0.984 0.143 137 120 86 0 0
-0.0228 -0.0717 -0.1754 -0.189 -0.158 0.969 177 163 129 0 0
-0.0227 -0.0820 -0.2099 0.121 -0.927 0.355 82 70 45 0 0
-0.0227 -0.0825 -0.2112 0.121 -0.927 0.355 66 55 35 0 0
-0.0229 -0.0819 -0.2128 -0.174 -0.893 0.415 53 41 26 0 0
-0.0200 -0.1031 -0.2353 0.013 -0.526 0.850 188 172 130 0 0
-0.0198 -0.1047 -0.2363 -0.052 -0.551 0.833 172 153 117 0 0
-0.0195 -0.1063 -0.2374 0.043 -0.545 0.837 151 131 100 0 0
-0.0171 -0.1242 -0.2573 -0.055 -0.925 0.376 152 135 96 0 0
-0.0171 -0.1243 -0.2587 0.257 -0.869 0.423 137 122 85 0 0
-0.0170 -0.1252 -0.2599 0.273 -0.701 0.659 120 105 71 0 0
-0.0171 -0.1267 -0.2652 0.389 -0.742 0.546 118 103 70 0 0
-0.0169 -0.1278 -0.2663 0.406 -0.871 0.278 116 101 68 0 0
-0.0184 -0.1232 -0.2762 0.685 -0.629 -0.368 77 69 49 0 0
-0.0180 -0.1253 -0.2771 0.853 -0.512 -0.106 39 32 20 0 0
-0.0187 -0.1222 -0.2794 0.955 -0.294 0.050 21 15 9 0 0
-0.0187 -0.1228 -0.2806 0.936 -0.263 0.233 21 16 11 0 0
-0.0186 -0.1236 -0.2819 0.944 -0.314 0.100 20 16 12 0 0
-0.0213 -0.1140 -0.2949 0.628 -0.704 0.331 39 32 22 0 0
-0.0211 -0.1149 -0.2961 0.461 -0.677 0.573 43 36 26 0 0
-0.0205 -0.1190 -0.2993 0.302 -0.264 0.916 64 54 41 0 0
-0.0199 -0.1225 -0.2998 0.511 -0.405 0.758 88 76 59 0 0
-0.0191 -0.1290 -0.3097 0.653 -0.756 0.045 126 111 80 0 0
-0.0192 -0.1290 -0.3111 0.684 -0.723 0.099 126 111 80 0 0
-0.0199 -0.1283 -0.3203 0.599 -0.796 -0.088 134 121 86 0 0
-0.0200 -0.1282 -0.3218 0.490 -0.754 0.437 131 118 83 0 0
-0.0199 -0.1290 -0.3231 0.642 -0.761 0.090 136 123 88 0 0
-0.0199 -0.1292 -0.3245 0.642 -0.761 0.090 137 124 89 0 0
-0.0200 -0.1293 -0.3260 0.652 -0.757 0.038 136 123 88 0 0
-0.0200 -0.1296 -0.3274 0.637 -0.752 0.173 138 125 90 0 0
-0.0202 -0.1302 -0.3332 0.489 -0.859 0.150 134 119 86 0 0
-0.0212 -0.1267 -0.3374 0.623 -0.772 0.125 133 118 85 0 0
-0.0212 -0.1270 -0.3389 0.623 -0.772 0.125 132 117 84 0 0
-0.0212 -0.1274 -0.3402 0.692 -0.710 0.127 128 115 81 0 0
-0.0210 -0.1288 -0.3413 0.800 -0.597 0.055 128 115 83 0 0
-0.0216 -0.1294 -0.3548 0.987 -0.123 -0.101 30 25 19 0 0
-0.0479 -0.1189 -0.7793 -0.077 -0.898 0.433 40 28 14 0 0
-0.0454 -0.1412 -0.8130 0.134 -0.870 0.474 58 42 22 0 0
-0.0455 -0.1414 -0.8150 0.252 -0.896 0.366 80 61 37 0 0
-0.0456 -0.1424 -0.8207 0.279 -0.933 0.229 126 106 70 0 0
-0.0266 -0.0554 -0.1597 -0.049 -0.997 0.063 173 173 168 0 0
-0.0272 -0.0540 -0.1655 0.175 -0.531 0.829 128 111 92 0 0
-0.0270 -0.0555 -0.1667 0.025 -0.741 0.671 106 87 66 0 0
-0.0268 -0.0566 -0.1679 -0.053 -0.975 0.217 134 115 85 0 0
-0.0270 -0.0562 -0.1693 -0.094 -0.994 0.061 168 150 108 0 0
-0.0269 -0.0570 -0.1706 -0.195 -0.971 -0.138 170 153 109 0 0
-0.0270 -0.0567 -0.1721 -0.195 -0.971 -0.138 125 109 78 0 0
-0.0244 -0.0805 -0.2088 -0.195 -0.969 0.149 95 82 49 0 0
-0.0243 -0.0816 -0.2100 -0.229 -0.767 0.600 80 67 41 0 0
-0.0243 -0.0819 -0.2113 -0.233 -0.844 0.483 72 61 39 0 0
-0.0244 -0.0816 -0.2128 -0.174 -0.893 0.415 51 39 23 0 0
-0.0242 -0.0871 -0.2274 -0.083 -0.520 0.850 150 135 105 0 0
-0.0241 -0.0878 -0.2286 0.055 -0.544 0.838 156 140 107 0 0
-0.0185 -0.1243 -0.2573 0.043 -0.962 0.271 159 141 104 0 0
-0.0185 -0.1247 -0.2586 0.257 -0.869 0.423 148 131 90 0 0
-0.0185 -0.1252 -0.2599 0.189 -0.742 0.643 136 119 80 0 0
-0.0184 -0.1265 -0.2638 0.416 -0.533 0.737 119 104 71 0 0
-0.0182 -0.1278 -0.2649 0.407 -0.638 0.654 118 103 70 0 0
-0.0182 -0.1286 -0.2661 0.351 -0.876 0.331 117 102 69 0 0
-0.0188 -0.1278 -0.2749 0.848 -0.502 -0.173 79 69 48 0 0
-0.0190 -0.1272 -0.2766 0.853 -0.512 -0.106 57 48 33 0 0
-0.0192 -0.1268 -0.2781 0.827 -0.561 0.047 28 20 11 0 0
-0.0194 -0.1265 -0.2796 0.812 -0.582 -0.037 24 16 13 0 0
-0.0195 -0.1264 -0.2811 0.831 -0.554 -0.047 22 17 14 0 0
-0.0201 -0.1276 -0.2968 0.689 -0.675 0.263 47 39 29 0 0
-0.0201 -0.1281 -0.2981 0.689 -0.675 0.263 55 46 34 0 0
-0.0197 -0.1311 -0.3017 0.614 -0.598 0.516 99 85 63 0 0
-0.0211 -0.1301 -0.3227 0.712 -0.687 0.149 138 125 90 0 0
-0.0211 -0.1305 -0.3241 0.723 -0.660 0.203 137 124 89 0 0
-0.0211 -0.1309 -0.3255 0.752 -0.652 0.099 136 123 88 0 0
-0.0212 -0.1311 -0.3269 0.731 -0.645 0.224 136 123 88 0 0
-0.0222 -0.1338 -0.3533 0.678 -0.550 0.488 30 23 13 0 0
-0.0471 -0.1414 -0.8130 0.129 -0.896 0.424 60 43 23 0 0
-0.0471 -0.1421 -0.8146 0.129 -0.896 0.424 73 53 31 0 0
-0.0472 -0.1430 -0.8204 0.209 -0.928 0.309 117 97 64 0 0
-0.0472 -0.1436 -0.8221 0.209 -0.928 0.309 113 95 59 0 0
-0.0281 -0.0554 -0.1611 0.042 -0.993 0.114 175 176 172 0 0
-0.0281 -0.0557 -0.1624 -0.007 -0.988 0.154 176 172 167 0 0
-0.0290 -0.0517 -0.1644 0.155 -0.666 0.730 169 162 155 0 0
-0.0287 -0.0539 -0.1655 0.066 -0.572 0.817 163 154 141 0 0
-0.0285 -0.0557 -0.1694 -0.148 -0.985 0.085 172 157 129 0 0
-0.0286 -0.0560 -0.1708 -0.134 -0.990 -0.036 175 157 124 0 0
-0.0285 -0.0566 -0.1721 -0.204 -0.978 0.032 136 120 93 0 0
-0.0247 -0.0816 -0.1917 -0.102 -0.941 0.323 63 49 28 0 0
-0.0248 -0.0815 -0.1931 0.502 -0.852 0.149 65 51 26 0 0
-0.0256 -0.0871 -0.2273 0.058 -0.542 0.838 153 138 109 0 0
-0.0255 -0.0879 -0.2286 0.201 -0.619 0.760 153 137 107 0 0
-0.0204 -0.1202 -0.2512 0.143 -0.745 0.651 173 156 122 0 0
-0.0204 -0.1208 -0.2538 -0.090 -0.775 0.625 175 153 118 0 0
-0.0199 -0.1247 -0.2586 0.329 -0.915 0.235 180 161 119 0 0
-0.0198 -0.1255 -0.2598 0.189 -0.742 0.643 166 148 105 0 0
-0.0202 -0.1287 -0.2761 0.897 -0.426 -0.117 73 62 44 0 0
-0.0203 -0.1283 -0.2777 0.827 -0.561 0.047 53 45 33 0 0
-0.0204 -0.1283 -0.2791 0.671 -0.721 0.175 29 21 14 0 0
-0.0204 -0.1286 -0.2805 0.671 -0.721 0.175 22 15 12 0 0
-0.0216 -0.1275 -0.2969 0.887 -0.240 0.395 33 27 19 0 0
-0.0211 -0.1335 -0.3083 0.469 -0.714 0.520 130 115 83 0 0
-0.0342 -0.1327 -0.5302 -0.279 -0.881 -0.383 121 109 85 0 0
-0.0489 -0.1439 -0.8220 0.209 -0.928 0.309 140 121 84 0 0
-0.0489 -0.1445 -0.8237 0.209 -0.928 0.309 136 117 80 0 0
-0.0488 -0.1454 -0.8251 0.222 -0.872 0.436 104 81 46 0 0
-0.0487 -0.1462 -0.8266 0.307 -0.848 0.432 118 95 59 0 0
-0.0296 -0.0559 -0.1624 0.186 -0.974 0.130 178 177 177 0 0
-0.0305 -0.0520 -0.1643 0.155 -0.666 0.730 179 177 175 0 0
-0.0287 -0.0642 -0.1764 -0.397 -0.249 0.883 143 132 113 0 0
-0.0262 -0.0785 -0.1825 -0.289 -0.811 0.508 69 58 31 0 0
-0.0215 -0.1299 -0.2787 0.802 -0.594 -0.062 57 49 36 0 0
-0.0216 -0.1300 -0.2801 0.789 -0.614 0.017 37 29 21 0 0
-0.0215 -0.1305 -0.2814 0.607 -0.793 -0.049 24 19 12 0 0
-0.0224 -0.1309 -0.2973 0.887 -0.262 0.381 41 32 22 0 0
-0.0219 -0.1380 -0.3128 0.645 -0.495 0.582 138 128 92 0 0
-0.0239 -0.1397 -0.3528 0.491 -0.469 0.735 105 93 70 0 0
-0.0360 -0.1319 -0.5308 -0.165 -0.881 -0.443 126 114 93 0 0
-0.0359 -0.1338 -0.5368 0.466 -0.718 -0.517 142 127 96 0 0
-0.0444 -0.1468 -0.7247 -0.138 -0.936 -0.324 141 124 81 0 0
-0.0447 -0.1458 -0.7275 -0.138 -0.936 -0.324 163 146 100 0 0
-0.0517 -0.1341 -0.8064 0.210 -0.792 0.573 58 43 25 0 0
-0.0506 -0.1448 -0.8235 0.209 -0.928 0.309 142 124 87 0 0
-0.0505 -0.1457 -0.8250 0.222 -0.872 0.436 121 100 64 0 0
-0.0317 -0.0530 -0.1642 0.068 -0.736 0.673 178 178 179 0 0
-0.0314 -0.0565 -0.1706 0.368 -0.919 0.145 178 178 176 0 0
-0.0325 -0.0522 -0.1741 -0.213 -0.390 0.896 164 163 155 0 0
-0.0321 -0.0545 -0.1751 -0.334 -0.245 0.910 156 152 143 0 0
-0.0317 -0.0703 -0.2236 -0.288 -0.943 -0.168 70 58 40 0 0
-0.0227 -0.1317 -0.2811 0.083 -0.988 0.128 60 53 37 0 0
-0.0227 -0.1322 -0.2824 0.147 -0.988 -0.053 49 42 28 0 0
-0.0234 -0.1331 -0.2967 0.887 -0.262 0.381 69 59 43 0 0
-0.0228 -0.1373 -0.3013 0.957 -0.265 0.117 108 94 67 0 0
-0.0231 -0.1369 -0.3043 0.944 -0.331 0.005 119 104 73 0 0
-0.0242 -0.1403 -0.3344 0.781 -0.618 -0.089 129 114 81 0 0
-0.0251 -0.1410 -0.3524 0.668 -0.388 0.635 128 115 82 0 0
-0.0249 -0.1420 -0.3535 0.678 -0.407 0.612 118 105 77 0 0
-0.0563 -0.0215 -0.4691 0.601 -0.651 0.463 68 58 43 0 0
-0.0357 -0.1382 -0.5204 0.912 -0.408 0.049 105 92 72 0 0
-0.0370 -0.1338 -0.5280 0.078 -0.926 -0.369 138 123 95 0 0
-0.0477 -0.1413 -0.7331 0.080 -0.914 -0.398 157 139 98 0 0
-0.0543 -0.1205 -0.7744 -0.007 -0.937 0.348 103 91 70 0 0
-0.0523 -0.1444 -0.8219 0.041 -0.914 0.403 115 94 64 0 0
-0.0523 -0.1450 -0.8235 0.185 -0.926 0.328 126 108 77 0 0
-0.0522 -0.1461 -0.8248 0.222 -0.872 0.436 116 100 68 0 0
-0.0521 -0.1468 -0.8264 0.293 -0.829 0.476 89 73 42 0 0
-0.0520 -0.1476 -0.8279 0.293 -0.829 0.476 74 60 29 0 0
-0.0519 -0.1485 -0.8293 0.228 -0.792 0.566 86 70 44 0 0
-0.0518 -0.1494 -0.8307 0.228 -0.792 0.566 76 57 32 0 0
-0.0516 -0.1507 -0.8318 0.300 -0.794 0.528 74 53 27 0 0
-0.0333 -0.0698 -0.2237 -0.288 -0.943 -0.168 82 69 51 0 0
-0.0263 -0.1425 -0.3534 0.868 -0.404 0.290 133 118 87 0 0
-0.0264 -0.1426 -0.3548 0.555 -0.402 0.728 125 111 84 0 0
-0.0575 -0.0245 -0.4715 0.650 -0.606 0.458 81 69 54 0 0
-0.0550 -0.1353 -0.8057 0.157 -0.913 0.377 75 60 40 0 0
-0.0545 -0.1412 -0.8182 0.109 -0.975 0.193 55 37 19 0 0
-0.0532 -0.1520 -0.8330 0.244 -0.868 0.433 84 65 35 0 0
-0.0258 -0.1224 -0.2520 -0.264 -0.802 0.536 228 212 175 0 0
-0.0257 -0.1232 -0.2533 -0.129 -0.908 0.398 220 205 166 0 0
-0.0252 -0.1268 -0.2580 0.282 -0.898 0.338 183 161 121 0 0
-0.0236 -0.1379 -0.2694 -0.150 -0.776 0.612 116 100 70 0 0
-0.0236 -0.1384 -0.2707 -0.220 -0.746 0.629 119 104 73 0 0
-0.0239 -0.1394 -0.2790 0.381 -0.892 -0.243 109 96 70 0 0
-0.0246 -0.1416 -0.2971 0.345 -0.905 0.251 115 98 71 0 0
-0.0245 -0.1423 -0.2984 0.122 -0.910 0.395 115 100 71 0 0
-0.0244 -0.1430 -0.2996 -0.069 -0.918 0.390 113 98 70 0 0
-0.0245 -0.1432 -0.3010 0.111 -0.948 0.299 112 97 69 0 0
-0.0245 -0.1436 -0.3023 0.128 -0.825 0.551 114 99 69 0 0
-0.0244 -0.1444 -0.3036 0.128 -0.825 0.551 116 101 71 0 0
-0.0244 -0.1445 -0.3050 0.266 -0.963 0.042 121 106 77 0 0
-0.0249 -0.1450 -0.3136 0.721 -0.644 0.257 124 110 81 0 0
-0.0252 -0.1441 -0.3154 0.569 -0.820 0.051 122 109 79 0 0
-0.0258 -0.1433 -0.3230 0.877 -0.467 0.108 116 102 72 0 0
-0.0275 -0.1432 -0.3516 0.880 -0.475 -0.025 145 129 95 0 0
-0.0283 -0.1428 -0.3625 0.417 -0.887 0.201 100 89 68 0 0
-0.0582 -0.0302 -0.4745 0.191 -0.745 0.639 101 86 68 0 0
-0.0583 -0.0301 -0.4764 0.442 -0.853 0.279 103 88 69 0 0
-0.0583 -0.0306 -0.4780 0.497 -0.856 0.141 94 80 57 0 0
-0.0501 -0.1442 -0.7270 0.007 -0.920 -0.391 156 137 95 0 0
-0.0511 -0.1412 -0.7334 0.041 -0.911 -0.411 139 121 81 0 0
-0.0566 -0.1334 -0.7966 0.178 -0.916 0.359 65 53 35 0 0
-0.0565 -0.1341 -0.7982 0.185 -0.880 0.438 85 73 52 0 0
-0.0567 -0.1356 -0.8057 0.157 -0.913 0.377 72 58 33 0 0
-0.0560 -0.1410 -0.8120 0.244 -0.921 0.303 71 55 35 0 0
-0.0561 -0.1426 -0.8194 0.244 -0.911 0.334 62 41 27 0 0
-0.0561 -0.1431 -0.8212 0.245 -0.951 0.190 61 40 20 0 0
-0.0561 -0.1435 -0.8230 0.245 -0.951 0.190 81 64 39 0 0
-0.0549 -0.1525 -0.8328 0.011 -0.890 0.455 97 78 49 0 0
-0.0549 -0.1531 -0.8345 0.078 -0.939 0.336 90 70 43 0 0
-0.0547 -0.1547 -0.8375 0.252 -0.910 0.328 102 83 51 0 0
-0.0547 -0.1559 -0.8409 0.407 -0.841 0.357 95 74 38 0 0
-0.0333 -0.0712 -0.1794 0.465 -0.883 0.061 175 174 171 0 0
-0.0334 -0.0714 -0.1808 0.465 -0.883 0.061 171 170 165 0 0
-0.0348 -0.0662 -0.1873 -0.273 -0.956 -0.107 137 132 120 0 0
-0.0340 -0.0716 -0.1920 -0.441 -0.888 0.132 110 102 87 0 0
-0.0341 -0.0717 -0.1933 -0.441 -0.888 0.132 109 101 86 0 0
-0.0341 -0.0718 -0.1947 -0.499 -0.856 0.133 106 96 81 0 0
-0.0267 -0.1267 -0.2581 0.303 -0.716 0.629 183 162 122 0 0
-0.0250 -0.1380 -0.2694 0.319 -0.879 0.354 123 108 81 0 0
-0.0250 -0.1385 -0.2706 0.319 -0.879 0.354 119 104 75 0 0
-0.0250 -0.1390 -0.2719 0.319 -0.879 0.354 117 102 73 0 0
-0.0252 -0.1402 -0.2788 0.044 -0.968 0.246 116 102 72 0 0
-0.0252 -0.1405 -0.2801 0.192 -0.973 -0.128 115 102 72 0 0
-0.0252 -0.1410 -0.2814 0.594 -0.758 -0.271 115 102 71 0 0
-0.0252 -0.1431 -0.2894 0.901 -0.421 0.108 118 106 77 0 0
-0.0255 -0.1429 -0.2938 0.570 -0.639 0.517 116 102 73 0 0
-0.0258 -0.1423 -0.2955 0.286 -0.880 0.380 118 103 74 0 0
-0.0257 -0.1427 -0.2968 0.302 -0.928 0.217 123 108 79 0 0
-0.0259 -0.1424 -0.2983 0.122 -0.910 0.395 124 109 79 0 0
-0.0259 -0.1429 -0.2996 0.094 -0.877 0.470 121 106 75 0 0
-0.0258 -0.1436 -0.3009 0.094 -0.877 0.470 115 100 69 0 0
-0.0258 -0.1446 -0.3035 0.218 -0.905 0.366 115 100 70 0 0
-0.0259 -0.1448 -0.3063 0.593 -0.755 0.278 124 109 78 0 0
-0.0259 -0.1454 -0.3076 0.560 -0.707 0.432 129 115 84 0 0
-0.0260 -0.1451 -0.3092 0.570 -0.759 0.315 126 112 83 0 0
-0.0261 -0.1461 -0.3133 0.675 -0.683 0.279 123 109 80 0 0
-0.0379 -0.1447 -0.5015 0.954 -0.294 -0.066 88 78 64 0 0
-0.0414 -0.1506 -0.5780 0.450 -0.893 0.024 123 106 70 0 0
-0.0415 -0.1507 -0.5797 0.450 -0.893 0.024 113 97 64 0 0
-0.0529 -0.1412 -0.7336 0.041 -0.911 -0.411 133 115 75 0 0
-0.0599 -0.1190 -0.7738 0.078 -0.997 -0.024 68 60 41 0 0
-0.0600 -0.1192 -0.7758 -0.036 -0.933 0.358 44 35 20 0 0
-0.0599 -0.1200 -0.7773 -0.056 -0.872 0.487 26 16 7 0 0
-0.0599 -0.1209 -0.7788 -0.056 -0.872 0.487 48 37 29 0 0
-0.0582 -0.1335 -0.7945 0.100 -0.968 0.231 68 52 35 0 0
-0.0581 -0.1348 -0.7978 0.001 -0.906 0.423 94 81 61 0 0
-0.0584 -0.1358 -0.8056 0.157 -0.913 0.377 84 70 47 0 0
-0.0576 -0.1414 -0.8119 0.305 -0.866 0.397 74 61 38 0 0
-0.0564 -0.1551 -0.8373 0.186 -0.902 0.389 96 78 47 0 0
-0.0562 -0.1663 -0.8717 0.326 -0.884 0.334 197 197 198 0 0
-0.0348 -0.0719 -0.1821 0.446 -0.895 -0.006 176 177 176 0 0
-0.0364 -0.0657 -0.1873 -0.079 -0.992 -0.096 169 169 165 0 0
-0.0356 -0.0706 -0.1907 -0.441 -0.888 0.132 158 154 151 0 0
-0.0356 -0.0708 -0.1921 -0.419 -0.897 0.140 158 155 151 0 0
-0.0357 -0.0709 -0.1935 -0.441 -0.888 0.132 157 154 150 0 0
-0.0358 -0.0711 -0.1948 -0.441 -0.888 0.132 155 151 147 0 0
-0.0362 -0.0706 -0.2006 -0.166 -0.984 -0.059 151 147 140 0 0
-0.0363 -0.0707 -0.2020 0.075 -0.974 -0.216 148 143 138 0 0
-0.0262 -0.1417 -0.2769 0.662 -0.652 0.369 118 105 74 0 0
-0.0264 -0.1412 -0.2785 0.687 -0.724 0.068 121 108 76 0 0
-0.0264 -0.1415 -0.2798 0.547 -0.830 -0.104 122 109 76 0 0
-0.0264 -0.1419 -0.2811 0.378 -0.899 -0.221 122 109 75 0 0
-0.0263 -0.1426 -0.2824 0.458 -0.880 -0.125 120 107 73 0 0
-0.0262 -0.1446 -0.2876 0.866 -0.489 0.105 113 98 70 0 0
-0.0262 -0.1450 -0.2889 0.866 -0.489 0.105 117 102 73 0 0
-0.0263 -0.1449 -0.2904 0.832 -0.494 0.252 119 105 74 0 0
-0.0268 -0.1437 -0.2936 0.565 -0.686 0.460 119 104 73 0 0
-0.0271 -0.1428 -0.2953 0.342 -0.904 0.255 121 106 75 0 0
-0.0271 -0.1431 -0.2967 0.342 -0.904 0.255 124 109 78 0 0
-0.0273 -0.1427 -0.2983 0.025 -0.916 0.400 126 111 79 0 0
-0.0273 -0.1432 -0.2996 0.114 -0.904 0.412 123 108 76 0 0
-0.0272 -0.1437 -0.3009 0.159 -0.909 0.386 118 103 71 0 0
-0.0272 -0.1444 -0.3021 0.218 -0.905 0.366 116 101 68 0 0
-0.0271 -0.1449 -0.3034 0.218 -0.905 0.366 117 102 70 0 0
-0.0303 -0.1476 -0.3638 0.675 -0.491 0.551 118 103 78 0 0
-0.0307 -0.1463 -0.3658 0.117 -0.570 0.813 118 104 77 0 0
-0.0306 -0.1472 -0.3670 -0.150 -0.474 0.868 119 106 78 0 0
