ply
format ascii 1.0
element vertex 856
property float x
property float y
property float z
property float nx
property float ny
property float nz
property uchar diffuse_red
property uchar diffuse_green
property uchar diffuse_blue
property uchar class
property uchar detection
end_header
-0.1503 0.0345 -0.3477 -0.930 0.335 -0.150 77 66 47 0 0
-0.1472 0.0321 -0.3571 -0.821 0.505 0.267 18 11 8 0 0
-0.1534 0.0380 -0.3746 -0.719 0.485 0.498 107 92 63 0 0
-0.1540 0.0386 -0.3758 -0.720 0.515 0.466 126 111 78 0 0
-0.1566 0.0409 -0.3809 -0.813 0.352 0.463 84 67 41 0 0
-0.1599 0.0440 -0.3887 -0.608 0.563 0.559 101 84 58 0 0
-0.1675 0.0510 -0.4069 -0.580 0.612 0.538 83 65 40 0 0
-0.1699 0.0531 -0.4088 -0.857 0.237 0.458 87 66 41 0 0
-0.1721 0.0552 -0.4155 -0.731 0.464 0.500 114 98 72 0 0
-0.1733 0.0564 -0.4180 -0.701 0.542 0.463 107 90 64 0 0
-0.1735 0.0565 -0.4196 -0.599 0.595 0.536 103 86 58 0 0
-0.1753 0.0581 -0.4217 -0.604 0.467 0.646 103 86 57 0 0
-0.1767 0.0594 -0.4241 -0.747 0.365 0.555 111 94 66 0 0
-0.1784 0.0610 -0.4279 -0.731 0.383 0.564 120 104 79 0 0
-0.1789 0.0614 -0.4293 -0.793 0.445 0.416 95 78 53 0 0
-0.1795 0.0620 -0.4321 -0.846 0.302 0.439 56 39 17 0 0
-0.1818 0.0646 -0.4502 -0.480 0.877 0.022 55 49 40 0 0
-0.1815 0.0644 -0.4521 -0.358 0.914 0.190 59 52 44 0 0
-0.1817 0.0646 -0.4536 -0.358 0.914 0.190 17 11 5 0 0
-0.1679 0.0573 -0.6072 -0.884 0.453 0.116 77 68 51 0 0
-0.1679 0.0573 -0.6090 -0.871 0.492 0.008 68 60 46 0 0
-0.1667 0.0567 -0.6193 -0.736 0.591 -0.329 71 63 47 0 0
-0.1549 0.0473 -0.6467 -0.666 0.686 -0.293 28 25 21 0 0
-0.1655 0.0577 -0.6895 -0.861 0.507 0.052 35 30 27 0 0
-0.1662 0.0586 -0.6987 -0.746 0.520 0.417 26 22 19 0 0
-0.1667 0.0592 -0.7041 -0.779 0.339 0.527 40 33 29 0 0
-0.1767 0.0679 -0.7082 -0.287 0.576 0.765 51 42 36 0 0
-0.1777 0.0687 -0.7092 -0.382 0.646 0.662 64 55 44 0 0
-0.1785 0.0694 -0.7104 -0.382 0.646 0.662 93 84 68 0 0
-0.1815 0.0731 -0.7452 -0.918 0.375 -0.131 80 68 49 0 0
-0.1810 0.0727 -0.7478 -0.968 0.193 0.160 83 73 53 0 0
-0.1768 0.0707 -0.8040 -0.655 0.678 0.334 80 65 44 0 0
-0.0252 -0.0758 -0.1756 -0.900 -0.069 0.431 151 146 136 0 0
-0.0259 -0.0751 -0.1771 -0.949 -0.048 0.313 126 116 99 0 0
-0.0264 -0.0746 -0.1785 -0.949 -0.048 0.313 131 119 96 0 0
-0.1028 -0.0067 -0.2627 -0.860 0.298 0.413 68 56 40 0 0
-0.1184 0.0070 -0.2756 -0.686 0.553 0.473 129 120 104 0 0
-0.1189 0.0074 -0.2770 -0.700 0.408 0.587 86 77 62 0 0
-0.1196 0.0081 -0.2782 -0.700 0.408 0.587 98 89 78 0 0
-0.1203 0.0087 -0.2795 -0.700 0.408 0.587 123 114 105 0 0
-0.1223 0.0105 -0.2834 -0.625 0.605 0.493 96 88 73 0 0
-0.1331 0.0202 -0.2975 -0.844 0.512 0.158 111 98 82 0 0
-0.1336 0.0208 -0.3004 -0.736 0.530 0.421 76 61 47 0 0
-0.1347 0.0217 -0.3014 -0.549 0.732 0.404 156 136 113 0 0
-0.1393 0.0258 -0.3072 -0.622 0.547 0.561 139 120 81 0 0
-0.1452 0.0311 -0.3170 -0.722 0.522 0.453 115 103 79 0 0
-0.1457 0.0316 -0.3183 -0.722 0.522 0.453 85 72 53 0 0
-0.1497 0.0357 -0.3397 -0.803 0.574 0.158 53 36 16 0 0
-0.1499 0.0359 -0.3412 -0.747 0.640 0.181 58 40 20 0 0
-0.1501 0.0361 -0.3426 -0.747 0.640 0.181 66 48 25 0 0
-0.1500 0.0361 -0.3458 -0.766 0.640 0.053 106 92 66 0 0
-0.1498 0.0360 -0.3475 -0.961 0.270 -0.063 79 67 50 0 0
-0.1464 0.0334 -0.3570 -0.821 0.505 0.267 21 14 8 0 0
-0.1536 0.0401 -0.3756 -0.783 0.360 0.507 115 96 65 0 0
-0.1590 0.0451 -0.3886 -0.751 0.446 0.487 88 71 46 0 0
-0.1604 0.0464 -0.3910 -0.559 0.253 0.789 71 47 25 0 0
-0.1707 0.0559 -0.4141 -0.729 0.299 0.616 81 65 42 0 0
-0.1715 0.0567 -0.4169 -0.612 0.718 0.331 77 61 35 0 0
-0.1719 0.0570 -0.4183 -0.612 0.718 0.331 103 85 59 0 0
-0.1725 0.0576 -0.4196 -0.599 0.595 0.536 96 78 52 0 0
-0.1764 0.0611 -0.4253 -0.723 0.413 0.553 91 76 45 0 0
-0.1768 0.0615 -0.4267 -0.837 0.451 0.311 90 76 47 0 0
-0.1776 0.0623 -0.4278 -0.818 0.435 0.377 102 88 61 0 0
-0.1802 0.0647 -0.4376 -0.777 0.497 0.385 78 63 44 0 0
-0.1806 0.0653 -0.4422 -0.604 0.769 0.209 43 32 20 0 0
-0.1804 0.0653 -0.4505 -0.480 0.877 0.022 38 31 24 0 0
-0.1800 0.0650 -0.4524 -0.358 0.914 0.190 61 54 44 0 0
-0.1800 0.0652 -0.4557 -0.672 0.737 -0.075 54 47 39 0 0
-0.1807 0.0658 -0.4568 -0.562 0.794 0.231 36 27 20 0 0
-0.1668 0.0584 -0.6053 -0.729 0.684 -0.030 60 54 37 0 0
-0.1660 0.0578 -0.6078 -0.913 0.389 0.122 76 68 49 0 0
-0.1657 0.0576 -0.6099 -0.900 0.216 0.379 85 74 57 0 0
-0.1662 0.0581 -0.6114 -0.900 0.216 0.379 58 46 32 0 0
-0.1663 0.0582 -0.6132 -0.821 0.557 0.125 66 53 43 0 0
-0.1669 0.0588 -0.6145 -0.921 0.386 0.046 69 59 47 0 0
-0.1603 0.0536 -0.6296 -0.495 0.710 -0.502 89 82 66 0 0
-0.1641 0.0586 -0.6879 -0.850 0.479 0.218 41 34 31 0 0
-0.1640 0.0586 -0.6899 -0.830 0.365 0.421 42 34 31 0 0
-0.1645 0.0591 -0.6914 -0.881 0.248 0.403 47 40 36 0 0
-0.1671 0.0617 -0.7067 -0.616 0.339 0.711 45 38 32 0 0
-0.1789 0.0721 -0.7128 -0.580 0.742 0.335 106 94 77 0 0
-0.1801 0.0731 -0.7136 -0.494 0.540 0.681 121 109 87 0 0
-0.1845 0.0771 -0.7210 -0.892 0.248 0.377 88 77 53 0 0
-0.1809 0.0747 -0.7447 -0.918 0.375 -0.131 73 61 42 0 0
-0.1747 0.0712 -0.8029 -0.729 0.549 0.409 73 58 39 0 0
-0.1825 0.0788 -0.8342 -0.797 0.604 -0.003 109 99 68 0 0
-0.0248 -0.0740 -0.1739 -0.774 0.630 0.056 166 161 149 0 0
-0.1189 0.0095 -0.2781 -0.563 0.618 0.548 64 55 43 0 0
-0.1206 0.0110 -0.2821 -0.709 0.472 0.523 71 60 50 0 0
-0.1212 0.0115 -0.2834 -0.709 0.472 0.523 73 63 51 0 0
-0.1443 0.0323 -0.3169 -0.722 0.522 0.453 72 58 38 0 0
-0.1448 0.0328 -0.3183 -0.722 0.522 0.453 90 76 57 0 0
-0.1452 0.0332 -0.3196 -0.699 0.468 0.540 76 60 41 0 0
-0.1459 0.0338 -0.3208 -0.736 0.537 0.412 77 59 34 0 0
-0.1487 0.0369 -0.3428 -0.632 0.761 0.146 84 69 40 0 0
-0.1479 0.0363 -0.3479 -0.640 0.744 -0.192 57 46 34 0 0
-0.1456 0.0347 -0.3569 -0.821 0.505 0.267 25 18 12 0 0
-0.1574 0.0457 -0.3890 -0.718 0.631 0.293 76 55 33 0 0
-0.1618 0.0501 -0.4058 -0.693 0.468 0.548 94 76 54 0 0
-0.1672 0.0547 -0.4075 -0.596 0.534 0.600 69 54 31 0 0
-0.1677 0.0551 -0.4089 -0.669 0.537 0.514 80 64 42 0 0
-0.1696 0.0568 -0.4126 -0.881 0.413 0.232 61 44 23 0 0
-0.1705 0.0577 -0.4153 -0.834 0.449 0.321 84 64 39 0 0
-0.1701 0.0574 -0.4171 -0.763 0.619 0.187 82 61 36 0 0
-0.1714 0.0587 -0.4196 -0.619 0.597 0.510 80 58 31 0 0
-0.1772 0.0640 -0.4306 -0.746 0.580 0.328 63 47 22 0 0
-0.1792 0.0660 -0.4408 -0.575 0.733 0.362 51 38 23 0 0
-0.1790 0.0661 -0.4491 -0.663 0.748 0.039 24 16 12 0 0
-0.1791 0.0662 -0.4507 -0.629 0.766 0.132 31 23 16 0 0
-0.1793 0.0664 -0.4522 -0.629 0.766 0.132 62 55 45 0 0
-0.1791 0.0663 -0.4540 -0.687 0.585 0.432 64 57 49 0 0
-0.1798 0.0669 -0.4568 -0.745 0.592 0.309 31 23 16 0 0
-0.1653 0.0555 -0.4848 -0.207 0.629 -0.749 20 16 15 0 0
-0.1655 0.0593 -0.6018 -0.903 0.427 -0.034 88 79 66 0 0
-0.1654 0.0593 -0.6056 -0.903 0.427 -0.034 63 55 40 0 0
-0.1654 0.0593 -0.6075 -0.913 0.389 0.122 82 74 55 0 0
-0.1648 0.0590 -0.6098 -0.858 0.471 0.204 88 77 58 0 0
-0.1668 0.0607 -0.6099 -0.418 0.873 0.250 70 59 41 0 0
-0.1660 0.0601 -0.6125 -0.586 0.789 0.187 68 59 44 0 0
-0.1651 0.0593 -0.6152 -0.213 0.967 -0.142 71 63 47 0 0
-0.1624 0.0587 -0.6689 -0.557 0.694 0.456 28 20 12 0 0
-0.1630 0.0595 -0.6761 -0.563 0.641 0.521 36 25 19 0 0
-0.1653 0.0623 -0.7034 -0.789 0.476 0.388 33 25 20 0 0
-0.1656 0.0626 -0.7051 -0.746 0.304 0.592 39 31 28 0 0
-0.1773 0.0728 -0.7113 -0.518 0.640 0.567 73 61 47 0 0
-0.1779 0.0733 -0.7127 -0.564 0.658 0.498 68 56 37 0 0
-0.1840 0.0789 -0.7264 -0.676 0.697 0.238 80 69 47 0 0
-0.1842 0.0792 -0.7281 -0.676 0.697 0.238 95 84 64 0 0
-0.1841 0.0791 -0.7303 -0.691 0.723 -0.009 82 71 51 0 0
-0.1840 0.0791 -0.7323 -0.545 0.838 0.027 84 73 53 0 0
-0.1798 0.0759 -0.7447 -0.980 0.160 0.118 75 64 44 0 0
-0.1731 0.0720 -0.8013 -0.754 0.579 0.311 75 59 43 0 0
-0.1735 0.0724 -0.8030 -0.754 0.579 0.311 69 53 37 0 0
-0.1823 0.0804 -0.8183 -0.641 0.623 0.448 104 97 63 0 0
-0.1821 0.0805 -0.8291 -0.834 0.528 0.159 146 130 91 0 0
-0.1818 0.0803 -0.8316 -0.705 0.709 -0.017 127 115 77 0 0
-0.1816 0.0803 -0.8339 -0.736 0.671 -0.086 102 92 61 0 0
-0.1822 0.0808 -0.8354 -0.783 0.600 0.165 95 84 59 0 0
-0.1820 0.0807 -0.8378 -0.670 0.635 0.385 74 63 44 0 0
-0.1827 0.0815 -0.8412 -0.705 0.495 0.509 69 58 33 0 0
-0.0238 -0.0728 -0.1738 -0.774 0.630 0.056 169 160 144 0 0
-0.1007 -0.0047 -0.2565 -0.770 0.522 0.366 56 46 39 0 0
-0.1256 0.0175 -0.2889 -0.819 0.446 0.361 97 89 74 0 0
-0.1259 0.0178 -0.2903 -0.820 0.507 0.266 100 92 77 0 0
-0.1262 0.0180 -0.2917 -0.820 0.507 0.266 101 91 79 0 0
-0.1292 0.0207 -0.2951 -0.813 0.236 0.533 82 72 56 0 0
-0.1370 0.0277 -0.3058 -0.579 0.535 0.615 176 156 125 0 0
-0.1428 0.0329 -0.3156 -0.747 0.481 0.459 65 52 31 0 0
-0.1434 0.0335 -0.3169 -0.722 0.522 0.453 53 41 28 0 0
-0.1475 0.0378 -0.3444 -0.588 0.807 0.057 95 83 61 0 0
-0.1475 0.0379 -0.3460 -0.588 0.807 0.057 76 66 50 0 0
-0.1467 0.0373 -0.3479 -0.723 0.653 -0.226 43 34 24 0 0
-0.1632 0.0531 -0.4028 -0.489 0.684 0.541 63 46 27 0 0
-0.1638 0.0536 -0.4041 -0.489 0.684 0.541 58 41 22 0 0
-0.1647 0.0544 -0.4052 -0.638 0.520 0.568 59 42 23 0 0
-0.1654 0.0550 -0.4064 -0.638 0.520 0.568 56 40 21 0 0
-0.1695 0.0588 -0.4153 -0.795 0.465 0.389 80 58 33 0 0
-0.1712 0.0606 -0.4240 -0.569 0.790 0.230 96 77 45 0 0
-0.1779 0.0668 -0.4410 -0.630 0.647 0.430 45 31 19 0 0
-0.1641 0.0602 -0.6040 -0.877 0.451 -0.167 56 48 32 0 0
-0.1639 0.0602 -0.6078 -0.511 0.537 0.671 79 69 53 0 0
-0.1647 0.0610 -0.6090 -0.443 0.896 -0.024 98 87 67 0 0
-0.1643 0.0607 -0.6130 -0.328 0.936 -0.124 90 82 67 0 0
-0.1632 0.0599 -0.6158 -0.357 0.887 -0.292 66 58 43 0 0
-0.1523 0.0513 -0.6384 -0.307 0.836 -0.455 38 29 20 0 0
-0.1622 0.0614 -0.6896 -0.881 0.250 0.401 15 13 9 0 0
-0.1626 0.0618 -0.6911 -0.913 0.196 0.357 13 11 7 0 0
-0.1638 0.0631 -0.7018 -0.772 0.516 0.370 22 15 12 0 0
-0.1648 0.0640 -0.7028 -0.865 0.372 0.335 32 25 17 0 0
-0.1661 0.0652 -0.7055 -0.825 0.297 0.481 59 50 43 0 0
-0.1762 0.0741 -0.7133 -0.515 0.736 0.440 72 60 42 0 0
-0.1816 0.0788 -0.7178 -0.644 0.525 0.556 116 101 76 0 0
-0.1837 0.0808 -0.7255 -0.843 0.454 0.288 82 69 49 0 0
-0.1788 0.0773 -0.7446 -0.811 0.564 -0.156 74 63 45 0 0
-0.1814 0.0818 -0.8180 -0.697 0.668 0.259 111 103 65 0 0
-0.1815 0.0823 -0.8285 -0.828 0.548 -0.115 141 125 86 0 0
-0.1807 0.0816 -0.8316 -0.736 0.671 -0.086 119 107 69 0 0
-0.1805 0.0815 -0.8340 -0.736 0.671 -0.086 106 96 65 0 0
-0.1812 0.0822 -0.8353 -0.674 0.728 0.129 99 89 64 0 0
-0.1809 0.0820 -0.8378 -0.670 0.635 0.385 72 61 42 0 0
-0.1812 0.0823 -0.8395 -0.615 0.630 0.473 72 60 40 0 0
-0.1818 0.0829 -0.8410 -0.615 0.630 0.473 81 69 43 0 0
-0.0221 -0.0722 -0.1739 -0.628 -0.260 0.733 164 154 134 0 0
-0.0296 -0.0656 -0.1817 -0.658 0.516 0.549 91 76 48 0 0
-0.0345 -0.0603 -0.2135 -0.995 -0.058 0.078 105 91 64 0 0
-0.0343 -0.0605 -0.2152 -0.963 -0.107 0.246 95 82 59 0 0
-0.0346 -0.0602 -0.2167 -0.983 -0.100 0.155 79 68 48 0 0
-0.0760 -0.0240 -0.2472 -0.944 -0.166 -0.287 75 65 53 0 0
-0.0763 -0.0237 -0.2487 -0.983 0.086 -0.163 74 66 55 0 0
-0.0753 -0.0245 -0.2506 -0.984 0.041 0.171 42 36 26 0 0
-0.0997 -0.0036 -0.2565 -0.635 0.688 0.350 41 32 21 0 0
-0.0986 -0.0043 -0.2646 -0.980 0.193 0.055 151 136 106 0 0
-0.1360 0.0288 -0.3058 -0.579 0.535 0.615 150 134 99 0 0
-0.1462 0.0387 -0.3445 -0.588 0.807 0.057 71 61 45 0 0
-0.1463 0.0388 -0.3461 -0.588 0.807 0.057 48 39 28 0 0
-0.1456 0.0383 -0.3480 -0.640 0.744 -0.192 32 25 16 0 0
-0.1518 0.0446 -0.3780 -0.601 0.419 0.681 81 57 31 0 0
-0.1556 0.0481 -0.3872 -0.742 0.450 0.498 72 49 28 0 0
-0.1557 0.0482 -0.3887 -0.739 0.442 0.508 65 45 26 0 0
-0.1563 0.0488 -0.3900 -0.739 0.442 0.508 65 45 27 0 0
-0.1574 0.0497 -0.3926 -0.680 0.562 0.472 81 65 46 0 0
-0.1590 0.0513 -0.3965 -0.556 0.778 0.294 73 57 37 0 0
-0.1598 0.0520 -0.3977 -0.515 0.686 0.513 79 63 44 0 0
-0.1603 0.0525 -0.3990 -0.584 0.696 0.418 69 52 34 0 0
-0.1620 0.0540 -0.4029 -0.700 0.528 0.482 55 39 22 0 0
-0.1663 0.0580 -0.4149 -0.548 0.746 0.378 84 67 42 0 0
-0.1678 0.0594 -0.4173 -0.527 0.734 0.429 74 55 26 0 0
-0.1684 0.0600 -0.4202 -0.612 0.613 0.500 89 69 36 0 0
-0.1689 0.0605 -0.4215 -0.612 0.613 0.500 110 91 59 0 0
-0.1695 0.0610 -0.4228 -0.612 0.613 0.500 80 61 28 0 0
-0.1705 0.0620 -0.4270 -0.594 0.702 0.393 92 70 40 0 0
-0.1755 0.0666 -0.4370 -0.798 0.531 0.285 64 49 31 0 0
-0.1758 0.0669 -0.4384 -0.828 0.528 0.192 55 39 22 0 0
-0.1491 0.0475 -0.5384 -0.838 0.419 0.349 22 18 17 0 0
-0.1501 0.0484 -0.5413 -0.591 0.685 0.426 31 27 26 0 0
-0.1507 0.0490 -0.5426 -0.642 0.649 0.409 33 28 27 0 0
-0.1639 0.0619 -0.5977 -0.792 0.597 -0.125 43 34 23 0 0
-0.1639 0.0621 -0.6032 -0.578 0.804 -0.137 60 50 34 0 0
-0.1626 0.0612 -0.6080 -0.102 0.961 0.258 82 70 54 0 0
-0.1449 0.0478 -0.6555 -0.506 0.800 0.322 16 11 8 0 0
-0.1594 0.0605 -0.6696 -0.848 0.449 0.281 56 46 32 0 0
-0.1619 0.0633 -0.6888 -0.920 0.240 0.309 23 20 16 0 0
-0.1623 0.0637 -0.6904 -0.909 0.189 0.372 36 33 29 0 0
-0.1632 0.0646 -0.6954 -0.919 0.242 0.312 21 17 14 0 0
-0.1640 0.0655 -0.7025 -0.865 0.372 0.335 39 32 25 0 0
-0.1750 0.0751 -0.7115 -0.520 0.604 0.603 92 80 65 0 0
-0.1828 0.0822 -0.7253 -0.641 0.656 0.399 81 67 47 0 0
-0.1788 0.0793 -0.7415 -0.780 0.541 -0.314 74 62 44 0 0
-0.1643 0.0678 -0.7669 -0.839 0.232 -0.492 44 36 26 0 0
-0.1622 0.0662 -0.7712 -0.601 0.789 -0.128 54 45 32 0 0
-0.1616 0.0657 -0.7739 -0.862 0.392 0.322 72 59 43 0 0
-0.1703 0.0738 -0.7936 -0.871 0.462 0.165 35 24 14 0 0
-0.1808 0.0835 -0.8196 -0.747 0.599 0.288 142 125 82 0 0
-0.1797 0.0830 -0.8315 -0.517 0.849 -0.107 123 110 74 0 0
-0.1806 0.0841 -0.8411 -0.615 0.630 0.473 80 67 39 0 0
-0.0280 -0.0649 -0.1802 -0.575 0.687 0.444 57 46 24 0 0
-0.0285 -0.0644 -0.1816 -0.575 0.687 0.444 70 57 35 0 0
-0.0348 -0.0580 -0.2147 -0.908 0.354 0.223 87 77 57 0 0
-0.0343 -0.0583 -0.2164 -0.944 0.324 -0.064 71 64 45 0 0
-0.0351 -0.0576 -0.2178 -0.946 0.301 0.122 68 61 39 0 0
-0.0341 -0.0584 -0.2197 -0.960 0.276 -0.038 105 93 69 0 0
-0.0762 -0.0219 -0.2437 -0.814 -0.512 0.276 100 90 75 0 0
-0.0981 -0.0030 -0.2551 -0.745 0.561 0.360 64 47 30 0 0
-0.1181 0.0147 -0.2802 -0.773 0.473 0.422 89 75 59 0 0
-0.1186 0.0152 -0.2816 -0.773 0.473 0.422 104 88 68 0 0
-0.1449 0.0396 -0.3463 -0.502 0.865 0.014 34 26 18 0 0
-0.1431 0.0381 -0.3487 -0.449 0.828 -0.337 46 38 31 0 0
-0.1431 0.0384 -0.3565 -0.798 0.529 0.289 34 26 19 0 0
-0.1427 0.0382 -0.3599 -0.770 0.492 0.406 33 23 14 0 0
-0.1431 0.0386 -0.3612 -0.731 0.469 0.495 41 29 17 0 0
-0.1498 0.0447 -0.3737 -0.799 0.487 0.353 143 125 95 0 0
-0.1502 0.0451 -0.3751 -0.799 0.487 0.353 94 78 46 0 0
-0.1507 0.0455 -0.3765 -0.730 0.452 0.513 101 86 57 0 0
-0.1511 0.0459 -0.3779 -0.644 0.475 0.600 82 60 36 0 0
-0.1516 0.0464 -0.3792 -0.834 0.229 0.502 77 52 28 0 0
-0.1549 0.0494 -0.3870 -0.776 0.350 0.524 71 49 29 0 0
-0.1553 0.0498 -0.3884 -0.779 0.393 0.489 63 44 26 0 0
-0.1561 0.0506 -0.3911 -0.806 0.494 0.325 65 47 29 0 0
-0.1565 0.0510 -0.3925 -0.806 0.494 0.325 61 44 26 0 0
-0.1567 0.0512 -0.3956 -0.865 0.494 0.093 67 52 34 0 0
-0.1572 0.0517 -0.3970 -0.714 0.688 0.130 70 55 34 0 0
-0.1588 0.0531 -0.3977 -0.545 0.595 0.591 69 54 33 0 0
-0.1593 0.0536 -0.3990 -0.555 0.670 0.494 64 49 28 0 0
-0.1609 0.0550 -0.4013 -0.412 0.727 0.549 57 42 22 0 0
-0.1645 0.0584 -0.4121 -0.411 0.563 0.717 62 45 27 0 0
-0.1682 0.0616 -0.4148 -0.915 -0.015 0.404 79 63 33 0 0
-0.1733 0.0665 -0.4328 -0.666 0.590 0.456 80 65 43 0 0
-0.1752 0.0683 -0.4398 -0.688 0.463 0.559 83 69 50 0 0
-0.1775 0.0708 -0.4547 -0.884 0.337 0.323 31 25 21 0 0
-0.1784 0.0717 -0.4573 -0.904 0.317 0.286 36 28 25 0 0
-0.1539 0.0521 -0.4921 -0.381 0.445 -0.810 19 15 12 0 0
-0.1492 0.0497 -0.5411 -0.811 0.479 0.335 20 16 15 0 0
-0.1493 0.0499 -0.5428 -0.795 0.530 0.295 20 16 13 0 0
-0.1500 0.0506 -0.5459 -0.795 0.530 0.295 36 32 29 0 0
-0.1624 0.0629 -0.6017 -0.422 0.875 -0.238 69 60 46 0 0
-0.1619 0.0626 -0.6040 -0.422 0.875 -0.238 58 49 35 0 0
-0.1614 0.0623 -0.6081 -0.036 0.999 -0.032 73 63 47 0 0
-0.1600 0.0633 -0.6739 -0.846 0.201 0.495 78 66 52 0 0
-0.1613 0.0649 -0.6883 -0.920 0.240 0.309 29 24 20 0 0
-0.1617 0.0653 -0.6899 -0.920 0.240 0.309 38 33 29 0 0
-0.1639 0.0676 -0.7036 -0.842 0.103 0.530 45 38 32 0 0
-0.1797 0.0815 -0.7195 -0.499 0.700 0.511 67 54 35 0 0
-0.1817 0.0833 -0.7234 -0.452 0.770 0.450 71 56 36 0 0
-0.1817 0.0834 -0.7254 -0.641 0.656 0.399 81 66 46 0 0
-0.1812 0.0831 -0.7278 -0.895 0.361 0.263 89 76 57 0 0
-0.1794 0.0819 -0.7377 -0.762 0.554 -0.335 91 80 59 0 0
-0.1786 0.0813 -0.7405 -0.687 0.725 -0.049 80 69 51 0 0
-0.1653 0.0708 -0.7646 -0.843 0.193 -0.502 40 33 24 0 0
-0.1612 0.0675 -0.7711 -0.897 0.361 -0.255 51 41 29 0 0
-0.1605 0.0671 -0.7738 -0.912 0.404 -0.071 67 54 37 0 0
-0.1618 0.0684 -0.7829 -0.911 0.123 0.395 15 11 8 0 0
-0.1694 0.0753 -0.7933 -0.481 0.587 0.651 30 21 13 0 0
-0.1697 0.0756 -0.7951 -0.687 0.527 0.500 35 26 17 0 0
-0.1797 0.0848 -0.8196 -0.747 0.599 0.288 148 131 89 0 0
-0.1789 0.0846 -0.8354 -0.761 0.649 0.026 96 86 62 0 0
-0.1789 0.0848 -0.8375 -0.704 0.619 0.347 73 64 45 0 0
-0.1790 0.0849 -0.8395 -0.667 0.510 0.544 61 52 31 0 0
-0.0345 -0.0561 -0.2144 -0.933 0.121 0.339 80 73 52 0 0
-0.0350 -0.0557 -0.2159 -0.973 0.011 0.230 79 73 53 0 0
-0.1170 0.0158 -0.2802 -0.787 0.517 0.336 83 65 49 0 0
-0.1175 0.0162 -0.2816 -0.749 0.515 0.418 129 109 85 0 0
-0.1408 0.0373 -0.3212 -0.850 0.324 0.415 13 9 8 0 0
-0.1400 0.0368 -0.3293 -0.686 0.613 0.392 20 13 11 0 0
-0.1430 0.0396 -0.3373 -0.487 0.872 -0.035 29 28 22 0 0
-0.1433 0.0400 -0.3387 -0.440 0.843 -0.308 34 30 27 0 0
-0.1429 0.0397 -0.3404 -0.376 0.904 -0.202 29 24 21 0 0
-0.1427 0.0395 -0.3421 -0.481 0.867 -0.134 25 21 18 0 0
-0.1426 0.0395 -0.3437 -0.373 0.926 -0.059 42 39 32 0 0
-0.1425 0.0395 -0.3453 -0.427 0.904 0.026 32 28 21 0 0
-0.1423 0.0393 -0.3470 -0.777 0.629 -0.029 28 22 16 0 0
-0.1420 0.0394 -0.3550 -0.744 0.635 0.209 28 21 14 0 0
-0.1433 0.0407 -0.3623 -0.796 0.557 0.234 68 55 38 0 0
-0.1445 0.0419 -0.3648 -0.726 0.362 0.585 63 50 29 0 0
-0.1481 0.0451 -0.3725 -0.690 0.580 0.433 102 82 52 0 0
-0.1490 0.0460 -0.3752 -0.690 0.580 0.433 88 73 45 0 0
-0.1518 0.0486 -0.3817 -0.659 0.640 0.395 55 39 22 0 0
-0.1522 0.0490 -0.3831 -0.776 0.498 0.387 68 52 34 0 0
-0.1545 0.0511 -0.3882 -0.742 0.450 0.498 57 40 23 0 0
-0.1551 0.0516 -0.3896 -0.779 0.393 0.489 55 38 21 0 0
-0.1553 0.0519 -0.3910 -0.767 0.559 0.315 61 45 27 0 0
-0.1577 0.0541 -0.3977 -0.545 0.595 0.591 62 47 25 0 0
-0.1582 0.0546 -0.3991 -0.555 0.670 0.494 62 47 24 0 0
-0.1587 0.0551 -0.4020 -0.321 0.669 0.670 50 35 12 0 0
-0.1597 0.0560 -0.4047 -0.652 0.680 0.334 60 45 27 0 0
-0.1601 0.0565 -0.4076 -0.512 0.711 0.482 65 48 31 0 0
-0.1634 0.0594 -0.4122 -0.311 0.588 0.747 55 38 21 0 0
-0.1643 0.0602 -0.4133 -0.440 0.577 0.688 75 58 37 0 0
-0.1651 0.0609 -0.4145 -0.440 0.577 0.688 78 61 36 0 0
-0.1658 0.0616 -0.4156 -0.686 0.554 0.472 77 59 31 0 0
-0.1662 0.0619 -0.4170 -0.626 0.752 0.205 83 61 29 0 0
-0.1726 0.0679 -0.4326 -0.768 0.627 0.130 74 59 37 0 0
-0.1725 0.0678 -0.4343 -0.537 0.614 0.578 82 68 46 0 0
-0.1759 0.0711 -0.4452 -0.802 0.394 0.449 56 45 31 0 0
-0.1770 0.0723 -0.4543 -0.806 0.532 0.259 58 50 38 0 0
-0.1774 0.0727 -0.4557 -0.732 0.654 0.194 71 62 51 0 0
-0.1531 0.0534 -0.4902 -0.375 0.438 -0.817 30 26 23 0 0
-0.1492 0.0518 -0.5421 -0.660 0.749 0.063 17 13 10 0 0
-0.1496 0.0523 -0.5472 -0.769 0.583 0.261 41 37 34 0 0
-0.1610 0.0635 -0.5928 -0.374 0.917 0.135 64 51 35 0 0
-0.1598 0.0630 -0.6067 -0.183 0.948 -0.261 69 61 48 0 0
-0.1590 0.0646 -0.6758 -0.830 0.399 0.390 82 71 56 0 0
-0.1594 0.0651 -0.6773 -0.830 0.399 0.390 72 63 45 0 0
-0.1614 0.0674 -0.6950 -0.888 0.435 0.149 19 15 12 0 0
-0.1621 0.0680 -0.6963 -0.856 0.516 -0.023 20 17 13 0 0
-0.1645 0.0704 -0.7058 -0.848 -0.131 0.514 50 43 37 0 0
-0.1651 0.0709 -0.7072 -0.838 0.037 0.545 76 67 60 0 0
-0.1719 0.0768 -0.7124 -0.554 0.612 0.564 75 62 49 0 0
-0.1644 0.0722 -0.7644 -0.546 0.638 -0.543 36 30 21 0 0
-0.1652 0.0738 -0.7884 -0.860 0.216 0.461 18 13 9 0 0
-0.1676 0.0759 -0.7920 -0.689 0.611 0.390 27 20 12 0 0
-0.1683 0.0766 -0.7933 -0.584 0.563 0.585 31 22 15 0 0
-0.1689 0.0771 -0.7948 -0.629 0.571 0.527 33 24 15 0 0
-0.1780 0.0855 -0.8160 -0.627 0.723 0.289 132 116 77 0 0
-0.1784 0.0859 -0.8177 -0.627 0.723 0.289 132 117 77 0 0
-0.0971 0.0003 -0.2609 -0.741 0.574 0.350 73 49 17 0 0
-0.0976 0.0008 -0.2638 -0.846 0.350 0.403 129 112 93 0 0
-0.1162 0.0170 -0.2801 -0.648 0.533 0.544 114 94 73 0 0
-0.1206 0.0210 -0.2876 -0.761 0.382 0.524 176 161 126 0 0
-0.1243 0.0244 -0.2939 -0.744 0.422 0.519 110 96 73 0 0
-0.1249 0.0249 -0.2952 -0.744 0.422 0.519 50 35 21 0 0
-0.1362 0.0349 -0.3105 -0.646 0.557 0.522 81 70 54 0 0
-0.1380 0.0367 -0.3174 -0.785 0.376 0.492 19 13 10 0 0
-0.1400 0.0389 -0.3335 -0.650 0.612 0.450 22 14 12 0 0
-0.1401 0.0391 -0.3366 -0.652 0.680 0.335 22 17 14 0 0
-0.1410 0.0399 -0.3377 -0.502 0.844 -0.190 24 21 17 0 0
-0.1409 0.0399 -0.3409 -0.642 0.688 -0.337 25 21 16 0 0
-0.1404 0.0395 -0.3427 -0.541 0.775 -0.326 23 19 14 0 0
-0.1410 0.0401 -0.3440 -0.373 0.926 -0.059 22 16 14 0 0
-0.1400 0.0394 -0.3460 -0.384 0.923 0.014 22 17 14 0 0
-0.1402 0.0396 -0.3475 -0.353 0.924 0.148 19 14 11 0 0
-0.1411 0.0407 -0.3596 -0.784 0.410 0.467 44 33 24 0 0
-0.1456 0.0449 -0.3685 -0.624 0.466 0.627 86 69 43 0 0
-0.1460 0.0452 -0.3699 -0.683 0.534 0.497 124 105 73 0 0
-0.1477 0.0468 -0.3738 -0.683 0.534 0.497 114 95 65 0 0
-0.1482 0.0473 -0.3751 -0.683 0.534 0.497 135 119 93 0 0
-0.1504 0.0493 -0.3803 -0.652 0.609 0.452 54 38 23 0 0
-0.1511 0.0500 -0.3832 -0.621 0.649 0.439 43 29 16 0 0
-0.1516 0.0504 -0.3845 -0.621 0.649 0.439 50 37 20 0 0
-0.1534 0.0521 -0.3883 -0.596 0.583 0.552 50 34 18 0 0
-0.1542 0.0528 -0.3895 -0.539 0.598 0.593 65 49 33 0 0
-0.1544 0.0530 -0.3910 -0.767 0.559 0.315 59 43 27 0 0
-0.1583 0.0567 -0.4033 -0.928 0.349 0.127 49 33 15 0 0
-0.1667 0.0645 -0.4242 -0.576 0.759 0.303 86 63 31 0 0
-0.1711 0.0685 -0.4313 -0.712 0.645 0.278 54 37 17 0 0
-0.1710 0.0684 -0.4330 -0.672 0.576 0.466 85 72 49 0 0
-0.1715 0.0689 -0.4343 -0.672 0.576 0.466 89 78 54 0 0
-0.1719 0.0693 -0.4357 -0.633 0.724 0.274 91 76 57 0 0
-0.1763 0.0736 -0.4525 -0.679 0.683 0.271 107 93 73 0 0
-0.1781 0.0753 -0.4579 -0.906 0.372 0.200 79 68 51 0 0
-0.1784 0.0756 -0.4593 -0.918 0.289 0.273 81 71 54 0 0
-0.1776 0.0750 -0.4615 -0.776 0.620 0.113 55 45 30 0 0
-0.1428 0.0476 -0.5139 -0.609 0.788 0.097 50 46 43 0 0
-0.1413 0.0464 -0.5185 -0.952 0.301 -0.052 25 21 18 0 0
-0.1413 0.0465 -0.5203 -0.942 0.335 -0.020 43 38 35 0 0
-0.1412 0.0465 -0.5221 -0.942 0.335 -0.020 34 30 27 0 0
-0.1421 0.0472 -0.5233 -0.271 0.424 0.864 24 20 17 0 0
-0.1433 0.0483 -0.5242 -0.218 0.307 0.926 16 15 11 0 0
-0.1465 0.0513 -0.5326 -0.789 0.597 0.142 16 12 11 0 0
-0.1469 0.0517 -0.5341 -0.773 0.594 0.222 17 13 12 0 0
-0.1471 0.0519 -0.5357 -0.773 0.594 0.222 21 17 16 0 0
-0.1486 0.0536 -0.5472 -0.769 0.583 0.261 40 36 33 0 0
-0.1488 0.0539 -0.5488 -0.847 0.438 0.301 34 30 27 0 0
-0.1475 0.0528 -0.5515 -0.455 0.890 0.007 21 17 14 0 0
-0.1484 0.0537 -0.5563 -0.263 0.762 0.592 36 32 29 0 0
-0.1599 0.0643 -0.5800 -0.615 0.727 0.304 107 99 83 0 0
-0.1511 0.0596 -0.6606 -0.915 0.182 0.361 80 65 46 0 0
-0.1517 0.0602 -0.6621 -0.864 0.097 0.495 82 71 51 0 0
-0.1605 0.0686 -0.6889 -0.873 0.133 0.470 37 32 28 0 0
-0.1611 0.0691 -0.6903 -0.908 0.244 0.339 40 35 32 0 0
-0.1608 0.0689 -0.6926 -0.659 0.345 0.668 39 34 31 0 0
-0.1616 0.0697 -0.6958 -0.741 0.641 0.201 15 14 10 0 0
-0.1617 0.0699 -0.6996 -0.699 0.685 0.206 20 16 12 0 0
-0.1647 0.0727 -0.7065 -0.910 -0.102 0.402 62 54 49 0 0
-0.1708 0.0780 -0.7104 -0.693 0.579 0.429 72 59 44 0 0
-0.1713 0.0784 -0.7119 -0.613 0.675 0.410 64 51 35 0 0
-0.1722 0.0792 -0.7130 -0.812 0.451 0.370 65 51 36 0 0
-0.1758 0.0826 -0.7212 -0.562 0.589 0.581 61 48 30 0 0
-0.1609 0.0716 -0.7690 -0.754 0.515 -0.407 43 33 21 0 0
-0.1593 0.0705 -0.7727 -0.766 0.634 -0.105 73 60 43 0 0
-0.1681 0.0787 -0.7965 -0.633 0.625 0.457 53 45 29 0 0
-0.1775 0.0872 -0.8153 -0.846 0.478 0.238 134 116 77 0 0
-0.0752 -0.0169 -0.2383 -0.292 -0.273 0.916 132 119 92 0 0
-0.0969 0.0022 -0.2636 -0.846 0.350 0.403 135 115 89 0 0
-0.0985 0.0036 -0.2646 -0.473 0.528 0.705 163 143 115 0 0
-0.1184 0.0210 -0.2850 -0.445 0.572 0.689 122 106 82 0 0
-0.1224 0.0246 -0.2911 -0.756 0.300 0.582 119 107 89 0 0
-0.1379 0.0388 -0.3247 -0.644 0.677 0.356 12 10 7 0 0
-0.1375 0.0393 -0.3482 -0.852 0.510 -0.114 21 16 12 0 0
-0.1424 0.0441 -0.3680 -0.738 0.460 0.494 148 130 109 0 0
-0.1457 0.0470 -0.3711 -0.607 0.594 0.527 122 104 71 0 0
-0.1462 0.0474 -0.3724 -0.651 0.538 0.536 122 103 70 0 0
-0.1467 0.0479 -0.3738 -0.723 0.473 0.504 100 82 49 0 0
-0.1535 0.0543 -0.3909 -0.560 0.589 0.583 43 28 10 0 0
-0.1587 0.0591 -0.4057 -0.925 0.379 -0.004 46 30 13 0 0
-0.1589 0.0594 -0.4104 -0.678 0.585 0.445 77 57 33 0 0
-0.1622 0.0624 -0.4166 -0.560 0.536 0.632 93 67 33 0 0
-0.1629 0.0631 -0.4177 -0.595 0.589 0.547 92 68 36 0 0
-0.1637 0.0638 -0.4189 -0.925 0.165 0.343 96 72 36 0 0
-0.1630 0.0633 -0.4209 -0.716 0.561 0.415 93 69 33 0 0
-0.1655 0.0655 -0.4243 -0.487 0.860 0.152 95 74 43 0 0
-0.1778 0.0770 -0.4574 -0.679 0.562 0.472 56 47 28 0 0
-0.1781 0.0773 -0.4589 -0.775 0.439 0.455 55 43 24 0 0
-0.1409 0.0481 -0.5163 -0.952 0.301 -0.052 32 28 27 0 0
-0.1408 0.0481 -0.5181 -0.952 0.301 -0.052 16 12 11 0 0
-0.1407 0.0480 -0.5200 -0.952 0.301 -0.052 31 27 25 0 0
-0.1406 0.0480 -0.5218 -0.952 0.301 -0.052 30 25 22 0 0
-0.1475 0.0540 -0.5258 -0.932 0.197 0.304 16 12 11 0 0
-0.1471 0.0543 -0.5439 -0.957 0.236 0.167 37 36 34 0 0
-0.1478 0.0549 -0.5451 -0.922 0.314 0.228 38 37 35 0 0
-0.1476 0.0548 -0.5471 -0.795 0.530 0.295 29 27 25 0 0
-0.1481 0.0553 -0.5485 -0.636 0.511 0.578 15 11 10 0 0
-0.1470 0.0546 -0.5566 -0.752 0.514 0.413 48 44 40 0 0
-0.1480 0.0556 -0.5594 -0.568 0.638 0.521 19 15 14 0 0
-0.1486 0.0562 -0.5607 -0.568 0.638 0.521 20 16 15 0 0
-0.1492 0.0567 -0.5621 -0.568 0.638 0.521 23 19 18 0 0
-0.1513 0.0586 -0.5678 -0.268 0.804 0.531 22 18 14 0 0
-0.1497 0.0606 -0.6590 -0.713 0.380 0.589 69 58 41 0 0
-0.1508 0.0615 -0.6599 -0.940 0.220 0.261 88 76 55 0 0
-0.1516 0.0622 -0.6612 -0.844 0.272 0.462 102 88 65 0 0
-0.1522 0.0628 -0.6625 -0.859 0.203 0.470 110 95 73 0 0
-0.1527 0.0633 -0.6640 -0.838 0.290 0.461 113 100 81 0 0
-0.1601 0.0706 -0.6962 -0.812 0.538 0.226 16 12 9 0 0
-0.1610 0.0715 -0.6992 -0.368 0.731 0.575 22 19 14 0 0
-0.1653 0.0752 -0.7050 -0.450 0.602 0.660 60 54 47 0 0
-0.1675 0.0772 -0.7067 -0.664 0.337 0.667 54 46 35 0 0
-0.1692 0.0787 -0.7090 -0.750 0.083 0.656 97 85 63 0 0
-0.1701 0.0795 -0.7101 -0.669 0.276 0.690 126 111 85 0 0
-0.1713 0.0806 -0.7128 -0.812 0.451 0.370 106 89 66 0 0
-0.1720 0.0812 -0.7141 -0.592 0.635 0.496 78 64 46 0 0
-0.1723 0.0815 -0.7158 -0.587 0.611 0.531 66 54 34 0 0
-0.1729 0.0821 -0.7172 -0.751 0.483 0.450 123 109 82 0 0
-0.1770 0.0860 -0.7308 -0.620 0.781 0.068 73 60 43 0 0
-0.1600 0.0731 -0.7687 -0.754 0.515 -0.407 40 32 20 0 0
-0.1578 0.0715 -0.7752 -0.626 0.743 0.238 48 38 23 0 0
-0.1583 0.0719 -0.7768 -0.457 0.725 0.515 43 36 22 0 0
-0.1620 0.0754 -0.7874 -0.735 0.375 0.565 23 16 10 0 0
-0.1660 0.0790 -0.7934 -0.724 0.580 0.374 63 53 41 0 0
-0.1754 0.0876 -0.8144 -0.709 0.570 0.415 121 105 67 0 0
-0.1766 0.0887 -0.8151 -0.846 0.478 0.238 132 114 75 0 0
-0.1765 0.0887 -0.8173 -0.814 0.419 0.401 134 116 76 0 0
-0.0269 -0.0579 -0.1685 -0.474 0.877 0.078 167 155 134 0 0
-0.0264 -0.0582 -0.1701 -0.796 0.534 0.284 153 137 100 0 0
-0.0299 -0.0549 -0.1817 -0.717 0.504 0.481 162 144 100 0 0
-0.0335 -0.0513 -0.1981 -0.928 0.371 0.041 123 106 75 0 0
-0.0330 -0.0517 -0.1997 -0.786 0.110 0.608 123 108 79 0 0
-0.0949 0.0024 -0.2609 -0.720 0.686 0.100 88 68 42 0 0
-0.1105 0.0159 -0.2738 -0.679 0.531 0.507 169 142 101 0 0
-0.1153 0.0202 -0.2812 -0.597 0.423 0.681 173 156 124 0 0
-0.1161 0.0210 -0.2824 -0.733 0.272 0.624 146 130 102 0 0
-0.1164 0.0213 -0.2838 -0.492 0.443 0.749 137 121 94 0 0
-0.1189 0.0235 -0.2875 -0.541 0.601 0.589 100 89 67 0 0
-0.1247 0.0290 -0.3051 -0.352 0.907 0.233 108 97 81 0 0
-0.1343 0.0371 -0.3104 -0.684 0.646 0.339 64 54 37 0 0
-0.1370 0.0409 -0.3511 -0.777 0.472 0.415 29 22 16 0 0
-0.1380 0.0418 -0.3522 -0.807 0.393 0.441 37 28 21 0 0
-0.1388 0.0426 -0.3550 -0.753 0.642 0.144 21 14 8 0 0
-0.1474 0.0506 -0.3776 -0.687 0.613 0.390 55 35 15 0 0
-0.1480 0.0511 -0.3789 -0.753 0.532 0.388 63 45 24 0 0
-0.1519 0.0548 -0.3896 -0.476 0.553 0.684 71 53 36 0 0
-0.1524 0.0552 -0.3909 -0.651 0.529 0.544 55 38 18 0 0
-0.1528 0.0556 -0.3923 -0.770 0.463 0.438 54 37 19 0 0
-0.1582 0.0606 -0.4038 -0.909 0.183 -0.376 44 28 13 0 0
-0.1588 0.0613 -0.4098 -0.768 0.560 0.310 92 74 50 0 0
-0.1588 0.0614 -0.4114 -0.416 0.583 0.698 66 46 22 0 0
-0.1605 0.0629 -0.4137 -0.416 0.583 0.698 83 59 26 0 0
-0.1608 0.0631 -0.4152 -0.518 0.511 0.686 88 62 27 0 0
-0.1611 0.0635 -0.4166 -0.560 0.536 0.632 86 61 28 0 0
-0.1623 0.0646 -0.4191 -0.719 0.625 0.304 83 59 27 0 0
-0.1625 0.0648 -0.4206 -0.729 0.644 0.232 95 71 37 0 0
-0.1712 0.0731 -0.4495 -0.666 0.677 0.314 182 166 140 0 0
-0.1769 0.0781 -0.4574 -0.636 0.482 0.602 59 46 29 0 0
-0.1773 0.0785 -0.4588 -0.775 0.439 0.455 62 48 30 0 0
-0.1409 0.0502 -0.5173 -0.860 0.219 0.461 16 12 11 0 0
-0.1463 0.0557 -0.5437 -0.881 0.454 0.129 41 40 37 0 0
-0.1464 0.0559 -0.5454 -0.881 0.454 0.129 37 36 33 0 0
-0.1461 0.0557 -0.5492 -0.650 0.743 0.160 17 13 12 0 0
-0.1468 0.0567 -0.5595 -0.613 0.647 0.454 14 10 9 0 0
-0.1475 0.0573 -0.5608 -0.568 0.638 0.521 16 12 11 0 0
-0.1498 0.0595 -0.5681 -0.155 0.848 0.506 27 24 20 0 0
-0.1522 0.0616 -0.5717 -0.480 0.264 0.837 25 24 20 0 0
-0.1451 0.0587 -0.6563 -0.257 0.730 0.633 30 26 22 0 0
-0.1501 0.0631 -0.6596 -0.948 0.161 0.275 94 82 63 0 0
-0.1535 0.0661 -0.6662 -0.782 0.268 0.562 75 63 49 0 0
-0.1558 0.0682 -0.6719 -0.805 0.327 0.495 56 49 33 0 0
-0.1591 0.0719 -0.6960 -0.812 0.538 0.226 19 15 12 0 0
-0.1643 0.0766 -0.7049 -0.409 0.602 0.686 60 56 49 0 0
-0.1656 0.0777 -0.7055 -0.657 0.536 0.530 54 50 45 0 0
-0.1664 0.0784 -0.7067 -0.544 0.429 0.721 56 49 38 0 0
-0.1704 0.0820 -0.7127 -0.714 0.567 0.410 133 115 83 0 0
-0.1753 0.0865 -0.7235 -0.642 0.698 0.318 89 76 53 0 0
-0.1566 0.0728 -0.7773 -0.793 0.358 0.493 42 36 19 0 0
-0.1586 0.0746 -0.7815 -0.795 0.552 0.250 47 39 29 0 0
-0.1644 0.0798 -0.7919 -0.756 0.458 0.467 57 48 35 0 0
-0.1650 0.0803 -0.7933 -0.724 0.580 0.374 59 49 35 0 0
-0.1659 0.0811 -0.7944 -0.624 0.734 0.268 59 49 35 0 0
-0.1694 0.0843 -0.8010 -0.754 0.606 0.254 97 89 70 0 0
-0.1697 0.0846 -0.8028 -0.754 0.606 0.254 105 93 74 0 0
-0.1701 0.0850 -0.8044 -0.702 0.706 0.097 81 70 50 0 0
-0.1711 0.0859 -0.8053 -0.921 0.301 0.249 72 62 43 0 0
-0.1752 0.0897 -0.8155 -0.582 0.675 0.454 130 112 74 0 0
-0.1757 0.0901 -0.8170 -0.814 0.419 0.401 135 117 79 0 0
-0.0263 -0.0564 -0.1668 -0.735 0.666 -0.128 138 124 93 0 0
-0.0259 -0.0566 -0.1684 -0.700 0.697 -0.155 143 126 87 0 0
-0.0255 -0.0569 -0.1701 -0.796 0.534 0.284 161 141 99 0 0
-0.0258 -0.0567 -0.1715 -0.851 0.326 0.412 161 144 102 0 0
-0.0268 -0.0557 -0.1744 -0.844 0.094 0.528 185 165 121 0 0
-0.0271 -0.0554 -0.1759 -0.932 0.342 0.118 175 155 106 0 0
-0.0344 -0.0487 -0.1913 -0.620 0.570 0.539 181 163 121 0 0
-0.0646 -0.0218 -0.2392 -0.016 -0.071 0.997 147 132 107 0 0
-0.1041 0.0123 -0.2680 -0.432 0.793 0.430 219 199 152 0 0
-0.1143 0.0213 -0.2812 -0.553 0.536 0.638 165 149 116 0 0
-0.1151 0.0220 -0.2824 -0.427 0.653 0.626 124 108 83 0 0
-0.1350 0.0410 -0.3469 -0.456 0.841 0.291 12 9 5 0 0
-0.1378 0.0437 -0.3550 -0.883 0.327 0.336 30 21 15 0 0
-0.1382 0.0442 -0.3579 -0.527 0.803 0.277 21 13 11 0 0
-0.1427 0.0485 -0.3731 -0.567 0.717 0.405 108 88 61 0 0
-0.1517 0.0566 -0.3907 -0.640 0.438 0.631 64 44 20 0 0
-0.1508 0.0559 -0.3928 -0.866 0.464 0.187 86 65 44 0 0
-0.1702 0.0742 -0.4495 -0.691 0.604 0.397 185 170 146 0 0
-0.1578 0.0651 -0.4826 -0.482 0.303 -0.822 56 49 37 0 0
-0.1450 0.0560 -0.5261 -0.692 0.591 0.415 21 17 16 0 0
-0.1452 0.0567 -0.5401 -0.881 0.454 0.129 42 38 35 0 0
-0.1450 0.0567 -0.5438 -0.857 0.513 0.042 44 43 38 0 0
-0.1454 0.0575 -0.5580 -0.820 0.159 0.549 16 12 10 0 0
-0.1462 0.0583 -0.5609 -0.787 0.468 0.402 16 12 11 0 0
-0.1557 0.0672 -0.5862 -0.642 0.738 0.206 47 44 39 0 0
-0.1558 0.0673 -0.5899 -0.489 0.867 -0.092 55 50 43 0 0
-0.1510 0.0661 -0.6636 -0.744 0.563 0.358 100 86 67 0 0
-0.1513 0.0664 -0.6652 -0.693 0.668 0.271 74 59 44 0 0
-0.1523 0.0672 -0.6663 -0.759 0.465 0.456 64 52 40 0 0
-0.1602 0.0749 -0.6940 -0.937 0.350 0.025 19 15 12 0 0
-0.1575 0.0728 -0.6985 -0.873 0.475 0.113 23 19 16 0 0
-0.1576 0.0730 -0.7004 -0.289 0.733 0.616 21 18 13 0 0
-0.1691 0.0829 -0.7109 -0.567 0.784 0.252 177 155 111 0 0
-0.1628 0.0806 -0.7903 -0.517 0.716 0.469 50 41 29 0 0
-0.1631 0.0809 -0.7921 -0.575 0.682 0.452 57 47 32 0 0
-0.1644 0.0820 -0.7928 -0.640 0.701 0.315 59 47 31 0 0
-0.1702 0.0873 -0.8030 -0.366 0.831 0.419 73 63 44 0 0
-0.1709 0.0879 -0.8043 -0.422 0.827 0.372 62 52 33 0 0
-0.1720 0.0888 -0.8053 -0.558 0.465 0.688 57 44 24 0 0
-0.1728 0.0896 -0.8064 -0.741 0.514 0.432 71 57 28 0 0
-0.1738 0.0904 -0.8074 -0.745 0.308 0.592 87 72 40 0 0
-0.1733 0.0902 -0.8122 -0.760 0.359 0.542 103 87 54 0 0
-0.1742 0.0910 -0.8132 -0.750 0.461 0.475 115 99 63 0 0
-0.1748 0.0916 -0.8146 -0.854 0.458 0.246 119 101 65 0 0
-0.0261 -0.0545 -0.1666 -0.946 0.296 0.134 172 155 113 0 0
-0.0256 -0.0547 -0.1713 -0.942 0.184 0.280 213 195 148 0 0
-0.0260 -0.0544 -0.1728 -0.918 0.246 0.310 214 195 146 0 0
-0.0268 -0.0536 -0.1741 -0.876 0.305 0.374 206 187 135 0 0
-0.0282 -0.0523 -0.1800 -0.824 0.456 0.338 202 187 146 0 0
-0.0801 -0.0068 -0.2403 -0.111 0.378 0.919 202 185 149 0 0
-0.0938 0.0053 -0.2559 -0.671 0.481 0.564 120 104 74 0 0
-0.1166 0.0257 -0.2952 -0.390 0.785 0.481 36 30 25 0 0
-0.1177 0.0267 -0.2979 -0.307 0.389 0.869 53 43 38 0 0
-0.1204 0.0291 -0.2998 -0.453 0.675 0.582 51 41 33 0 0
-0.1211 0.0297 -0.3011 -0.473 0.756 0.452 57 49 39 0 0
-0.1216 0.0302 -0.3025 -0.679 0.711 0.184 80 73 63 0 0
-0.1223 0.0308 -0.3037 -0.634 0.769 0.081 96 87 78 0 0
-0.1228 0.0313 -0.3066 -0.398 0.642 0.656 107 96 86 0 0
-0.1361 0.0443 -0.3569 -0.748 0.635 0.194 32 20 17 0 0
-0.1373 0.0453 -0.3579 -0.710 0.611 0.350 25 15 12 0 0
-0.1377 0.0457 -0.3592 -0.622 0.646 0.442 28 19 13 0 0
-0.1518 0.0588 -0.3949 -0.290 0.856 0.429 53 34 11 0 0
-0.1551 0.0619 -0.4043 -0.615 0.751 0.240 43 27 12 0 0
-0.1644 0.0710 -0.4410 -0.389 0.832 0.396 125 113 98 0 0
-0.1686 0.0747 -0.4483 -0.531 0.679 0.506 138 126 109 0 0
-0.1727 0.0784 -0.4538 -0.688 0.503 0.523 85 73 52 0 0
-0.1518 0.0622 -0.4859 -0.291 0.503 -0.813 57 50 35 0 0
-0.1454 0.0584 -0.5268 -0.972 0.229 0.044 31 27 24 0 0
-0.1440 0.0578 -0.5420 -0.816 0.572 0.086 47 44 40 0 0
-0.1440 0.0579 -0.5438 -0.451 0.890 0.071 34 32 28 0 0
-0.1437 0.0581 -0.5548 -0.823 0.418 0.384 43 41 37 0 0
-0.1447 0.0590 -0.5576 -0.717 0.460 0.524 22 19 16 0 0
-0.1440 0.0585 -0.5600 -0.653 0.715 0.251 19 16 14 0 0
-0.1449 0.0593 -0.5611 -0.562 0.718 0.412 23 20 17 0 0
-0.1538 0.0677 -0.5869 -0.853 0.520 0.047 52 48 42 0 0
-0.1539 0.0679 -0.5905 -0.651 0.754 -0.081 56 51 41 0 0
-0.1407 0.0582 -0.6257 0.019 0.970 -0.244 43 36 23 0 0
-0.1330 0.0527 -0.6494 -0.349 0.902 0.254 20 17 12 0 0
-0.1329 0.0527 -0.6515 -0.570 0.704 0.424 20 17 12 0 0
-0.1504 0.0677 -0.6651 -0.662 0.574 0.483 71 58 45 0 0
-0.1570 0.0746 -0.6999 -0.833 0.441 0.333 23 19 16 0 0
-0.1646 0.0812 -0.7063 -0.380 0.605 0.699 56 51 44 0 0
-0.1690 0.0851 -0.7138 -0.822 0.491 0.289 81 71 45 0 0
-0.1718 0.0877 -0.7209 -0.481 0.473 0.738 94 80 55 0 0
-0.1723 0.0886 -0.7323 -0.837 0.545 -0.053 84 71 54 0 0
-0.1718 0.0883 -0.7369 -0.666 0.740 0.098 92 80 61 0 0
-0.1707 0.0875 -0.7420 -0.742 0.627 -0.238 93 83 62 0 0
-0.1615 0.0817 -0.7905 -0.517 0.716 0.469 49 39 25 0 0
-0.1627 0.0828 -0.7913 -0.576 0.726 0.376 51 39 22 0 0
-0.1631 0.0832 -0.7929 -0.640 0.701 0.315 51 39 21 0 0
-0.1634 0.0835 -0.7947 -0.672 0.689 0.273 65 51 36 0 0
-0.1713 0.0904 -0.8048 -0.768 -0.219 0.602 56 41 18 0 0
-0.1719 0.0910 -0.8061 -0.938 0.203 0.282 75 60 28 0 0
-0.1726 0.0918 -0.8117 -0.735 0.592 0.331 103 87 54 0 0
-0.1747 0.0936 -0.8135 -0.687 0.708 0.160 118 100 63 0 0
-0.0262 -0.0526 -0.1617 -0.919 0.390 0.060 144 129 98 0 0
-0.0251 -0.0532 -0.1696 -0.963 0.117 0.242 206 190 144 0 0
-0.0250 -0.0532 -0.1712 -0.951 0.156 0.265 191 173 124 0 0
-0.0255 -0.0527 -0.1726 -0.905 0.177 0.387 197 178 127 0 0
-0.0319 -0.0468 -0.1882 -0.693 0.354 0.628 194 179 137 0 0
-0.0448 -0.0341 -0.2397 -0.513 0.001 0.858 142 128 98 0 0
-0.0563 -0.0246 -0.2394 0.062 0.130 0.990 148 133 106 0 0
-0.0920 0.0057 -0.2546 -0.629 0.445 0.637 125 110 79 0 0
-0.1062 0.0183 -0.2772 -0.483 0.852 0.205 109 96 66 0 0
-0.1065 0.0186 -0.2787 -0.690 0.490 0.533 107 93 65 0 0
-0.1071 0.0192 -0.2800 -0.690 0.490 0.533 87 72 47 0 0
-0.1080 0.0200 -0.2812 -0.556 0.362 0.748 73 58 37 0 0
-0.1158 0.0269 -0.2936 -0.858 0.416 0.302 32 25 22 0 0
-0.1216 0.0322 -0.3067 -0.398 0.642 0.656 117 108 97 0 0
-0.1570 0.0658 -0.4156 -0.447 0.661 0.603 72 54 34 0 0
-0.1672 0.0756 -0.4485 -0.820 0.200 0.536 131 120 106 0 0
-0.1721 0.0799 -0.4552 -0.721 0.500 0.480 55 46 27 0 0
-0.1498 0.0626 -0.4865 -0.221 0.569 -0.792 47 40 26 0 0
-0.1424 0.0586 -0.5442 -0.621 0.774 -0.122 39 35 32 0 0
-0.1430 0.0597 -0.5581 -0.742 0.554 0.377 21 20 16 0 0
-0.1437 0.0603 -0.5612 -0.701 0.607 0.374 31 28 23 0 0
-0.1435 0.0604 -0.5668 -0.628 0.746 0.220 21 20 18 0 0
-0.1536 0.0692 -0.5771 -0.520 0.732 0.440 45 39 29 0 0
-0.1381 0.0581 -0.6250 0.123 0.963 -0.241 42 33 22 0 0
-0.1339 0.0551 -0.6361 -0.340 0.820 -0.460 27 21 16 0 0
-0.1386 0.0598 -0.6571 -0.240 0.603 0.761 28 26 23 0 0
-0.1635 0.0824 -0.7064 -0.347 0.628 0.696 51 44 38 0 0
-0.1654 0.0840 -0.7085 -0.555 0.527 0.643 121 108 79 0 0
-0.1592 0.0810 -0.7649 -0.849 0.246 -0.468 51 42 27 0 0
-0.1537 0.0771 -0.7832 -0.546 0.804 0.235 69 63 49 0 0
-0.1587 0.0816 -0.7902 -0.241 0.436 0.867 68 59 44 0 0
-0.1602 0.0828 -0.7908 -0.517 0.716 0.469 73 63 45 0 0
-0.1608 0.0834 -0.7921 -0.696 0.500 0.515 98 87 67 0 0
-0.1625 0.0849 -0.7945 -0.854 0.028 0.519 92 79 56 0 0
-0.1692 0.0909 -0.8037 -0.485 0.413 0.771 45 34 19 0 0
-0.1747 0.0959 -0.8164 -0.842 0.193 0.504 131 115 78 0 0
-0.0236 -0.0526 -0.1620 -0.627 0.714 0.312 174 159 124 0 0
-0.0270 -0.0494 -0.1736 -0.963 -0.051 0.265 153 139 94 0 0
-0.0274 -0.0490 -0.1750 -0.994 0.105 0.038 112 99 59 0 0
-0.0325 -0.0443 -0.1878 -0.665 0.744 0.070 181 166 126 0 0
-0.0338 -0.0431 -0.1890 -0.853 0.460 0.247 112 97 67 0 0
-0.0440 -0.0329 -0.2364 -0.935 -0.005 0.355 83 69 46 0 0
-0.0448 -0.0321 -0.2393 -0.596 -0.203 0.777 149 134 106 0 0
-0.0466 -0.0305 -0.2404 -0.507 -0.159 0.847 145 130 101 0 0
-0.1050 0.0193 -0.2773 -0.625 0.766 0.151 58 49 34 0 0
-0.1056 0.0198 -0.2786 -0.690 0.490 0.533 64 51 36 0 0
-0.1395 0.0517 -0.3764 -0.641 0.549 0.537 53 38 19 0 0
-0.1401 0.0523 -0.3777 -0.620 0.666 0.415 55 40 19 0 0
-0.1405 0.0527 -0.3790 -0.620 0.666 0.415 77 62 43 0 0
-0.1431 0.0550 -0.3841 -0.569 0.718 0.401 104 90 68 0 0
-0.1509 0.0624 -0.4071 -0.374 0.927 0.017 56 41 22 0 0
-0.1521 0.0639 -0.4211 -0.517 0.804 -0.293 72 56 33 0 0
-0.1497 0.0621 -0.4240 -0.936 0.306 0.172 67 51 28 0 0
-0.1595 0.0706 -0.4346 -0.370 0.819 0.438 77 61 35 0 0
-0.1657 0.0764 -0.4504 -0.393 0.676 0.624 108 97 82 0 0
-0.1665 0.0771 -0.4515 -0.561 0.206 0.802 112 100 83 0 0
-0.1699 0.0801 -0.4576 -0.434 0.811 0.393 69 56 42 0 0
-0.1705 0.0807 -0.4605 -0.267 0.959 0.093 65 55 39 0 0
-0.1334 0.0516 -0.5019 -0.779 0.470 0.415 19 15 15 0 0
-0.1391 0.0564 -0.5051 -0.748 0.396 0.532 16 14 12 0 0
-0.1395 0.0569 -0.5065 -0.646 0.358 0.674 22 18 15 0 0
-0.1401 0.0574 -0.5078 -0.815 0.399 0.420 29 25 22 0 0
-0.1419 0.0594 -0.5224 -0.910 0.318 0.266 34 26 20 0 0
-0.1404 0.0594 -0.5539 -0.302 0.953 -0.007 42 41 37 0 0
-0.1403 0.0594 -0.5557 -0.279 0.958 0.058 32 31 27 0 0
-0.1417 0.0610 -0.5674 -0.589 0.791 0.165 22 20 17 0 0
-0.1322 0.0558 -0.6367 -0.780 0.536 -0.321 20 16 11 0 0
-0.1311 0.0556 -0.6530 -0.680 0.217 0.700 15 11 8 0 0
-0.1577 0.0785 -0.6757 -0.995 0.076 0.062 46 40 30 0 0
-0.1584 0.0792 -0.6770 -0.924 0.381 -0.015 35 30 20 0 0
-0.1584 0.0792 -0.6790 -0.924 0.381 -0.015 36 30 21 0 0
-0.1585 0.0795 -0.6827 -0.780 0.625 -0.032 36 28 20 0 0
-0.1648 0.0857 -0.7099 -0.669 0.640 0.378 129 115 87 0 0
-0.1653 0.0862 -0.7114 -0.863 0.402 0.307 109 97 74 0 0
-0.1522 0.0782 -0.7835 -0.546 0.804 0.235 46 40 24 0 0
-0.1521 0.0782 -0.7857 -0.390 0.601 0.697 43 37 21 0 0
-0.1742 0.0976 -0.8157 -0.740 0.412 0.531 136 119 82 0 0
-0.1750 0.0983 -0.8169 -0.663 0.555 0.503 134 117 80 0 0
-0.0258 -0.0484 -0.1720 -0.841 0.160 0.518 153 138 102 0 0
-0.0273 -0.0471 -0.1732 -0.874 0.413 0.254 114 98 64 0 0
-0.0272 -0.0472 -0.1748 -0.856 0.511 -0.075 106 90 60 0 0
-0.0271 -0.0470 -0.1794 -0.751 0.606 0.262 121 109 84 0 0
-0.0274 -0.0467 -0.1809 -0.706 0.622 0.338 120 107 80 0 0
-0.0278 -0.0463 -0.1824 -0.565 0.631 0.532 140 127 97 0 0
-0.0321 -0.0425 -0.1891 -0.796 0.525 0.302 112 99 67 0 0
-0.0382 -0.0369 -0.2047 -0.589 0.407 0.698 178 161 128 0 0
-0.0399 -0.0354 -0.2059 -0.698 0.687 0.205 178 160 123 0 0
-0.0400 -0.0353 -0.2074 -0.806 0.587 0.071 195 177 137 0 0
-0.0400 -0.0352 -0.2089 -0.806 0.587 0.071 199 181 140 0 0
-0.0397 -0.0354 -0.2106 -0.780 0.620 -0.085 187 169 130 0 0
-0.0394 -0.0356 -0.2122 -0.881 0.472 0.041 177 158 118 0 0
-0.0434 -0.0313 -0.2347 -0.981 -0.035 0.189 90 77 58 0 0
-0.0438 -0.0310 -0.2361 -0.950 0.023 0.310 103 91 69 0 0
-0.0433 -0.0313 -0.2379 -0.950 0.149 0.274 120 109 86 0 0
-0.0451 -0.0298 -0.2389 -0.821 -0.198 0.535 100 89 69 0 0
-0.1182 0.0332 -0.3041 -0.485 0.706 0.516 74 64 54 0 0
-0.1323 0.0455 -0.3213 -0.529 0.762 0.373 130 118 98 0 0
-0.1343 0.0487 -0.3594 -0.638 0.563 0.526 41 31 22 0 0
-0.1381 0.0525 -0.3749 -0.571 0.749 0.336 55 39 22 0 0
-0.1398 0.0541 -0.3804 -0.465 0.714 0.524 80 67 49 0 0
-0.1416 0.0558 -0.3843 -0.391 0.798 0.459 71 53 30 0 0
-0.1493 0.0636 -0.4237 -0.954 0.208 0.215 63 47 24 0 0
-0.1564 0.0698 -0.4309 -0.403 0.914 0.048 119 105 82 0 0
-0.1567 0.0702 -0.4340 -0.510 0.860 0.002 73 57 34 0 0
-0.1579 0.0712 -0.4349 -0.680 0.676 0.283 81 65 41 0 0
-0.1619 0.0750 -0.4473 -0.576 0.750 0.325 93 87 76 0 0
-0.1640 0.0768 -0.4492 -0.347 0.818 0.459 101 93 76 0 0
-0.1649 0.0777 -0.4519 -0.380 0.392 0.838 110 103 89 0 0
-0.1659 0.0785 -0.4529 -0.386 0.514 0.766 118 110 93 0 0
-0.1682 0.0806 -0.4581 -0.717 0.309 0.624 61 48 33 0 0
-0.1321 0.0526 -0.5021 -0.777 0.498 0.385 21 17 16 0 0
-0.1382 0.0578 -0.5067 -0.627 0.714 0.310 35 30 26 0 0
-0.1386 0.0582 -0.5082 -0.635 0.692 0.342 34 29 25 0 0
-0.1393 0.0588 -0.5095 -0.820 0.545 0.175 39 34 30 0 0
-0.1420 0.0616 -0.5234 -0.852 0.410 0.325 45 36 31 0 0
-0.1418 0.0618 -0.5342 -0.840 0.451 -0.302 59 54 51 0 0
-0.1410 0.0613 -0.5383 -0.871 0.430 -0.239 30 26 23 0 0
-0.1412 0.0616 -0.5399 -0.886 0.462 0.042 53 49 46 0 0
-0.1384 0.0598 -0.5527 -0.323 0.943 -0.083 41 39 35 0 0
-0.1383 0.0599 -0.5582 -0.193 0.962 0.194 23 22 18 0 0
-0.1385 0.0602 -0.5599 -0.193 0.962 0.194 17 16 12 0 0
-0.1397 0.0612 -0.5626 -0.324 0.924 0.203 36 33 28 0 0
-0.1411 0.0627 -0.5707 -0.238 0.920 0.312 83 79 68 0 0
-0.1330 0.0593 -0.6543 -0.502 0.517 0.694 38 35 30 0 0
-0.1340 0.0602 -0.6554 -0.551 0.594 0.586 40 37 32 0 0
-0.1346 0.0608 -0.6568 -0.520 0.405 0.752 35 32 27 0 0
-0.1550 0.0782 -0.6715 -0.709 0.433 0.556 66 59 41 0 0
-0.1573 0.0802 -0.6751 -0.794 0.603 0.070 79 69 48 0 0
-0.1570 0.0805 -0.6870 -0.750 0.660 -0.038 71 61 50 0 0
-0.1563 0.0805 -0.7014 -0.666 0.744 0.052 11 10 8 0 0
-0.1712 0.0940 -0.7301 -0.732 0.681 -0.036 84 72 52 0 0
-0.1551 0.0829 -0.7875 -0.821 -0.176 0.544 47 38 29 0 0
-0.1568 0.0843 -0.7879 -0.619 -0.257 0.743 56 47 34 0 0
-0.1746 0.1013 -0.8435 -0.779 0.600 0.183 140 125 89 0 0
-0.1741 0.1012 -0.8527 -0.828 0.558 0.053 124 110 75 0 0
-0.0266 -0.0454 -0.1793 -0.670 0.624 0.402 89 76 50 0 0
-0.0276 -0.0444 -0.1821 -0.612 0.638 0.467 110 94 67 0 0
-0.0390 -0.0341 -0.2058 -0.806 0.587 0.071 208 193 156 0 0
-0.0758 -0.0022 -0.2433 -0.459 0.727 0.510 90 79 60 0 0
-0.0760 -0.0020 -0.2448 -0.507 0.694 0.512 58 48 34 0 0
-0.0881 0.0087 -0.2640 -0.764 0.626 0.159 74 57 45 0 0
-0.1149 0.0324 -0.3034 -0.751 0.594 0.290 70 58 51 0 0
-0.1152 0.0327 -0.3048 -0.715 0.640 0.283 88 74 62 0 0
-0.1251 0.0412 -0.3131 -0.572 0.692 0.440 54 44 29 0 0
-0.1259 0.0420 -0.3159 -0.622 0.756 0.202 46 38 27 0 0
-0.1305 0.0460 -0.3216 -0.538 0.715 0.447 110 100 81 0 0
-0.1303 0.0471 -0.3545 -0.701 0.476 0.531 12 7 5 0 0
-0.1326 0.0494 -0.3628 -0.668 0.497 0.554 52 39 21 0 0
-0.1333 0.0500 -0.3641 -0.668 0.497 0.554 101 86 62 0 0
-0.1386 0.0550 -0.3805 -0.465 0.714 0.524 111 97 73 0 0
-0.1394 0.0557 -0.3817 -0.480 0.816 0.323 142 128 100 0 0
-0.1396 0.0560 -0.3832 -0.327 0.787 0.523 77 60 34 0 0
-0.1480 0.0643 -0.4190 -0.461 0.852 0.250 79 63 40 0 0
-0.1556 0.0711 -0.4325 -0.228 0.830 0.509 71 56 31 0 0
-0.1575 0.0731 -0.4427 -0.316 0.916 0.246 89 76 58 0 0
-0.1413 0.0635 -0.5355 -0.887 0.430 -0.169 43 40 35 0 0
-0.1379 0.0613 -0.5487 -0.636 0.769 -0.062 51 46 43 0 0
-0.1378 0.0614 -0.5524 -0.559 0.817 -0.142 45 41 38 0 0
-0.1376 0.0613 -0.5543 -0.551 0.826 -0.118 41 37 34 0 0
-0.1374 0.0611 -0.5563 -0.548 0.829 -0.108 34 29 28 0 0
-0.1371 0.0610 -0.5583 -0.548 0.829 -0.108 28 23 21 0 0
-0.1371 0.0611 -0.5601 -0.054 0.934 0.353 26 22 18 0 0
-0.1372 0.0612 -0.5619 -0.434 0.888 0.148 38 33 30 0 0
-0.1380 0.0619 -0.5631 -0.339 0.937 0.089 40 36 32 0 0
-0.1294 0.0578 -0.6352 -0.205 0.979 -0.004 20 17 13 0 0
-0.1300 0.0583 -0.6367 -0.641 0.720 -0.265 18 15 10 0 0
-0.1279 0.0569 -0.6441 -0.953 0.263 -0.149 22 17 13 0 0
-0.1312 0.0599 -0.6530 -0.451 0.659 0.602 31 26 22 0 0
-0.1319 0.0606 -0.6543 -0.451 0.659 0.602 36 31 25 0 0
-0.1328 0.0614 -0.6555 -0.551 0.594 0.586 37 32 27 0 0
-0.1532 0.0789 -0.6721 -0.594 0.521 0.613 97 87 64 0 0
-0.1552 0.0816 -0.6995 -0.892 0.435 0.120 14 12 9 0 0
-0.1545 0.0813 -0.7040 -0.636 0.731 0.249 15 14 12 0 0
-0.1736 0.1026 -0.8412 -0.816 0.492 0.304 140 124 88 0 0
-0.1742 0.1031 -0.8427 -0.621 0.719 0.312 142 126 91 0 0
-0.1768 0.1060 -0.8610 -0.663 0.408 0.628 123 118 114 0 0
-0.1742 0.1042 -0.8706 -0.920 0.219 0.324 168 166 169 0 0
-0.1750 0.1049 -0.8718 -0.756 0.184 0.628 174 172 174 0 0
-0.0252 -0.0448 -0.1716 -0.920 0.367 0.141 114 99 70 0 0
-0.0253 -0.0445 -0.1777 -0.729 0.653 0.205 110 96 68 0 0
-0.0255 -0.0443 -0.1792 -0.620 0.652 0.437 85 73 48 0 0
-0.0687 -0.0062 -0.2406 0.009 0.436 0.900 125 112 91 0 0
-0.0731 -0.0026 -0.2423 -0.247 0.577 0.778 113 102 78 0 0
-0.0737 -0.0020 -0.2436 -0.395 0.621 0.678 99 88 69 0 0
-0.0741 -0.0016 -0.2451 -0.539 0.591 0.601 61 50 38 0 0
-0.0764 0.0004 -0.2474 -0.468 0.709 0.528 33 27 23 0 0
-0.0870 0.0098 -0.2640 -0.815 0.561 0.146 74 58 44 0 0
-0.1144 0.0340 -0.3032 -0.661 0.601 0.449 55 39 28 0 0
-0.1256 0.0438 -0.3186 -0.639 0.612 0.466 95 84 70 0 0
-0.1295 0.0477 -0.3355 -0.640 0.552 0.534 34 24 11 0 0
-0.1293 0.0475 -0.3372 -0.599 0.535 0.596 48 34 18 0 0
-0.1298 0.0481 -0.3385 -0.552 0.647 0.526 67 51 31 0 0
-0.1302 0.0484 -0.3399 -0.632 0.720 0.287 74 59 36 0 0
-0.1294 0.0484 -0.3560 -0.750 0.462 0.473 12 8 6 0 0
-0.1309 0.0500 -0.3664 -0.394 0.775 0.493 114 99 69 0 0
-0.1373 0.0560 -0.3806 -0.394 0.735 0.552 121 109 87 0 0
-0.1375 0.0561 -0.3822 -0.327 0.787 0.523 74 61 38 0 0
-0.1573 0.0753 -0.4504 0.078 0.910 0.407 72 66 54 0 0
-0.1611 0.0786 -0.4563 -0.008 0.878 0.478 87 78 70 0 0
-0.1620 0.0794 -0.4574 -0.195 0.929 0.314 88 78 69 0 0
-0.1321 0.0566 -0.4989 -0.801 0.376 0.465 34 29 26 0 0
-0.1365 0.0605 -0.5064 -0.859 0.144 0.492 37 32 28 0 0
-0.1407 0.0650 -0.5334 -0.855 0.435 0.282 57 54 50 0 0
-0.1406 0.0650 -0.5353 -0.897 0.432 -0.095 58 55 50 0 0
-0.1371 0.0625 -0.5449 -0.800 0.585 -0.130 49 44 41 0 0
-0.1354 0.0617 -0.5588 -0.809 0.404 -0.428 37 32 29 0 0
-0.1353 0.0617 -0.5606 -0.528 0.791 0.310 45 40 36 0 0
-0.1357 0.0620 -0.5622 -0.529 0.747 0.403 44 39 35 0 0
-0.1363 0.0626 -0.5636 -0.339 0.937 0.089 37 32 29 0 0
-0.1440 0.0694 -0.5740 -0.011 0.420 0.907 54 49 41 0 0
-0.1281 0.0588 -0.6334 -0.091 0.922 0.377 22 19 14 0 0
-0.1285 0.0591 -0.6351 -0.063 0.963 0.263 20 18 13 0 0
-0.1291 0.0597 -0.6365 -0.766 0.639 -0.069 20 17 12 0 0
-0.1278 0.0589 -0.6433 -0.900 0.401 -0.167 26 21 17 0 0
-0.1313 0.0623 -0.6558 -0.537 0.462 0.706 44 39 33 0 0
-0.1511 0.0793 -0.6731 -0.468 0.764 0.445 104 91 65 0 0
-0.1528 0.0807 -0.6734 -0.601 0.527 0.601 98 84 61 0 0
-0.1543 0.0830 -0.6992 -0.882 0.470 0.029 13 12 10 0 0
-0.1706 0.1017 -0.8287 -0.685 0.714 -0.144 93 77 53 0 0
-0.1736 0.1048 -0.8421 -0.828 0.502 0.251 141 126 90 0 0
