ply
format ascii 1.0
element vertex 831
property float x
property float y
property float z
property float nx
property float ny
property float nz
property uchar diffuse_red
property uchar diffuse_green
property uchar diffuse_blue
property uchar class
property uchar detection
end_header
-0.2074 -0.0640 -0.6824 -0.634 -0.568 0.525 113 99 74 0 0
-0.2081 -0.0645 -0.6837 -0.634 -0.568 0.525 94 80 54 0 0
-0.2105 -0.0666 -0.6851 -0.555 -0.561 0.614 52 42 24 0 0
-0.2151 -0.0680 -0.7147 -0.275 -0.464 0.842 94 79 55 0 0
-0.2167 -0.0693 -0.7170 -0.428 -0.894 -0.132 124 105 77 0 0
-0.2166 -0.0690 -0.7192 -0.428 -0.894 -0.132 116 97 63 0 0
-0.2258 -0.0780 -0.7170 -0.340 -0.607 0.718 154 135 87 0 0
-0.2094 -0.0551 -0.7895 -0.595 -0.534 0.601 48 38 25 0 0
-0.2265 -0.0687 -0.8166 -0.990 -0.009 0.143 82 69 40 0 0
-0.2267 -0.0688 -0.8185 -0.990 -0.009 0.143 98 83 54 0 0
-0.2282 -0.0690 -0.8300 -0.891 -0.384 0.244 204 182 136 0 0
-0.2307 -0.0704 -0.8402 -0.528 -0.799 0.289 127 107 67 0 0
-0.2381 -0.0779 -0.8347 -0.738 -0.170 0.653 150 132 89 0 0
-0.2384 -0.0767 -0.8501 -0.887 -0.103 0.450 77 66 44 0 0
-0.2372 -0.0747 -0.8586 -0.982 0.037 0.185 36 33 24 0 0
-0.0872 0.0094 -0.2507 -0.832 0.374 0.409 167 161 149 0 0
-0.0980 0.0001 -0.2609 -0.654 0.259 0.711 94 79 54 0 0
-0.1074 -0.0086 -0.2637 -0.815 0.220 0.537 161 140 118 0 0
-0.1108 -0.0116 -0.2656 -0.758 -0.175 0.629 187 170 141 0 0
-0.1120 -0.0126 -0.2667 -0.745 -0.395 0.538 169 153 118 0 0
-0.1144 -0.0143 -0.2733 -0.813 -0.471 0.342 35 26 14 0 0
-0.1141 -0.0139 -0.2749 -0.712 -0.205 0.672 24 18 11 0 0
-0.1144 -0.0140 -0.2763 -0.865 -0.368 0.341 36 29 20 0 0
-0.1204 -0.0190 -0.2832 -0.652 -0.412 0.636 111 97 76 0 0
-0.1212 -0.0197 -0.2844 -0.652 -0.412 0.636 113 100 79 0 0
-0.1335 -0.0284 -0.3144 -0.644 -0.632 0.430 99 89 72 0 0
-0.1341 -0.0289 -0.3156 -0.769 -0.491 0.410 128 113 91 0 0
-0.1449 -0.0372 -0.3355 -0.666 -0.583 0.464 54 43 24 0 0
-0.1478 -0.0388 -0.3465 -0.892 -0.387 0.233 33 26 18 0 0
-0.1481 -0.0390 -0.3479 -0.640 -0.670 0.376 51 45 34 0 0
-0.1450 -0.0347 -0.3604 -0.983 -0.170 -0.070 54 44 34 0 0
-0.1449 -0.0345 -0.3620 -0.983 -0.170 -0.070 55 42 33 0 0
-0.1447 -0.0341 -0.3637 -0.966 -0.197 -0.165 50 37 28 0 0
-0.1434 -0.0326 -0.3660 -0.839 -0.327 -0.435 55 41 30 0 0
-0.1438 -0.0308 -0.3882 -0.770 -0.619 0.155 50 31 17 0 0
-0.1438 -0.0306 -0.3899 -0.645 -0.752 0.131 58 38 24 0 0
-0.1450 -0.0300 -0.4072 -0.744 -0.620 0.248 65 45 23 0 0
-0.1404 -0.0207 -0.4556 -0.683 -0.698 -0.213 42 37 33 0 0
-0.1341 -0.0129 -0.4737 -0.940 0.212 0.266 16 12 11 0 0
-0.1421 -0.0196 -0.4826 -0.499 -0.757 0.422 42 36 30 0 0
-0.1419 -0.0193 -0.4844 -0.543 -0.621 0.565 36 31 26 0 0
-0.1474 -0.0242 -0.4878 -0.566 -0.273 0.778 56 50 45 0 0
-0.1485 -0.0251 -0.4889 -0.566 -0.273 0.778 82 75 69 0 0
-0.1493 -0.0257 -0.4901 -0.750 -0.509 0.423 61 54 44 0 0
-0.1499 -0.0262 -0.4914 -0.798 -0.434 0.419 72 62 52 0 0
-0.1504 -0.0265 -0.4928 -0.798 -0.434 0.419 58 49 41 0 0
-0.1952 -0.0699 -0.4870 0.294 -0.429 0.854 25 20 17 0 0
-0.2181 -0.0892 -0.5120 -0.559 -0.820 0.126 90 77 53 0 0
-0.2203 -0.0910 -0.5154 -0.536 -0.536 0.652 108 91 69 0 0
-0.2205 -0.0909 -0.5187 -0.644 -0.443 0.624 165 154 127 0 0
-0.2215 -0.0916 -0.5196 -0.494 -0.441 0.750 151 138 106 0 0
-0.2238 -0.0933 -0.5246 -0.800 -0.447 0.401 96 83 58 0 0
-0.2251 -0.0946 -0.5252 -0.726 -0.479 0.494 76 63 41 0 0
-0.2261 -0.0951 -0.5296 -0.420 -0.877 0.232 65 52 31 0 0
-0.2275 -0.0946 -0.5475 -0.500 -0.859 0.114 142 120 79 0 0
-0.2151 -0.0791 -0.5836 -0.870 -0.370 0.325 64 53 40 0 0
-0.2160 -0.0799 -0.5846 -0.934 -0.141 0.329 52 39 23 0 0
-0.2233 -0.0842 -0.6110 -0.851 -0.520 0.078 109 94 70 0 0
-0.2238 -0.0843 -0.6143 -0.868 -0.483 -0.120 111 96 66 0 0
-0.2124 -0.0656 -0.6922 -0.847 -0.480 0.228 79 70 48 0 0
-0.2173 -0.0677 -0.7174 -0.657 -0.754 -0.012 122 103 75 0 0
-0.2045 -0.0483 -0.7879 -0.859 -0.072 0.508 19 13 6 0 0
-0.2120 -0.0554 -0.7897 -0.608 -0.603 0.517 39 32 23 0 0
-0.2127 -0.0559 -0.7910 -0.638 -0.601 0.481 49 41 30 0 0
-0.2263 -0.0663 -0.8159 -0.957 0.046 0.286 78 63 38 0 0
-0.2266 -0.0665 -0.8177 -0.997 -0.061 0.038 95 81 53 0 0
-0.2269 -0.0666 -0.8195 -0.990 -0.009 0.143 103 91 60 0 0
-0.2285 -0.0671 -0.8287 -0.933 -0.298 0.200 200 175 125 0 0
-0.2288 -0.0673 -0.8305 -0.933 -0.298 0.200 221 198 152 0 0
-0.2378 -0.0728 -0.8615 -0.957 0.078 0.278 80 76 66 0 0
-0.0984 0.0018 -0.2610 -0.609 0.304 0.732 116 101 80 0 0
-0.1152 -0.0131 -0.2733 -0.861 -0.293 0.417 40 27 18 0 0
-0.1212 -0.0178 -0.2831 -0.672 -0.426 0.605 91 79 65 0 0
-0.1288 -0.0240 -0.2938 -0.819 -0.313 0.481 41 29 21 0 0
-0.1311 -0.0252 -0.3035 -0.773 -0.283 0.568 52 43 26 0 0
-0.1318 -0.0257 -0.3047 -0.855 -0.309 0.416 96 87 71 0 0
-0.1341 -0.0274 -0.3099 -0.851 -0.120 0.511 86 76 60 0 0
-0.1451 -0.0355 -0.3342 -0.615 -0.633 0.471 125 112 85 0 0
-0.1456 -0.0358 -0.3355 -0.723 -0.492 0.484 64 53 31 0 0
-0.1462 -0.0362 -0.3368 -0.723 -0.492 0.484 50 41 25 0 0
-0.1464 -0.0363 -0.3382 -0.813 -0.551 0.186 49 40 28 0 0
-0.1491 -0.0381 -0.3463 -0.619 -0.646 0.447 62 54 44 0 0
-0.1491 -0.0379 -0.3478 -0.613 -0.693 0.379 63 55 43 0 0
-0.1456 -0.0333 -0.3605 -0.909 -0.387 -0.156 46 36 26 0 0
-0.1455 -0.0330 -0.3622 -0.909 -0.387 -0.156 53 41 31 0 0
-0.1451 -0.0324 -0.3639 -0.887 -0.401 -0.227 56 43 30 0 0
-0.1439 -0.0311 -0.3661 -0.841 -0.348 -0.414 64 50 36 0 0
-0.1448 -0.0297 -0.3881 -0.719 -0.648 0.252 61 42 27 0 0
-0.1449 -0.0296 -0.3897 -0.631 -0.730 0.264 61 41 27 0 0
-0.1412 -0.0193 -0.4557 -0.733 -0.672 -0.107 36 31 27 0 0
-0.1432 -0.0184 -0.4842 -0.607 -0.579 0.545 35 32 27 0 0
-0.1508 -0.0249 -0.4914 -0.824 -0.448 0.347 64 54 45 0 0
-0.1576 -0.0308 -0.4973 -0.914 0.041 0.404 67 61 58 0 0
-0.1978 -0.0705 -0.4857 0.176 -0.476 0.862 36 30 23 0 0
-0.2281 -0.0947 -0.5321 -0.492 -0.528 0.692 74 60 38 0 0
-0.2285 -0.0937 -0.5456 -0.500 -0.859 0.114 142 122 85 0 0
-0.2287 -0.0938 -0.5472 -0.500 -0.859 0.114 135 112 73 0 0
-0.2140 -0.0762 -0.5817 -0.976 -0.043 0.213 53 48 40 0 0
-0.2141 -0.0761 -0.5835 -0.946 -0.083 0.314 60 52 44 0 0
-0.2151 -0.0770 -0.5844 -0.930 -0.368 -0.005 73 64 51 0 0
-0.2054 -0.0579 -0.6805 -0.840 -0.499 0.213 90 80 60 0 0
-0.2131 -0.0642 -0.6904 -0.524 -0.617 0.587 47 37 23 0 0
-0.2046 -0.0467 -0.7824 -0.905 -0.423 -0.044 38 31 19 0 0
-0.2051 -0.0469 -0.7861 -0.893 -0.386 0.232 18 12 8 0 0
-0.2138 -0.0547 -0.7909 -0.795 -0.417 0.441 29 25 20 0 0
-0.2149 -0.0556 -0.7918 -0.656 -0.645 0.392 39 34 27 0 0
-0.2154 -0.0560 -0.7933 -0.656 -0.645 0.392 49 42 31 0 0
-0.2160 -0.0564 -0.7948 -0.700 -0.613 0.368 65 57 40 0 0
-0.2266 -0.0645 -0.8146 -0.797 -0.265 0.542 94 79 48 0 0
-0.2270 -0.0647 -0.8162 -0.933 -0.313 0.176 94 80 50 0 0
-0.2273 -0.0648 -0.8181 -0.942 -0.328 -0.073 95 82 55 0 0
-0.2293 -0.0654 -0.8312 -0.908 -0.330 0.259 199 179 134 0 0
-0.2392 -0.0744 -0.8359 -0.858 -0.265 0.441 141 126 87 0 0
-0.2329 -0.0670 -0.8490 -0.841 -0.538 -0.055 115 103 76 0 0
-0.2327 -0.0666 -0.8516 -0.757 -0.574 0.314 95 83 60 0 0
-0.2391 -0.0710 -0.8681 -0.577 0.014 0.817 154 151 148 0 0
-0.1220 -0.0165 -0.2831 -0.712 -0.367 0.599 98 89 71 0 0
-0.1346 -0.0256 -0.3130 -0.949 -0.250 0.193 92 80 64 0 0
-0.1399 -0.0290 -0.3292 -0.840 -0.498 0.213 79 68 52 0 0
-0.1469 -0.0351 -0.3353 -0.756 -0.441 0.483 110 100 72 0 0
-0.1472 -0.0352 -0.3367 -0.691 -0.545 0.475 83 70 48 0 0
-0.1472 -0.0351 -0.3382 -0.813 -0.551 0.186 77 62 46 0 0
-0.1494 -0.0361 -0.3481 -0.879 -0.358 0.314 50 39 29 0 0
-0.1460 -0.0316 -0.3607 -0.931 -0.339 -0.138 62 51 41 0 0
-0.1460 -0.0314 -0.3623 -0.887 -0.401 -0.227 58 46 36 0 0
-0.1457 -0.0310 -0.3640 -0.887 -0.401 -0.227 77 64 49 0 0
-0.1438 -0.0282 -0.3730 -0.901 -0.318 0.296 70 49 26 0 0
-0.1449 -0.0282 -0.3837 -0.854 -0.506 0.120 73 49 27 0 0
-0.1454 -0.0284 -0.3866 -0.792 -0.566 0.231 46 27 13 0 0
-0.1458 -0.0285 -0.3881 -0.746 -0.557 0.366 46 27 16 0 0
-0.1460 -0.0286 -0.3896 -0.659 -0.722 0.212 51 33 19 0 0
-0.1401 -0.0159 -0.4587 -0.976 -0.034 -0.214 51 47 43 0 0
-0.1361 -0.0100 -0.4788 -0.613 -0.221 0.759 7 5 6 0 0
-0.1576 -0.0286 -0.4979 -0.872 0.017 0.489 71 65 62 0 0
-0.1813 -0.0517 -0.4950 0.446 -0.005 0.895 48 41 30 0 0
-0.2152 -0.0847 -0.4902 -0.536 -0.835 0.122 129 123 90 0 0
-0.2155 -0.0848 -0.4917 -0.536 -0.835 0.122 172 161 128 0 0
-0.2264 -0.0920 -0.5238 -0.751 -0.532 0.391 60 47 26 0 0
-0.2268 -0.0922 -0.5252 -0.600 -0.554 0.577 61 49 30 0 0
-0.2301 -0.0932 -0.5467 -0.551 -0.833 0.039 131 112 78 0 0
-0.2140 -0.0741 -0.5825 -0.725 0.334 0.602 50 45 40 0 0
-0.2162 -0.0760 -0.5842 -0.475 -0.782 0.403 72 66 52 0 0
-0.2257 -0.0828 -0.6067 -0.788 -0.240 0.567 90 79 51 0 0
-0.2250 -0.0818 -0.6093 -0.899 -0.421 0.118 94 83 55 0 0
-0.2254 -0.0821 -0.6107 -0.753 -0.574 0.323 121 109 81 0 0
-0.2062 -0.0565 -0.6806 -0.840 -0.499 0.213 99 89 69 0 0
-0.2171 -0.0652 -0.6973 -0.668 -0.683 0.297 117 102 73 0 0
-0.2167 -0.0646 -0.6996 -0.645 -0.330 0.689 132 117 88 0 0
-0.2051 -0.0448 -0.7830 -0.977 -0.206 0.060 67 56 41 0 0
-0.2051 -0.0443 -0.7875 -0.827 0.107 0.551 27 20 13 0 0
-0.2163 -0.0546 -0.7934 -0.405 -0.803 0.437 30 23 19 0 0
-0.2170 -0.0551 -0.7948 -0.584 -0.684 0.437 34 28 20 0 0
-0.2175 -0.0553 -0.7964 -0.665 -0.484 0.568 46 37 26 0 0
-0.2197 -0.0560 -0.8113 -0.610 -0.696 0.378 84 69 40 0 0
-0.2274 -0.0630 -0.8148 -0.943 -0.278 0.181 103 89 57 0 0
-0.2296 -0.0636 -0.8298 -0.883 -0.401 0.245 198 182 135 0 0
-0.2298 -0.0635 -0.8319 -0.922 -0.257 0.289 167 153 109 0 0
-0.2343 -0.0663 -0.8463 -0.693 -0.720 0.013 111 98 71 0 0
-0.2344 -0.0662 -0.8484 -0.639 -0.766 0.076 87 76 49 0 0
-0.2346 -0.0662 -0.8504 -0.884 -0.468 -0.001 79 69 45 0 0
-0.2380 -0.0680 -0.8641 -0.977 0.083 0.194 109 105 97 0 0
-0.0886 0.0145 -0.2541 0.185 -0.973 0.140 175 175 175 0 0
-0.1138 -0.0076 -0.2743 -0.892 -0.357 0.278 47 34 23 0 0
-0.1140 -0.0076 -0.2758 -0.698 -0.396 0.597 41 31 25 0 0
-0.1143 -0.0077 -0.2772 -0.473 -0.473 0.744 64 53 47 0 0
-0.1272 -0.0187 -0.2905 -0.742 -0.201 0.640 85 70 46 0 0
-0.1357 -0.0245 -0.3144 -0.642 -0.506 0.576 125 113 98 0 0
-0.1364 -0.0250 -0.3157 -0.642 -0.506 0.576 105 95 77 0 0
-0.1396 -0.0269 -0.3266 -0.732 -0.346 0.587 32 25 14 0 0
-0.1403 -0.0275 -0.3278 -0.732 -0.346 0.587 61 52 40 0 0
-0.1406 -0.0276 -0.3292 -0.575 -0.713 0.403 95 81 65 0 0
-0.1471 -0.0334 -0.3340 -0.788 -0.441 0.430 151 142 114 0 0
-0.1477 -0.0338 -0.3353 -0.756 -0.441 0.483 103 93 69 0 0
-0.1482 -0.0342 -0.3366 -0.756 -0.441 0.483 91 79 58 0 0
-0.1487 -0.0341 -0.3425 -0.925 -0.362 0.119 32 24 15 0 0
-0.1495 -0.0342 -0.3484 -0.935 -0.096 0.342 46 37 27 0 0
-0.1465 -0.0301 -0.3593 -0.874 -0.310 -0.374 57 47 34 0 0
-0.1462 -0.0297 -0.3610 -0.962 -0.273 -0.031 60 47 37 0 0
-0.1462 -0.0295 -0.3626 -0.940 -0.311 -0.140 58 46 35 0 0
-0.1461 -0.0293 -0.3643 -0.915 -0.364 -0.173 73 59 45 0 0
-0.1441 -0.0264 -0.3732 -0.646 -0.563 0.515 76 55 33 0 0
-0.1447 -0.0268 -0.3746 -0.795 -0.572 0.204 91 71 44 0 0
-0.1457 -0.0269 -0.3837 -0.709 -0.677 0.200 64 42 21 0 0
-0.1463 -0.0271 -0.3866 -0.603 -0.744 0.288 53 36 21 0 0
-0.1495 -0.0263 -0.4244 -0.695 -0.477 0.538 77 62 40 0 0
-0.1501 -0.0267 -0.4257 -0.899 -0.280 0.336 86 71 48 0 0
-0.1407 -0.0142 -0.4589 -0.973 0.223 -0.061 38 34 32 0 0
-0.1391 -0.0125 -0.4616 -0.972 0.058 -0.227 27 23 22 0 0
-0.1354 -0.0071 -0.4781 -0.777 -0.388 0.496 9 8 7 0 0
-0.2153 -0.0827 -0.4908 -0.335 -0.451 0.827 159 148 119 0 0
-0.2214 -0.0872 -0.5046 -0.739 -0.674 -0.004 144 129 99 0 0
-0.2214 -0.0870 -0.5064 -0.754 -0.643 0.136 112 98 70 0 0
-0.2328 -0.0947 -0.5381 -0.563 -0.806 0.183 102 91 64 0 0
-0.2195 -0.0762 -0.5930 -0.882 -0.115 0.458 59 44 25 0 0
-0.2151 -0.0659 -0.6505 -0.875 -0.035 -0.482 88 79 64 0 0
-0.2178 -0.0639 -0.6954 -0.729 -0.569 0.381 89 77 53 0 0
-0.2183 -0.0642 -0.6969 -0.729 -0.569 0.381 77 64 43 0 0
-0.2175 -0.0631 -0.6999 -0.641 -0.204 0.740 80 69 51 0 0
-0.2184 -0.0638 -0.7009 -0.799 0.024 0.601 79 71 50 0 0
-0.2191 -0.0644 -0.7022 -0.879 0.047 0.474 73 65 40 0 0
-0.2046 -0.0415 -0.7892 -0.647 0.041 0.761 52 44 28 0 0
-0.2053 -0.0420 -0.7906 -0.541 0.132 0.831 32 27 15 0 0
-0.2124 -0.0486 -0.7929 -0.592 -0.256 0.765 20 15 10 0 0
-0.2179 -0.0531 -0.7994 -0.677 -0.681 0.281 40 34 21 0 0
-0.2355 -0.0653 -0.8459 -0.709 -0.705 0.036 93 82 54 0 0
-0.2354 -0.0649 -0.8484 -0.818 -0.574 -0.049 75 64 38 0 0
-0.1056 0.0014 -0.2654 -0.768 0.230 0.598 150 131 98 0 0
-0.1146 -0.0061 -0.2759 -0.511 -0.616 0.599 62 51 46 0 0
-0.1153 -0.0066 -0.2771 -0.473 -0.473 0.744 99 86 78 0 0
-0.1235 -0.0138 -0.2847 -0.775 -0.321 0.545 198 180 144 0 0
-0.1250 -0.0150 -0.2871 -0.768 -0.324 0.552 169 155 122 0 0
-0.1267 -0.0164 -0.2895 -0.797 -0.484 0.362 99 85 59 0 0
-0.1278 -0.0173 -0.2906 -0.731 -0.276 0.625 82 70 42 0 0
-0.1319 -0.0204 -0.2996 -0.721 -0.631 0.286 93 84 65 0 0
-0.1359 -0.0228 -0.3132 -0.730 -0.581 0.359 135 127 109 0 0
-0.1363 -0.0230 -0.3145 -0.722 -0.546 0.426 116 107 88 0 0
-0.1370 -0.0235 -0.3158 -0.547 -0.618 0.565 112 103 85 0 0
-0.1412 -0.0265 -0.3262 -0.840 -0.136 0.525 85 76 64 0 0
-0.1410 -0.0261 -0.3279 -0.732 -0.346 0.587 80 70 56 0 0
-0.1479 -0.0321 -0.3340 -0.788 -0.441 0.430 81 72 51 0 0
-0.1484 -0.0325 -0.3353 -0.756 -0.441 0.483 66 57 40 0 0
-0.1498 -0.0338 -0.3362 -0.708 -0.571 0.415 72 61 45 0 0
-0.1498 -0.0333 -0.3408 -0.795 -0.599 0.097 49 37 21 0 0
-0.1500 -0.0333 -0.3423 -0.795 -0.599 0.097 46 36 25 0 0
-0.1503 -0.0333 -0.3453 -0.792 -0.611 -0.015 25 18 11 0 0
-0.1468 -0.0283 -0.3611 -0.940 -0.311 -0.140 51 39 26 0 0
-0.1467 -0.0280 -0.3628 -0.940 -0.311 -0.140 62 50 34 0 0
-0.1450 -0.0253 -0.3732 -0.799 -0.488 0.353 78 58 37 0 0
-0.1455 -0.0256 -0.3746 -0.799 -0.488 0.353 85 62 37 0 0
-0.1467 -0.0258 -0.3836 -0.709 -0.677 0.200 68 47 26 0 0
-0.1464 -0.0253 -0.3854 -0.751 -0.572 0.331 106 87 63 0 0
-0.1474 -0.0262 -0.3865 -0.603 -0.744 0.288 74 58 39 0 0
-0.1390 -0.0101 -0.4623 -0.951 -0.055 -0.305 28 24 23 0 0
-0.1360 -0.0050 -0.4837 -0.774 -0.599 0.203 6 4 5 0 0
-0.1393 -0.0082 -0.4833 -0.878 -0.034 0.478 10 7 6 0 0
-0.1400 -0.0088 -0.4846 -0.857 -0.160 0.489 16 12 11 0 0
-0.1409 -0.0095 -0.4858 -0.655 0.027 0.755 21 17 14 0 0
-0.1787 -0.0448 -0.4964 0.342 0.143 0.929 61 49 38 0 0
-0.1841 -0.0502 -0.4942 0.278 0.183 0.943 62 49 40 0 0
-0.2159 -0.0813 -0.4910 -0.509 -0.405 0.760 107 92 63 0 0
-0.2224 -0.0860 -0.5062 -0.710 -0.670 0.216 105 90 63 0 0
-0.2327 -0.0915 -0.5477 -0.562 -0.827 0.034 153 130 96 0 0
-0.2328 -0.0915 -0.5493 -0.562 -0.827 0.034 167 147 110 0 0
-0.2243 -0.0751 -0.6268 -0.944 -0.303 -0.130 130 113 85 0 0
-0.2151 -0.0639 -0.6495 -0.983 -0.008 -0.182 86 78 61 0 0
-0.2138 -0.0622 -0.6529 -0.855 -0.241 -0.460 74 68 55 0 0
-0.2030 -0.0492 -0.6779 -0.532 -0.555 0.639 95 85 63 0 0
-0.2041 -0.0502 -0.6787 -0.476 -0.489 0.731 93 82 61 0 0
-0.2083 -0.0541 -0.6804 -0.678 -0.734 -0.045 92 80 57 0 0
-0.2086 -0.0542 -0.6821 -0.820 -0.556 -0.137 79 67 45 0 0
-0.2086 -0.0538 -0.6861 -0.876 -0.481 0.029 91 78 55 0 0
-0.2189 -0.0623 -0.6994 -0.776 -0.316 0.546 79 68 55 0 0
-0.2194 -0.0625 -0.7029 -0.819 -0.245 0.519 62 53 29 0 0
-0.2203 -0.0632 -0.7039 -0.887 -0.208 0.412 101 89 55 0 0
-0.2209 -0.0637 -0.7053 -0.888 -0.339 0.310 133 117 84 0 0
-0.2308 -0.0705 -0.7311 -0.723 -0.597 0.347 121 102 68 0 0
-0.2049 -0.0391 -0.7923 -0.420 -0.472 0.776 66 58 40 0 0
-0.2066 -0.0405 -0.7947 -0.556 -0.382 0.738 26 19 11 0 0
-0.2143 -0.0480 -0.7940 -0.468 -0.172 0.867 25 17 15 0 0
-0.2163 -0.0497 -0.7960 -0.521 -0.242 0.819 26 18 15 0 0
-0.2172 -0.0504 -0.7971 -0.687 -0.153 0.710 27 19 16 0 0
-0.2181 -0.0512 -0.7981 -0.762 -0.254 0.596 27 21 15 0 0
-0.2191 -0.0521 -0.7991 -0.538 -0.836 0.109 31 26 17 0 0
-0.2195 -0.0521 -0.8030 -0.657 -0.725 0.205 44 35 24 0 0
-0.2194 -0.0517 -0.8053 -0.826 -0.220 0.519 64 54 38 0 0
-0.2201 -0.0523 -0.8067 -0.826 -0.220 0.519 79 68 49 0 0
-0.2210 -0.0530 -0.8078 -0.685 -0.392 0.615 86 73 52 0 0
-0.2220 -0.0538 -0.8088 -0.496 -0.766 0.410 95 81 56 0 0
-0.2255 -0.0561 -0.8198 -0.717 -0.483 0.503 86 74 41 0 0
-0.2364 -0.0639 -0.8461 -0.817 -0.575 0.032 77 68 39 0 0
-0.2433 -0.0686 -0.8641 -0.495 0.068 0.866 159 157 155 0 0
-0.1241 -0.0123 -0.2847 -0.746 -0.291 0.599 180 161 123 0 0
-0.1248 -0.0129 -0.2860 -0.746 -0.291 0.599 193 175 139 0 0
-0.1279 -0.0154 -0.2908 -0.825 -0.402 0.396 98 82 56 0 0
-0.1310 -0.0179 -0.2957 -0.735 -0.359 0.576 133 119 90 0 0
-0.1324 -0.0189 -0.2982 -0.745 -0.377 0.551 87 72 49 0 0
-0.1364 -0.0214 -0.3118 -0.879 -0.345 0.328 118 108 92 0 0
-0.1368 -0.0216 -0.3131 -0.730 -0.581 0.359 139 128 109 0 0
-0.1375 -0.0221 -0.3144 -0.410 -0.685 0.602 163 151 131 0 0
-0.1382 -0.0227 -0.3156 -0.340 -0.726 0.598 172 160 142 0 0
-0.1396 -0.0239 -0.3180 -0.498 -0.639 0.587 70 61 48 0 0
-0.1424 -0.0255 -0.3276 -0.543 -0.387 0.745 100 87 71 0 0
-0.1454 -0.0284 -0.3278 -0.824 -0.517 0.231 174 163 140 0 0
-0.1471 -0.0296 -0.3316 -0.517 -0.580 0.630 236 229 207 0 0
-0.1479 -0.0303 -0.3328 -0.526 -0.542 0.655 150 135 108 0 0
-0.1488 -0.0310 -0.3340 -0.685 -0.592 0.425 89 79 59 0 0
-0.1503 -0.0324 -0.3348 -0.809 -0.346 0.475 47 38 25 0 0
-0.1509 -0.0327 -0.3376 -0.853 -0.484 0.195 64 53 38 0 0
-0.1501 -0.0315 -0.3411 -0.647 -0.740 0.184 78 65 47 0 0
-0.1460 -0.0242 -0.3731 -0.742 -0.353 0.570 82 64 45 0 0
-0.1477 -0.0255 -0.3755 -0.808 -0.589 0.012 68 48 26 0 0
-0.1475 -0.0236 -0.3918 -0.794 -0.558 0.241 47 30 15 0 0
-0.1478 -0.0238 -0.3932 -0.705 -0.655 0.271 63 46 30 0 0
-0.1481 -0.0239 -0.3947 -0.573 -0.788 0.225 55 36 19 0 0
-0.1504 -0.0206 -0.4470 -0.610 -0.769 -0.192 34 26 18 0 0
-0.1387 -0.0076 -0.4630 -0.957 -0.071 -0.281 25 21 20 0 0
-0.1378 -0.0044 -0.4849 -0.861 -0.503 -0.081 10 8 7 0 0
-0.1554 -0.0197 -0.5014 -0.735 -0.628 0.254 42 37 33 0 0
-0.1858 -0.0499 -0.4936 0.256 0.231 0.939 64 52 42 0 0
-0.2038 -0.0684 -0.4838 -0.126 -0.083 0.989 111 100 79 0 0
-0.2199 -0.0829 -0.4936 -0.705 -0.449 0.549 132 119 94 0 0
-0.2205 -0.0833 -0.4949 -0.782 -0.491 0.383 110 93 64 0 0
-0.2221 -0.0844 -0.4987 -0.514 -0.666 0.540 122 105 73 0 0
-0.2275 -0.0878 -0.5165 -0.288 -0.823 0.490 93 78 57 0 0
-0.2341 -0.0918 -0.5385 -0.483 -0.773 0.410 98 87 58 0 0
-0.2345 -0.0921 -0.5399 -0.566 -0.802 0.191 93 79 49 0 0
-0.2339 -0.0907 -0.5474 -0.562 -0.827 0.034 151 133 97 0 0
-0.2238 -0.0752 -0.6018 -0.926 -0.049 0.375 80 68 42 0 0
-0.2080 -0.0517 -0.6797 -0.785 -0.099 0.612 118 106 83 0 0
-0.2085 -0.0520 -0.6812 -0.824 -0.082 0.560 103 91 65 0 0
-0.2092 -0.0526 -0.6825 -0.852 -0.517 0.084 65 53 31 0 0
-0.2106 -0.0535 -0.6870 -0.909 -0.198 0.366 79 67 44 0 0
-0.2117 -0.0544 -0.6879 -0.862 -0.270 0.430 109 97 73 0 0
-0.2198 -0.0610 -0.6995 -0.671 -0.351 0.653 77 66 46 0 0
-0.2214 -0.0621 -0.7038 -0.780 -0.187 0.597 73 64 36 0 0
-0.2288 -0.0675 -0.7200 -0.518 -0.326 0.790 115 99 66 0 0
-0.2285 -0.0666 -0.7265 -0.807 -0.336 0.486 112 94 63 0 0
-0.2309 -0.0685 -0.7300 -0.874 -0.345 0.341 132 115 77 0 0
-0.2163 -0.0475 -0.7950 -0.642 0.154 0.751 28 20 16 0 0
-0.2170 -0.0480 -0.7964 -0.706 -0.053 0.706 28 21 15 0 0
-0.2179 -0.0488 -0.7974 -0.815 -0.065 0.575 27 19 16 0 0
-0.2186 -0.0493 -0.7988 -0.961 -0.144 0.236 29 21 17 0 0
-0.2190 -0.0495 -0.8005 -0.935 -0.322 0.148 30 23 15 0 0
-0.2197 -0.0501 -0.8018 -0.914 -0.280 0.293 32 24 16 0 0
-0.2203 -0.0505 -0.8033 -0.881 -0.308 0.360 35 28 20 0 0
-0.2209 -0.0509 -0.8048 -0.760 -0.583 0.289 46 38 25 0 0
-0.2216 -0.0515 -0.8061 -0.766 -0.522 0.375 71 60 43 0 0
-0.2220 -0.0516 -0.8078 -0.612 -0.667 0.426 82 68 51 0 0
-0.2302 -0.0567 -0.8353 -0.758 -0.330 0.563 115 105 70 0 0
-0.2390 -0.0621 -0.8646 -0.620 0.104 0.778 128 123 119 0 0
-0.2439 -0.0669 -0.8646 -0.540 0.069 0.839 164 162 162 0 0
-0.2493 -0.0723 -0.8616 -0.416 -0.319 0.851 177 176 174 0 0
-0.1144 -0.0022 -0.2720 -0.780 -0.469 0.414 74 62 44 0 0
-0.1148 -0.0026 -0.2733 -0.761 -0.474 0.443 39 29 18 0 0
-0.1330 -0.0175 -0.2982 -0.721 -0.440 0.536 108 93 69 0 0
-0.1370 -0.0199 -0.3119 -0.665 -0.606 0.436 156 145 129 0 0
-0.1377 -0.0204 -0.3131 -0.471 -0.551 0.689 140 127 108 0 0
-0.1385 -0.0212 -0.3143 -0.471 -0.551 0.689 117 104 85 0 0
-0.1395 -0.0220 -0.3154 -0.340 -0.726 0.598 138 125 109 0 0
-0.1520 -0.0315 -0.3390 -0.802 -0.481 0.353 46 33 17 0 0
-0.1470 -0.0233 -0.3714 -0.663 -0.676 0.323 73 56 39 0 0
-0.1473 -0.0230 -0.3761 -0.568 -0.817 0.103 52 35 16 0 0
-0.1486 -0.0226 -0.3916 -0.687 -0.606 0.399 51 33 16 0 0
-0.1492 -0.0230 -0.3930 -0.481 -0.805 0.348 72 54 35 0 0
-0.1495 -0.0232 -0.3944 -0.564 -0.780 0.271 57 38 22 0 0
-0.1499 -0.0234 -0.3958 -0.622 -0.746 0.238 56 37 21 0 0
-0.1503 -0.0237 -0.3973 -0.564 -0.780 0.271 71 52 35 0 0
-0.1502 -0.0232 -0.4006 -0.692 -0.715 0.101 62 44 26 0 0
-0.1510 -0.0226 -0.4134 -0.500 -0.694 0.518 65 46 26 0 0
-0.1513 -0.0228 -0.4148 -0.651 -0.719 0.242 75 56 36 0 0
-0.1516 -0.0230 -0.4163 -0.651 -0.719 0.242 70 50 30 0 0
-0.1520 -0.0212 -0.4363 -0.587 -0.566 0.578 83 66 44 0 0
-0.1367 -0.0029 -0.4684 -0.931 0.028 -0.365 26 24 21 0 0
-0.1384 -0.0028 -0.4851 -0.626 -0.776 0.080 10 8 7 0 0
-0.1402 -0.0045 -0.4857 -0.899 -0.219 0.378 12 10 8 0 0
-0.1412 -0.0053 -0.4868 -0.745 -0.163 0.647 14 12 10 0 0
-0.1425 -0.0061 -0.4913 -0.817 -0.571 0.084 20 17 16 0 0
-0.1564 -0.0185 -0.5013 -0.735 -0.628 0.254 39 31 30 0 0
-0.1576 -0.0195 -0.5023 -0.485 -0.620 0.617 64 59 55 0 0
-0.1870 -0.0490 -0.4934 0.251 0.231 0.940 66 56 46 0 0
-0.2046 -0.0671 -0.4839 -0.078 -0.518 0.852 97 86 67 0 0
-0.2221 -0.0825 -0.4977 -0.530 -0.742 0.411 136 122 91 0 0
-0.2252 -0.0840 -0.5122 -0.901 -0.365 0.233 84 72 56 0 0
-0.2322 -0.0896 -0.5235 -0.319 -0.854 0.411 74 62 42 0 0
-0.2355 -0.0919 -0.5328 -0.624 -0.776 0.089 75 62 44 0 0
-0.2357 -0.0919 -0.5343 -0.687 -0.717 0.115 86 74 49 0 0
-0.2241 -0.0734 -0.6024 -0.941 -0.118 0.318 82 71 43 0 0
-0.2083 -0.0497 -0.6803 -0.607 -0.265 0.749 117 103 79 0 0
-0.2094 -0.0507 -0.6812 -0.392 -0.612 0.686 114 99 73 0 0
-0.2101 -0.0512 -0.6825 -0.787 -0.592 0.170 83 69 44 0 0
-0.2222 -0.0606 -0.7040 -0.850 -0.346 0.397 100 91 63 0 0
-0.2224 -0.0607 -0.7057 -0.921 -0.323 0.218 58 50 28 0 0
-0.2320 -0.0672 -0.7319 -0.803 -0.365 0.472 122 107 76 0 0
-0.2086 -0.0378 -0.7946 -0.574 -0.709 0.409 92 73 46 0 0
-0.2095 -0.0385 -0.7958 -0.568 -0.634 0.525 70 54 31 0 0
-0.2105 -0.0394 -0.7968 -0.482 -0.502 0.718 54 42 23 0 0
-0.2178 -0.0463 -0.7987 -0.696 -0.494 0.521 30 22 19 0 0
-0.2190 -0.0473 -0.7995 -0.788 -0.451 0.418 30 21 18 0 0
-0.2198 -0.0480 -0.8007 -0.831 -0.423 0.362 30 20 14 0 0
-0.2201 -0.0481 -0.8025 -0.794 -0.416 0.442 29 21 14 0 0
-0.2207 -0.0486 -0.8040 -0.794 -0.416 0.442 32 25 17 0 0
-0.2213 -0.0490 -0.8054 -0.794 -0.416 0.442 35 26 17 0 0
-0.2220 -0.0494 -0.8069 -0.819 -0.376 0.433 45 34 19 0 0
-0.2228 -0.0501 -0.8081 -0.889 -0.227 0.398 60 47 30 0 0
-0.2296 -0.0543 -0.8307 -0.855 -0.325 0.404 104 96 64 0 0
-0.2296 -0.0540 -0.8330 -0.454 -0.880 0.139 106 98 66 0 0
-0.2319 -0.0562 -0.8344 -0.569 -0.604 0.558 127 114 80 0 0
-0.2395 -0.0603 -0.8653 -0.562 0.161 0.811 138 132 130 0 0
-0.1157 -0.0013 -0.2733 -0.709 -0.417 0.569 50 37 22 0 0
-0.1164 -0.0019 -0.2745 -0.709 -0.417 0.569 61 50 39 0 0
-0.1305 -0.0136 -0.2935 -0.613 -0.291 0.734 156 139 104 0 0
-0.1322 -0.0150 -0.2958 -0.665 -0.454 0.593 91 77 54 0 0
-0.1334 -0.0159 -0.2984 -0.686 -0.580 0.439 80 68 46 0 0
-0.1329 -0.0144 -0.3077 -0.547 -0.346 0.762 37 30 17 0 0
-0.1372 -0.0182 -0.3106 -0.585 -0.561 0.586 122 112 100 0 0
-0.1379 -0.0187 -0.3118 -0.465 -0.607 0.644 144 133 117 0 0
-0.1430 -0.0222 -0.3265 -0.657 -0.295 0.694 102 88 72 0 0
-0.1452 -0.0242 -0.3271 -0.640 -0.487 0.595 184 168 146 0 0
-0.1461 -0.0250 -0.3282 -0.648 -0.563 0.512 240 229 200 0 0
-0.1468 -0.0255 -0.3294 -0.631 -0.536 0.561 227 215 184 0 0
-0.1512 -0.0296 -0.3320 -0.566 -0.536 0.627 116 103 75 0 0
-0.1519 -0.0301 -0.3333 -0.680 -0.512 0.525 93 82 62 0 0
-0.1522 -0.0302 -0.3347 -0.566 -0.656 0.500 60 49 32 0 0
-0.1528 -0.0307 -0.3359 -0.566 -0.656 0.500 60 48 36 0 0
-0.1488 -0.0240 -0.3614 -0.968 -0.239 -0.073 78 65 48 0 0
-0.1485 -0.0218 -0.3792 -0.627 -0.778 0.041 74 56 36 0 0
-0.1491 -0.0214 -0.3885 -0.583 -0.758 0.293 64 47 29 0 0
-0.1504 -0.0222 -0.3927 -0.481 -0.805 0.348 81 63 41 0 0
-0.1507 -0.0223 -0.3942 -0.564 -0.780 0.271 56 38 19 0 0
-0.1524 -0.0218 -0.4147 -0.601 -0.770 0.211 51 35 18 0 0
-0.1417 -0.0036 -0.4871 -0.707 -0.609 0.360 13 12 10 0 0
-0.1432 -0.0046 -0.4914 -0.877 -0.479 -0.035 19 17 15 0 0
-0.1574 -0.0173 -0.5013 -0.816 -0.525 0.243 25 19 17 0 0
-0.1582 -0.0179 -0.5025 -0.628 -0.474 0.617 54 49 46 0 0
-0.1875 -0.0473 -0.4937 0.180 0.295 0.938 59 49 40 0 0
-0.2056 -0.0660 -0.4838 -0.182 0.002 0.983 108 96 79 0 0
-0.2142 -0.0744 -0.4841 -0.416 -0.493 0.764 228 215 193 0 0
-0.2184 -0.0779 -0.4893 -0.482 -0.399 0.780 162 148 124 0 0
-0.2205 -0.0795 -0.4928 -0.787 -0.340 0.515 119 106 79 0 0
-0.2367 -0.0904 -0.5377 -0.352 -0.882 0.315 95 81 50 0 0
-0.2221 -0.0666 -0.6278 -0.977 -0.021 -0.211 131 116 87 0 0
-0.2123 -0.0547 -0.6493 -0.914 0.307 -0.265 56 51 41 0 0
-0.2025 -0.0424 -0.6753 -0.969 -0.245 -0.027 81 71 60 0 0
-0.2100 -0.0486 -0.6856 -0.830 -0.457 0.320 86 72 46 0 0
-0.2201 -0.0572 -0.6971 -0.843 -0.387 0.373 68 56 30 0 0
-0.2209 -0.0578 -0.6983 -0.607 -0.547 0.577 71 59 36 0 0
-0.2226 -0.0590 -0.7025 -0.585 -0.585 0.561 113 99 71 0 0
-0.2233 -0.0595 -0.7038 -0.744 -0.543 0.390 103 92 64 0 0
-0.2057 -0.0334 -0.7883 -0.980 0.148 0.134 46 36 28 0 0
-0.2058 -0.0332 -0.7904 -0.880 0.143 0.453 56 45 31 0 0
-0.2214 -0.0471 -0.8022 -0.843 -0.282 0.458 32 23 14 0 0
-0.2220 -0.0475 -0.8036 -0.863 -0.319 0.392 33 25 16 0 0
-0.2229 -0.0482 -0.8048 -0.937 -0.152 0.315 35 25 15 0 0
-0.2307 -0.0533 -0.8283 -0.794 -0.432 0.427 90 79 51 0 0
-0.2368 -0.0570 -0.8496 -0.973 -0.106 0.206 112 103 71 0 0
-0.2392 -0.0576 -0.8649 -0.741 0.163 0.651 133 130 127 0 0
-0.1338 -0.0143 -0.2970 -0.665 -0.454 0.593 113 100 77 0 0
-0.1338 -0.0142 -0.2985 -0.760 -0.598 0.256 85 72 49 0 0
-0.1407 -0.0191 -0.3155 -0.864 -0.409 0.293 81 67 53 0 0
-0.1451 -0.0222 -0.3259 -0.869 -0.483 0.104 140 124 104 0 0
-0.1461 -0.0231 -0.3270 -0.823 -0.357 0.443 194 178 150 0 0
-0.1522 -0.0285 -0.3320 -0.566 -0.536 0.627 97 86 67 0 0
-0.1527 -0.0289 -0.3332 -0.594 -0.506 0.625 72 60 45 0 0
-0.1532 -0.0292 -0.3346 -0.745 -0.404 0.531 52 41 28 0 0
-0.1491 -0.0208 -0.3744 -0.684 -0.722 0.103 73 55 34 0 0
-0.1502 -0.0208 -0.3851 -0.736 -0.662 0.145 55 39 21 0 0
-0.1505 -0.0208 -0.3866 -0.736 -0.662 0.145 52 36 18 0 0
-0.1530 -0.0211 -0.4066 -0.696 -0.713 0.086 56 40 24 0 0
-0.1537 -0.0213 -0.4111 -0.854 -0.511 0.097 54 37 22 0 0
-0.1536 -0.0209 -0.4145 -0.616 -0.706 0.348 55 39 24 0 0
-0.1540 -0.0211 -0.4159 -0.720 -0.625 0.302 48 32 18 0 0
-0.1544 -0.0213 -0.4174 -0.720 -0.625 0.302 50 33 20 0 0
-0.1547 -0.0193 -0.4391 -0.440 -0.882 0.171 83 72 50 0 0
-0.1576 -0.0156 -0.4982 -0.893 -0.416 0.172 34 29 26 0 0
-0.1581 -0.0158 -0.5014 -0.830 -0.476 0.291 22 17 15 0 0
-0.1591 -0.0166 -0.5025 -0.726 -0.373 0.577 34 31 27 0 0
-0.1872 -0.0449 -0.4945 0.253 0.221 0.942 63 54 46 0 0
-0.2061 -0.0645 -0.4840 -0.201 0.068 0.977 92 81 64 0 0
-0.2106 -0.0689 -0.4840 -0.174 0.001 0.985 147 132 112 0 0
-0.2173 -0.0752 -0.4858 -0.735 -0.332 0.591 180 168 147 0 0
-0.2174 -0.0751 -0.4873 -0.684 -0.475 0.553 192 180 159 0 0
-0.2205 -0.0778 -0.4901 -0.525 -0.587 0.616 101 88 64 0 0
-0.2212 -0.0784 -0.4912 -0.608 -0.687 0.397 104 90 64 0 0
-0.2217 -0.0788 -0.4925 -0.734 -0.631 0.252 116 105 81 0 0
-0.2224 -0.0792 -0.4953 -0.785 -0.308 0.537 112 104 74 0 0
-0.2233 -0.0799 -0.4963 -0.479 -0.459 0.748 114 107 74 0 0
-0.2261 -0.0824 -0.4992 -0.581 -0.467 0.667 164 149 122 0 0
-0.2339 -0.0875 -0.5218 -0.583 -0.743 0.328 88 77 59 0 0
-0.2192 -0.0653 -0.5938 -0.876 -0.431 0.218 113 103 84 0 0
-0.2202 -0.0658 -0.5984 -0.898 -0.191 0.397 105 94 68 0 0
-0.2219 -0.0642 -0.6289 -0.923 -0.280 -0.266 110 99 77 0 0
-0.2211 -0.0630 -0.6317 -0.916 -0.201 -0.348 91 82 64 0 0
-0.2167 -0.0580 -0.6380 -0.916 0.259 -0.305 69 59 45 0 0
-0.2008 -0.0382 -0.6780 -0.855 0.347 0.385 82 72 61 0 0
-0.2114 -0.0477 -0.6852 -0.384 -0.715 0.584 119 102 76 0 0
-0.2121 -0.0483 -0.6865 -0.744 -0.668 -0.008 97 83 59 0 0
-0.2235 -0.0576 -0.7026 -0.799 -0.417 0.434 74 60 34 0 0
-0.2091 -0.0339 -0.7921 -0.525 -0.418 0.742 58 47 31 0 0
-0.2221 -0.0455 -0.8025 -0.891 -0.098 0.443 42 30 18 0 0
-0.2228 -0.0459 -0.8040 -0.863 -0.319 0.392 38 27 15 0 0
-0.2234 -0.0464 -0.8054 -0.937 -0.152 0.315 40 27 15 0 0
-0.2314 -0.0516 -0.8288 -0.744 -0.613 0.266 88 74 47 0 0
-0.2319 -0.0520 -0.8302 -0.683 -0.682 0.261 85 71 43 0 0
-0.2319 -0.0517 -0.8326 -0.737 -0.662 0.135 89 74 45 0 0
-0.2395 -0.0556 -0.8658 -0.741 0.163 0.651 142 139 139 0 0
-0.1183 0.0003 -0.2744 -0.537 -0.774 0.336 145 130 111 0 0
-0.1186 0.0002 -0.2758 -0.616 -0.410 0.673 49 37 24 0 0
-0.1206 -0.0015 -0.2781 -0.581 -0.337 0.740 46 35 21 0 0
-0.1216 -0.0024 -0.2793 -0.581 -0.337 0.740 36 27 18 0 0
-0.1236 -0.0041 -0.2815 -0.674 -0.265 0.689 42 31 23 0 0
-0.1315 -0.0090 -0.3074 -0.796 0.007 0.605 37 29 19 0 0
-0.1334 -0.0107 -0.3082 -0.404 -0.059 0.913 63 52 37 0 0
-0.1388 -0.0158 -0.3105 -0.670 -0.607 0.428 181 172 158 0 0
-0.1396 -0.0163 -0.3118 -0.611 -0.595 0.521 147 137 120 0 0
-0.1406 -0.0172 -0.3129 -0.550 -0.540 0.637 107 94 76 0 0
-0.1413 -0.0178 -0.3141 -0.637 -0.447 0.629 91 78 61 0 0
-0.1461 -0.0212 -0.3258 -0.743 -0.566 0.357 148 132 105 0 0
-0.1534 -0.0275 -0.3333 -0.667 -0.406 0.624 53 44 33 0 0
-0.1540 -0.0279 -0.3346 -0.745 -0.404 0.531 36 27 17 0 0
-0.1502 -0.0198 -0.3743 -0.684 -0.722 0.103 78 59 39 0 0
-0.1521 -0.0202 -0.3878 -0.776 -0.619 0.119 43 31 16 0 0
-0.1550 -0.0200 -0.4158 -0.605 -0.768 0.211 64 47 31 0 0
-0.1553 -0.0202 -0.4173 -0.650 -0.708 0.277 63 46 30 0 0
-0.1557 -0.0203 -0.4188 -0.605 -0.768 0.211 75 58 41 0 0
-0.1434 -0.0007 -0.4890 -0.770 -0.627 0.119 13 12 10 0 0
-0.1438 -0.0007 -0.4923 -0.731 -0.672 0.117 18 16 14 0 0
-0.1599 -0.0152 -0.5026 -0.726 -0.373 0.577 33 31 27 0 0
-0.2023 -0.0585 -0.4858 0.284 0.038 0.958 60 51 41 0 0
-0.2182 -0.0739 -0.4874 -0.644 -0.584 0.494 186 174 154 0 0
-0.2204 -0.0759 -0.4891 -0.614 -0.499 0.611 179 168 150 0 0
-0.2228 -0.0779 -0.4923 -0.556 -0.737 0.384 139 127 102 0 0
-0.2242 -0.0788 -0.4963 -0.404 -0.634 0.659 109 99 69 0 0
-0.2313 -0.0850 -0.5025 -0.718 -0.574 0.394 60 48 34 0 0
-0.2328 -0.0850 -0.5165 -0.650 -0.460 0.605 93 82 62 0 0
-0.2398 -0.0904 -0.5295 -0.673 -0.655 0.343 71 57 38 0 0
-0.2392 -0.0888 -0.5387 -0.521 -0.835 0.176 101 86 54 0 0
-0.2395 -0.0889 -0.5402 -0.678 -0.724 0.127 116 101 69 0 0
-0.2395 -0.0887 -0.5420 -0.460 -0.881 0.112 127 111 79 0 0
-0.2210 -0.0613 -0.6269 -0.935 0.275 -0.224 96 85 69 0 0
-0.2130 -0.0468 -0.6885 -0.908 -0.415 -0.050 96 82 60 0 0
-0.2130 -0.0466 -0.6905 -0.937 -0.314 0.153 58 46 30 0 0
-0.2135 -0.0468 -0.6921 -0.890 -0.413 0.193 47 35 20 0 0
-0.2243 -0.0562 -0.7027 -0.791 -0.445 0.421 78 65 40 0 0
-0.2037 -0.0264 -0.7910 -0.848 -0.301 0.437 9 8 6 0 0
-0.2121 -0.0342 -0.7941 -0.586 -0.586 0.560 73 59 39 0 0
-0.2128 -0.0348 -0.7955 -0.626 -0.479 0.615 95 79 50 0 0
-0.2235 -0.0443 -0.8043 -0.863 -0.319 0.392 63 48 27 0 0
-0.2239 -0.0445 -0.8060 -0.937 -0.152 0.315 59 45 23 0 0
-0.2242 -0.0445 -0.8079 -0.937 0.047 0.346 63 49 26 0 0
-0.2242 -0.0444 -0.8101 -0.959 0.128 0.253 66 51 28 0 0
-0.2287 -0.0469 -0.8269 -0.890 -0.042 0.455 111 97 67 0 0
-0.2307 -0.0490 -0.8264 -0.621 -0.401 0.674 99 85 60 0 0
-0.2314 -0.0495 -0.8278 -0.805 -0.391 0.445 92 77 52 0 0
-0.2320 -0.0499 -0.8292 -0.746 -0.527 0.406 93 78 49 0 0
-0.2326 -0.0503 -0.8308 -0.746 -0.527 0.406 99 84 53 0 0
-0.2350 -0.0515 -0.8412 -0.716 -0.341 0.609 115 103 75 0 0
-0.2390 -0.0527 -0.8657 -0.539 0.137 0.831 141 137 137 0 0
-0.1389 -0.0139 -0.3093 -0.570 -0.471 0.673 141 132 115 0 0
-0.1408 -0.0155 -0.3116 -0.582 -0.529 0.618 120 107 87 0 0
-0.1420 -0.0166 -0.3126 -0.603 -0.457 0.654 90 77 60 0 0
-0.1413 -0.0153 -0.3175 -0.984 -0.170 0.058 78 68 56 0 0
-0.1547 -0.0266 -0.3346 -0.745 -0.404 0.531 61 53 42 0 0
-0.1493 -0.0170 -0.3736 -0.694 -0.664 0.279 64 46 29 0 0
-0.1497 -0.0172 -0.3750 -0.746 -0.559 0.361 61 44 26 0 0
-0.1495 -0.0169 -0.3767 -0.792 -0.564 0.235 46 30 16 0 0
-0.1530 -0.0191 -0.3878 -0.776 -0.619 0.119 48 35 20 0 0
-0.1532 -0.0187 -0.3926 -0.741 -0.651 0.166 39 27 12 0 0
-0.1534 -0.0188 -0.3941 -0.718 -0.646 0.259 59 46 30 0 0
-0.1537 -0.0189 -0.3956 -0.692 -0.643 0.329 53 39 21 0 0
-0.1538 -0.0188 -0.3972 -0.705 -0.677 0.211 74 59 40 0 0
-0.1541 -0.0190 -0.3986 -0.679 -0.698 0.229 62 47 28 0 0
-0.1565 -0.0192 -0.4171 -0.605 -0.768 0.211 64 48 32 0 0
-0.1568 -0.0194 -0.4186 -0.605 -0.768 0.211 72 55 39 0 0
-0.1390 0.0039 -0.4711 -0.236 -0.691 -0.684 18 16 15 0 0
-0.2180 -0.0720 -0.4848 -0.826 -0.372 0.423 235 226 194 0 0
-0.2239 -0.0769 -0.4921 -0.472 -0.671 0.571 128 117 91 0 0
-0.2292 -0.0814 -0.4981 -0.598 -0.645 0.475 68 53 32 0 0
-0.2328 -0.0835 -0.5121 -0.476 -0.763 0.438 83 71 50 0 0
-0.2336 -0.0841 -0.5132 -0.608 -0.748 0.266 94 81 64 0 0
-0.2348 -0.0848 -0.5173 -0.541 -0.780 0.314 69 57 34 0 0
-0.2408 -0.0894 -0.5294 -0.673 -0.655 0.343 58 42 26 0 0
-0.2414 -0.0882 -0.5446 -0.359 -0.932 -0.042 139 123 94 0 0
-0.2142 -0.0453 -0.6924 -0.890 -0.413 0.193 63 50 32 0 0
-0.2033 -0.0237 -0.7906 -0.721 -0.029 0.692 12 11 11 0 0
-0.2135 -0.0332 -0.7958 -0.592 -0.316 0.742 54 42 27 0 0
-0.2232 -0.0415 -0.8059 -0.915 0.214 0.342 103 87 57 0 0
-0.2236 -0.0418 -0.8076 -0.937 0.179 0.300 100 85 54 0 0
-0.2237 -0.0416 -0.8098 -0.920 0.116 0.375 99 84 52 0 0
-0.2239 -0.0416 -0.8117 -0.955 0.068 0.290 102 87 56 0 0
-0.2242 -0.0417 -0.8137 -0.976 -0.019 0.216 102 87 56 0 0
-0.2250 -0.0420 -0.8172 -0.976 -0.019 0.216 107 92 62 0 0
-0.2253 -0.0421 -0.8190 -0.988 -0.041 0.152 107 92 61 0 0
-0.1199 0.0032 -0.2774 -0.763 -0.283 0.581 60 50 32 0 0
-0.1205 0.0028 -0.2787 -0.808 -0.582 0.089 103 94 76 0 0
-0.1215 0.0020 -0.2799 -0.421 -0.876 0.237 50 41 25 0 0
-0.1218 0.0018 -0.2813 -0.761 -0.495 0.420 48 38 26 0 0
-0.1399 -0.0129 -0.3092 -0.548 -0.546 0.634 193 180 158 0 0
-0.1409 -0.0137 -0.3103 -0.492 -0.623 0.608 203 188 162 0 0
-0.1423 -0.0148 -0.3128 -0.772 -0.555 0.309 72 60 42 0 0
-0.1504 -0.0160 -0.3734 -0.657 -0.628 0.416 50 35 20 0 0
-0.1509 -0.0164 -0.3748 -0.653 -0.610 0.449 57 43 27 0 0
-0.1515 -0.0168 -0.3761 -0.653 -0.610 0.449 40 26 14 0 0
-0.1527 -0.0172 -0.3835 -0.869 -0.438 0.230 47 34 20 0 0
-0.1532 -0.0173 -0.3865 -0.840 -0.465 0.279 51 38 22 0 0
-0.1537 -0.0176 -0.3879 -0.770 -0.629 0.108 49 37 21 0 0
-0.1542 -0.0176 -0.3925 -0.739 -0.627 0.246 45 32 16 0 0
-0.1547 -0.0179 -0.3939 -0.694 -0.616 0.374 48 34 18 0 0
-0.1550 -0.0181 -0.3953 -0.630 -0.616 0.472 50 35 16 0 0
-0.1549 -0.0178 -0.3971 -0.679 -0.698 0.229 64 49 30 0 0
-0.1552 -0.0179 -0.3985 -0.679 -0.698 0.229 66 51 32 0 0
-0.1561 -0.0179 -0.4062 -0.698 -0.714 0.057 61 45 28 0 0
-0.1566 -0.0178 -0.4125 -0.668 -0.702 0.248 47 31 15 0 0
-0.1584 -0.0167 -0.4384 -0.497 -0.828 0.259 80 66 40 0 0
-0.1331 0.0130 -0.4809 -0.974 0.117 0.194 19 18 16 0 0
-0.1369 0.0098 -0.4856 -0.715 0.045 0.698 12 10 10 0 0
-0.1424 0.0047 -0.4891 -0.351 0.088 0.932 8 7 5 0 0
-0.1645 -0.0150 -0.5060 -0.571 0.162 0.805 73 67 60 0 0
-0.2181 -0.0701 -0.4837 -0.708 -0.437 0.554 221 210 181 0 0
-0.2187 -0.0706 -0.4849 -0.708 -0.437 0.554 213 202 169 0 0
-0.2201 -0.0717 -0.4873 -0.735 -0.332 0.591 178 167 135 0 0
-0.2299 -0.0802 -0.4982 -0.745 -0.649 0.153 72 56 40 0 0
-0.2348 -0.0831 -0.5146 -0.616 -0.687 0.386 135 126 108 0 0
-0.2353 -0.0834 -0.5159 -0.616 -0.687 0.386 166 157 138 0 0
-0.2357 -0.0838 -0.5172 -0.616 -0.687 0.386 111 99 79 0 0
-0.2362 -0.0841 -0.5185 -0.611 -0.716 0.337 78 65 45 0 0
-0.2367 -0.0844 -0.5199 -0.611 -0.716 0.337 70 61 44 0 0
-0.2371 -0.0846 -0.5213 -0.611 -0.716 0.337 44 32 15 0 0
-0.2391 -0.0866 -0.5213 -0.688 -0.515 0.512 55 39 20 0 0
-0.2032 -0.0333 -0.6827 -0.587 -0.375 0.717 93 81 64 0 0
-0.2164 -0.0456 -0.6890 -0.363 -0.524 0.771 121 102 74 0 0
-0.2022 -0.0203 -0.7908 -0.487 -0.163 0.858 43 36 27 0 0
-0.2029 -0.0208 -0.7923 -0.719 -0.358 0.596 23 19 16 0 0
-0.2046 -0.0224 -0.7924 -0.786 -0.150 0.599 13 12 11 0 0
-0.2144 -0.0315 -0.7982 -0.660 0.028 0.751 41 31 18 0 0
-0.1211 0.0041 -0.2773 -0.881 0.029 0.473 81 70 53 0 0
-0.1226 0.0030 -0.2813 -0.804 -0.445 0.394 46 38 24 0 0
-0.1230 0.0028 -0.2827 -0.785 -0.568 0.246 51 40 29 0 0
-0.1233 0.0027 -0.2841 -0.561 -0.448 0.696 42 31 21 0 0
-0.1399 -0.0108 -0.3095 -0.538 -0.223 0.813 163 148 126 0 0
-0.1417 -0.0125 -0.3103 -0.649 -0.298 0.700 185 171 150 0 0
-0.1427 -0.0133 -0.3115 -0.615 -0.424 0.664 121 109 96 0 0
-0.1423 -0.0127 -0.3132 -0.857 -0.457 0.237 88 77 65 0 0
-0.1494 -0.0182 -0.3270 -0.790 -0.512 0.337 201 187 155 0 0
-0.1513 -0.0163 -0.3606 -0.877 -0.456 0.151 67 54 39 0 0
-0.1513 -0.0149 -0.3734 -0.694 -0.664 0.279 40 29 16 0 0
-0.1517 -0.0150 -0.3748 -0.735 -0.580 0.351 39 26 14 0 0
-0.1521 -0.0153 -0.3762 -0.735 -0.580 0.351 34 22 13 0 0
-0.1544 -0.0162 -0.3880 -0.784 -0.567 0.253 50 35 24 0 0
-0.1552 -0.0165 -0.3924 -0.694 -0.616 0.374 56 42 26 0 0
-0.1556 -0.0168 -0.3938 -0.694 -0.616 0.374 64 48 32 0 0
-0.1579 -0.0179 -0.4040 -0.723 -0.541 0.430 58 42 26 0 0
-0.1582 -0.0170 -0.4138 -0.620 -0.692 0.369 65 49 33 0 0
-0.1591 -0.0151 -0.4385 -0.856 -0.518 -0.005 100 85 56 0 0
-0.1338 0.0145 -0.4810 -0.999 0.039 -0.038 20 19 17 0 0
-0.1337 0.0149 -0.4829 -0.671 -0.073 0.738 20 19 17 0 0
-0.1417 0.0076 -0.4884 -0.965 0.256 -0.062 7 5 6 0 0
-0.1445 0.0054 -0.4937 -0.779 -0.470 0.414 13 12 10 0 0
-0.1648 -0.0131 -0.5064 -0.562 0.117 0.819 66 62 54 0 0
-0.1660 -0.0142 -0.5073 -0.488 0.095 0.868 52 47 35 0 0
-0.2087 -0.0588 -0.4846 -0.110 0.230 0.967 66 57 48 0 0
-0.2194 -0.0693 -0.4850 -0.735 -0.332 0.591 183 170 141 0 0
-0.2202 -0.0700 -0.4861 -0.653 -0.255 0.713 187 174 138 0 0
-0.2330 -0.0797 -0.5116 -0.721 -0.606 0.337 96 82 62 0 0
-0.2368 -0.0828 -0.5171 -0.616 -0.687 0.386 157 143 124 0 0
-0.2374 -0.0832 -0.5183 -0.662 -0.684 0.305 72 58 39 0 0
-0.2378 -0.0835 -0.5197 -0.683 -0.640 0.352 51 41 24 0 0
-0.2400 -0.0855 -0.5213 -0.705 -0.313 0.636 53 38 18 0 0
-0.2441 -0.0876 -0.5384 -0.850 -0.414 0.326 109 94 66 0 0
-0.2445 -0.0878 -0.5398 -0.850 -0.414 0.326 107 90 63 0 0
-0.2041 -0.0319 -0.6827 -0.587 -0.375 0.717 113 100 85 0 0
-0.2264 -0.0511 -0.7077 -0.912 -0.348 -0.217 106 95 66 0 0
-0.2024 -0.0179 -0.7919 -0.341 -0.691 0.638 90 79 64 0 0
-0.2029 -0.0183 -0.7935 -0.517 -0.778 0.356 65 55 46 0 0
-0.2045 -0.0198 -0.7938 -0.838 -0.344 0.423 31 26 19 0 0
-0.1225 0.0051 -0.2801 -0.871 -0.120 0.477 98 90 74 0 0
-0.1230 0.0047 -0.2814 -0.805 -0.294 0.516 59 50 36 0 0
-0.1238 0.0041 -0.2826 -0.785 -0.568 0.246 70 60 45 0 0
-0.1311 -0.0015 -0.2966 -0.863 -0.137 0.486 74 63 49 0 0
-0.1395 -0.0084 -0.3085 -0.386 -0.128 0.914 134 123 108 0 0
-0.1411 -0.0100 -0.3094 -0.498 -0.281 0.820 115 103 83 0 0
-0.1418 -0.0105 -0.3106 -0.690 -0.308 0.655 124 113 98 0 0
-0.1427 -0.0113 -0.3118 -0.823 -0.537 0.185 78 68 59 0 0
-0.1540 -0.0205 -0.3283 -0.772 -0.389 0.502 73 62 42 0 0
-0.1543 -0.0207 -0.3297 -0.856 -0.377 0.354 66 55 36 0 0
-0.1548 -0.0210 -0.3311 -0.856 -0.377 0.354 55 47 29 0 0
-0.1562 -0.0154 -0.3923 -0.683 -0.650 0.334 61 45 29 0 0
-0.1566 -0.0157 -0.3937 -0.551 -0.717 0.428 75 59 43 0 0
-0.1593 -0.0172 -0.4037 -0.788 -0.372 0.490 66 50 34 0 0
-0.1586 -0.0162 -0.4058 -0.666 -0.730 0.155 63 47 31 0 0
-0.1591 -0.0160 -0.4121 -0.618 -0.778 0.115 54 38 23 0 0
-0.1592 -0.0160 -0.4137 -0.620 -0.692 0.369 64 48 33 0 0
-0.1328 0.0179 -0.4823 -0.531 -0.144 0.835 20 19 17 0 0
-0.1341 0.0168 -0.4832 -0.531 -0.144 0.835 18 17 15 0 0
-0.1384 0.0131 -0.4894 -0.520 0.219 0.825 8 6 8 0 0
-0.1408 0.0108 -0.4896 -0.997 0.062 -0.052 8 6 8 0 0
-0.1454 0.0068 -0.4937 -0.779 -0.470 0.414 15 13 12 0 0
-0.1659 -0.0119 -0.5081 -0.664 0.137 0.735 58 52 43 0 0
-0.2132 -0.0613 -0.4836 -0.286 0.157 0.945 101 88 76 0 0
-0.2150 -0.0631 -0.4839 -0.303 0.175 0.937 103 87 67 0 0
-0.2244 -0.0718 -0.4886 -0.579 -0.473 0.664 163 145 118 0 0
-0.2275 -0.0744 -0.4929 -0.570 -0.601 0.560 127 110 81 0 0
-0.2278 -0.0745 -0.4944 -0.598 -0.591 0.542 112 98 71 0 0
-0.2293 -0.0755 -0.4983 -0.595 -0.734 0.329 80 64 37 0 0
-0.2310 -0.0768 -0.5020 -0.510 -0.695 0.507 82 69 47 0 0
-0.2335 -0.0785 -0.5085 -0.720 -0.655 0.230 45 36 21 0 0
-0.2351 -0.0794 -0.5141 -0.512 -0.686 0.516 99 83 63 0 0
-0.2368 -0.0812 -0.5143 -0.685 -0.616 0.389 114 101 80 0 0
-0.2281 -0.0498 -0.7150 -0.762 -0.579 0.289 102 89 56 0 0
-0.2256 -0.0467 -0.7200 -0.861 -0.438 -0.260 97 83 48 0 0
-0.2036 -0.0170 -0.7894 -0.853 -0.424 0.306 88 76 61 0 0
-0.2038 -0.0170 -0.7914 -0.474 -0.753 0.456 103 91 72 0 0
-0.2042 -0.0173 -0.7931 -0.517 -0.778 0.356 94 82 67 0 0
-0.2047 -0.0176 -0.7948 -0.755 -0.645 0.116 66 57 45 0 0
-0.2060 -0.0187 -0.7955 -0.913 0.032 0.407 41 35 25 0 0
-0.2357 -0.0389 -0.8762 -0.795 -0.013 0.606 165 165 163 0 0
-0.1316 0.0002 -0.2982 -0.573 -0.758 0.313 78 68 56 0 0
-0.1317 0.0003 -0.2998 -0.662 -0.708 0.245 76 65 53 0 0
-0.1420 -0.0088 -0.3093 -0.359 -0.320 0.877 121 110 90 0 0
-0.1549 -0.0192 -0.3298 -0.861 -0.369 0.349 70 61 47 0 0
-0.1553 -0.0195 -0.3312 -0.861 -0.369 0.349 77 68 53 0 0
-0.1552 -0.0191 -0.3328 -0.835 -0.470 0.288 66 55 40 0 0
-0.1516 -0.0116 -0.3677 -0.753 -0.530 0.390 60 48 33 0 0
-0.1523 -0.0120 -0.3705 -0.353 -0.831 0.429 60 49 33 0 0
-0.1561 -0.0136 -0.3896 -0.847 -0.436 0.304 54 40 25 0 0
-0.1568 -0.0140 -0.3909 -0.781 -0.469 0.413 59 43 27 0 0
-0.1573 -0.0144 -0.3922 -0.810 -0.517 0.275 57 41 25 0 0
-0.1575 -0.0145 -0.3937 -0.759 -0.485 0.436 61 45 29 0 0
-0.1599 -0.0157 -0.4038 -0.704 -0.615 0.356 58 42 26 0 0
-0.1625 -0.0165 -0.4190 -0.614 -0.770 0.176 72 53 35 0 0
-0.1628 -0.0166 -0.4205 -0.614 -0.770 0.176 80 61 43 0 0
-0.1624 -0.0159 -0.4240 -0.673 -0.736 0.074 69 50 31 0 0
-0.1334 0.0195 -0.4825 -0.954 0.267 -0.133 18 17 15 0 0
-0.1333 0.0203 -0.4880 -0.496 0.046 0.867 23 22 20 0 0
-0.1353 0.0186 -0.4903 -0.499 0.205 0.842 19 18 17 0 0
-0.1371 0.0169 -0.4909 -0.499 0.205 0.842 11 9 10 0 0
-0.1404 0.0135 -0.4905 -0.941 -0.258 0.218 9 7 9 0 0
-0.1448 0.0095 -0.4929 -0.395 0.189 0.899 8 6 7 0 0
-0.1473 0.0072 -0.4948 -0.618 -0.072 0.783 15 14 12 0 0
-0.2291 -0.0738 -0.4941 -0.771 -0.529 0.353 115 101 74 0 0
-0.2295 -0.0741 -0.4954 -0.802 -0.500 0.325 78 64 38 0 0
-0.2346 -0.0779 -0.5066 -0.772 -0.601 0.208 49 37 24 0 0
-0.2353 -0.0779 -0.5112 -0.669 -0.644 0.370 88 73 53 0 0
-0.2419 -0.0833 -0.5211 -0.498 -0.723 0.478 68 52 30 0 0
-0.2446 -0.0853 -0.5274 -0.792 -0.399 0.463 69 53 35 0 0
-0.2468 -0.0855 -0.5445 -0.463 -0.848 0.258 127 113 87 0 0
-0.2267 -0.0468 -0.7094 -0.746 -0.638 0.193 108 94 64 0 0
-0.2291 -0.0488 -0.7129 -0.455 -0.480 0.750 127 109 77 0 0
-0.2289 -0.0483 -0.7153 -0.736 -0.676 -0.031 104 89 59 0 0
-0.2043 -0.0152 -0.7920 -0.750 0.089 0.655 79 67 51 0 0
-0.2053 -0.0160 -0.7930 -0.750 0.089 0.655 93 80 63 0 0
-0.2058 -0.0164 -0.7946 -0.860 -0.403 0.313 95 82 64 0 0
-0.2065 -0.0169 -0.7960 -0.931 -0.230 0.283 78 65 49 0 0
-0.2069 -0.0170 -0.7979 -0.958 -0.187 0.219 57 44 32 0 0
-0.2072 -0.0171 -0.7997 -0.892 -0.340 0.299 43 31 21 0 0
-0.2232 -0.0306 -0.8202 -0.918 -0.387 0.085 90 80 57 0 0
-0.2232 -0.0304 -0.8225 -0.875 -0.441 0.197 87 77 54 0 0
-0.1068 0.0239 -0.2725 -0.884 -0.364 0.293 176 176 178 0 0
-0.1073 0.0236 -0.2739 -0.844 -0.373 0.385 174 174 175 0 0
-0.1347 -0.0000 -0.3050 -0.330 -0.579 0.745 108 98 90 0 0
-0.1442 -0.0087 -0.3118 -0.662 -0.653 0.368 89 79 66 0 0
-0.1494 -0.0124 -0.3234 -0.438 -0.409 0.801 219 206 173 0 0
-0.1556 -0.0179 -0.3299 -0.856 -0.377 0.354 37 29 18 0 0
-0.1561 -0.0182 -0.3312 -0.856 -0.377 0.354 63 53 40 0 0
-0.1539 -0.0150 -0.3400 -0.946 -0.315 0.079 44 34 18 0 0
-0.1549 -0.0158 -0.3411 -0.917 -0.277 0.285 42 33 18 0 0
-0.1525 -0.0104 -0.3676 -0.753 -0.530 0.390 55 43 26 0 0
-0.1589 -0.0140 -0.3917 -0.751 -0.390 0.532 53 37 21 0 0
-0.1609 -0.0146 -0.4038 -0.704 -0.615 0.356 57 41 25 0 0
-0.1613 -0.0148 -0.4052 -0.841 -0.515 0.165 58 42 26 0 0
-0.1614 -0.0147 -0.4068 -0.842 -0.418 0.340 57 41 25 0 0
-0.1613 -0.0145 -0.4085 -0.880 -0.366 0.304 60 44 28 0 0
-0.1620 -0.0147 -0.4114 -0.592 -0.702 0.397 62 44 27 0 0
-0.1625 -0.0151 -0.4128 -0.592 -0.702 0.397 62 45 28 0 0
-0.1630 -0.0154 -0.4142 -0.592 -0.702 0.397 60 42 26 0 0
-0.1633 -0.0156 -0.4157 -0.536 -0.761 0.364 61 42 25 0 0
-0.1638 -0.0159 -0.4170 -0.685 -0.718 0.127 67 47 29 0 0
-0.1327 0.0228 -0.4854 -0.960 -0.053 0.277 18 17 15 0 0
-0.1342 0.0217 -0.4880 -0.558 -0.310 0.770 21 20 18 0 0
-0.1353 0.0207 -0.4891 -0.460 -0.319 0.829 21 20 17 0 0
-0.1355 0.0207 -0.4908 -0.443 -0.524 0.727 24 23 19 0 0
-0.1365 0.0198 -0.4919 -0.441 -0.316 0.840 20 19 17 0 0
-0.1392 0.0171 -0.4919 -0.802 0.142 0.580 10 8 9 0 0
-0.1642 -0.0059 -0.5070 -0.789 -0.399 0.467 66 59 54 0 0
-0.1651 -0.0067 -0.5081 -0.863 0.042 0.503 36 31 28 0 0
-0.2275 -0.0705 -0.4909 -0.726 -0.552 0.410 109 96 63 0 0
-0.2443 -0.0836 -0.5231 -0.519 -0.734 0.438 45 30 17 0 0
-0.2102 -0.0177 -0.7996 -0.838 0.223 0.497 51 39 23 0 0
-0.2238 -0.0291 -0.8185 -0.892 -0.450 -0.049 81 73 55 0 0
-0.2239 -0.0289 -0.8206 -0.918 -0.387 0.085 73 65 45 0 0
-0.2241 -0.0288 -0.8227 -0.875 -0.441 0.197 62 55 34 0 0
-0.2245 -0.0290 -0.8244 -0.822 -0.474 0.317 61 54 33 0 0
-0.2250 -0.0293 -0.8261 -0.770 -0.465 0.436 61 52 31 0 0
-0.2253 -0.0295 -0.8279 -0.892 -0.258 0.371 61 50 30 0 0
-0.2268 -0.0306 -0.8306 -0.931 -0.108 0.349 64 55 32 0 0
-0.2275 -0.0312 -0.8319 -0.844 -0.144 0.518 72 60 35 0 0
-0.2285 -0.0321 -0.8329 -0.765 -0.053 0.642 76 61 34 0 0
-0.2294 -0.0328 -0.8340 -0.598 -0.001 0.801 83 68 39 0 0
-0.1077 0.0255 -0.2756 -0.570 0.374 0.731 175 175 177 0 0
-0.1101 0.0232 -0.2763 -0.570 0.374 0.731 176 175 174 0 0
-0.1312 0.0039 -0.2914 -0.762 -0.424 0.490 42 32 18 0 0
-0.1317 0.0036 -0.2927 -0.815 -0.435 0.384 43 34 24 0 0
-0.1325 0.0030 -0.2939 -0.569 -0.637 0.520 34 25 16 0 0
-0.1330 0.0026 -0.2953 -0.437 -0.675 0.595 28 22 13 0 0
-0.1332 0.0029 -0.2998 -0.569 -0.779 0.261 81 70 59 0 0
-0.1348 0.0019 -0.3038 -0.414 -0.556 0.721 112 102 93 0 0
-0.1357 0.0011 -0.3050 -0.395 -0.407 0.824 112 103 93 0 0
-0.1441 -0.0066 -0.3107 -0.695 -0.360 0.623 114 104 85 0 0
-0.1451 -0.0075 -0.3118 -0.692 -0.459 0.556 77 67 55 0 0
-0.1547 -0.0152 -0.3276 -0.668 -0.468 0.579 75 63 52 0 0
-0.1554 -0.0158 -0.3288 -0.668 -0.468 0.579 56 48 38 0 0
-0.1563 -0.0165 -0.3299 -0.856 -0.377 0.354 42 34 24 0 0
-0.1553 -0.0141 -0.3413 -0.831 -0.551 0.079 43 34 19 0 0
-0.1554 -0.0141 -0.3428 -0.904 -0.428 0.018 52 44 26 0 0
-0.1555 -0.0140 -0.3443 -0.904 -0.428 0.018 56 47 31 0 0
-0.1558 -0.0142 -0.3457 -0.984 -0.151 0.091 64 55 39 0 0
-0.1568 -0.0148 -0.3484 -0.930 -0.208 -0.303 70 58 42 0 0
-0.1524 -0.0087 -0.3633 -0.769 -0.380 0.513 29 20 11 0 0
-0.1530 -0.0092 -0.3646 -0.791 -0.377 0.482 41 32 17 0 0
-0.1536 -0.0096 -0.3659 -0.791 -0.377 0.482 65 51 34 0 0
-0.1621 -0.0137 -0.4036 -0.703 -0.481 0.524 47 31 15 0 0
-0.1623 -0.0132 -0.4101 -0.820 -0.447 0.357 61 44 28 0 0
-0.1631 -0.0137 -0.4113 -0.592 -0.702 0.397 63 44 27 0 0
-0.1636 -0.0141 -0.4127 -0.592 -0.702 0.397 66 47 30 0 0
-0.1641 -0.0144 -0.4140 -0.592 -0.702 0.397 72 53 35 0 0
-0.1644 -0.0146 -0.4155 -0.525 -0.784 0.331 75 55 36 0 0
-0.1616 -0.0083 -0.4459 -0.777 -0.623 -0.095 80 65 42 0 0
-0.1607 -0.0071 -0.4482 -0.995 -0.005 -0.103 67 52 32 0 0
-0.1616 -0.0079 -0.4494 -0.700 -0.549 -0.456 77 62 43 0 0
-0.1360 0.0223 -0.4893 -0.462 -0.116 0.880 21 20 16 0 0
-0.1369 0.0215 -0.4905 -0.248 -0.354 0.901 24 24 20 0 0
-0.1385 0.0200 -0.4912 -0.454 -0.279 0.846 27 26 24 0 0
-0.1398 0.0188 -0.4922 -0.491 -0.179 0.853 19 18 16 0 0
-0.1410 0.0177 -0.4932 -0.507 -0.240 0.828 10 8 9 0 0
-0.1422 0.0167 -0.4942 -0.431 -0.262 0.864 8 6 7 0 0
-0.1433 0.0157 -0.4952 -0.499 -0.240 0.833 7 5 6 0 0
-0.1456 0.0134 -0.4955 -0.408 0.011 0.913 7 5 5 0 0
-0.1646 -0.0041 -0.5074 -0.879 -0.280 0.386 40 34 27 0 0
-0.2450 -0.0822 -0.5233 -0.712 -0.625 0.320 51 37 27 0 0
-0.1815 0.0016 -0.7001 -0.325 -0.331 0.886 45 33 25 0 0
-0.2218 -0.0343 -0.7362 -0.971 -0.196 -0.139 47 40 25 0 0
-0.2212 -0.0333 -0.7391 -0.987 0.096 0.128 42 35 22 0 0
-0.2087 -0.0143 -0.7959 -0.818 0.091 0.568 75 59 40 0 0
-0.2236 -0.0266 -0.8178 -0.999 -0.054 0.006 89 80 63 0 0
-0.2242 -0.0267 -0.8216 -0.974 -0.177 0.140 85 76 56 0 0
-0.2248 -0.0271 -0.8231 -0.912 -0.386 0.140 81 72 51 0 0
-0.2254 -0.0276 -0.8246 -0.822 -0.474 0.317 73 65 45 0 0
-0.2257 -0.0277 -0.8265 -0.823 -0.334 0.460 66 55 34 0 0
-0.2260 -0.0278 -0.8283 -0.892 -0.258 0.371 63 51 29 0 0
-0.2266 -0.0281 -0.8299 -0.892 -0.258 0.371 65 51 26 0 0
-0.2273 -0.0287 -0.8313 -0.868 -0.312 0.386 66 53 26 0 0
-0.2281 -0.0294 -0.8324 -0.844 -0.144 0.518 74 60 31 0 0
