ply
format ascii 1.0
element vertex 865
property float x
property float y
property float z
property float nx
property float ny
property float nz
property uchar diffuse_red
property uchar diffuse_green
property uchar diffuse_blue
property uchar class
property uchar detection
end_header
-0.0898 0.1732 -0.8371 0.701 0.509 0.499 146 131 90 0 0
-0.0900 0.1737 -0.8686 0.138 0.770 0.623 161 159 156 0 0
-0.0914 0.1726 -0.8724 0.349 0.478 0.806 172 172 174 0 0
-0.0850 0.1783 -0.8674 0.131 0.569 0.812 179 179 181 0 0
-0.0841 0.1791 -0.8685 0.175 0.815 0.552 184 184 185 0 0
-0.0833 0.1799 -0.8699 0.175 0.815 0.552 187 187 186 0 0
-0.1075 0.1470 -0.4952 0.637 0.517 0.572 78 57 27 0 0
-0.1019 0.1569 -0.7117 0.008 0.751 0.660 145 129 101 0 0
-0.0994 0.1592 -0.7136 -0.097 0.631 0.770 121 107 82 0 0
-0.1299 0.1334 -0.7963 -0.113 0.713 0.692 184 171 132 0 0
-0.0884 0.1721 -0.8393 0.712 0.523 0.468 144 130 87 0 0
-0.0879 0.1732 -0.8700 0.208 0.956 0.207 169 168 169 0 0
-0.0876 0.1736 -0.8719 0.208 0.956 0.207 176 176 178 0 0
-0.0836 0.1772 -0.8695 0.226 0.972 0.068 182 182 183 0 0
-0.0812 0.1794 -0.8690 0.252 0.877 0.409 184 184 185 0 0
-0.1201 0.1328 -0.4766 0.811 0.473 0.344 98 81 54 0 0
-0.1196 0.1333 -0.4780 0.891 0.235 0.388 89 71 47 0 0
-0.1156 0.1370 -0.4810 0.692 0.143 0.708 101 82 49 0 0
-0.1116 0.1409 -0.4913 0.774 0.511 0.374 103 85 49 0 0
-0.1079 0.1457 -0.5555 0.779 0.532 -0.330 136 124 95 0 0
-0.1081 0.1489 -0.7103 0.506 0.650 0.567 73 64 47 0 0
-0.0867 0.1719 -0.8701 0.166 0.966 0.196 161 158 156 0 0
-0.0862 0.1724 -0.8718 0.279 0.542 0.793 171 170 171 0 0
-0.0796 0.1784 -0.8687 0.148 0.981 0.125 184 182 186 0 0
-0.1002 0.1496 -0.5138 0.714 0.700 0.004 58 40 20 0 0
-0.0981 0.1518 -0.5271 0.546 0.827 0.134 107 88 57 0 0
-0.0988 0.1512 -0.5294 0.558 0.765 0.322 143 125 87 0 0
-0.1052 0.1458 -0.5526 0.635 0.735 -0.238 114 99 71 0 0
-0.1068 0.1477 -0.7102 0.506 0.650 0.567 95 86 71 0 0
-0.0752 0.1801 -0.8718 0.709 -0.054 0.703 190 188 189 0 0
-0.1953 0.0587 -0.4497 0.218 0.858 -0.465 175 176 177 0 0
-0.1210 0.1274 -0.4712 0.780 0.379 0.498 77 60 38 0 0
-0.1204 0.1279 -0.4727 0.764 0.458 0.455 77 61 35 0 0
-0.0976 0.1499 -0.5202 0.730 0.458 0.507 78 58 37 0 0
-0.0975 0.1502 -0.5293 0.558 0.765 0.322 117 100 67 0 0
-0.1039 0.1447 -0.5525 0.373 0.911 -0.177 101 86 60 0 0
-0.1073 0.1419 -0.5644 0.096 0.849 -0.519 204 201 196 0 0
-0.1386 0.1150 -0.6559 0.969 -0.200 -0.143 207 205 206 0 0
-0.1076 0.1445 -0.7080 0.033 0.998 -0.045 55 45 34 0 0
-0.0885 0.1626 -0.7317 0.323 0.946 0.026 121 107 75 0 0
-0.0739 0.1788 -0.8719 0.861 0.041 0.507 188 186 187 0 0
-0.1681 0.0817 -0.4697 0.073 0.990 -0.117 110 101 84 0 0
-0.1094 0.1363 -0.4976 0.447 0.748 0.491 110 95 60 0 0
-0.1087 0.1370 -0.5008 0.382 0.856 0.349 94 79 42 0 0
-0.0964 0.1489 -0.5275 0.599 0.726 0.338 75 54 29 0 0
-0.0962 0.1491 -0.5292 0.558 0.765 0.322 88 68 39 0 0
-0.0977 0.1505 -0.6716 0.824 0.515 -0.236 103 88 55 0 0
-0.1200 0.1323 -0.7874 -0.049 0.755 0.654 188 175 145 0 0
-0.0790 0.1718 -0.8748 0.371 0.910 0.184 181 179 182 0 0
-0.1225 0.1216 -0.4772 0.724 0.008 0.690 68 51 34 0 0
-0.0945 0.1486 -0.5344 0.705 0.692 0.153 98 81 48 0 0
-0.0992 0.1467 -0.6639 0.490 0.770 0.409 175 153 111 0 0
-0.0812 0.1644 -0.7189 0.521 0.815 -0.253 108 97 77 0 0
-0.1139 0.1355 -0.7893 0.077 0.623 0.778 182 165 127 0 0
-0.0817 0.1661 -0.8392 0.330 0.774 0.541 136 122 86 0 0
-0.0762 0.1713 -0.8441 0.498 0.667 0.553 150 134 91 0 0
-0.0753 0.1723 -0.8496 0.408 0.794 0.451 146 132 91 0 0
-0.0772 0.1709 -0.8743 0.371 0.910 0.184 178 176 178 0 0
-0.1069 0.1342 -0.5011 0.878 0.337 0.340 89 76 49 0 0
-0.0938 0.1469 -0.5348 0.753 0.568 0.332 84 67 39 0 0
-0.0929 0.1478 -0.5360 0.705 0.598 0.380 120 103 67 0 0
-0.0923 0.1484 -0.5374 0.813 0.542 0.214 143 124 82 0 0
-0.0965 0.1468 -0.6646 0.676 0.413 0.610 194 176 132 0 0
-0.0885 0.1544 -0.6778 0.580 0.678 0.451 101 85 54 0 0
-0.0891 0.1540 -0.6845 0.412 0.900 -0.140 124 108 75 0 0
-0.0984 0.1475 -0.7967 0.518 0.690 0.505 70 55 25 0 0
-0.0753 0.1703 -0.8735 0.306 0.918 0.254 173 173 172 0 0
-0.1649 0.0772 -0.4511 0.519 0.685 0.511 127 118 102 0 0
-0.1631 0.0791 -0.4576 0.551 0.771 0.320 75 67 52 0 0
-0.1608 0.0814 -0.4657 0.520 0.665 0.536 88 81 62 0 0
-0.1339 0.1064 -0.4744 0.681 -0.605 0.413 72 61 48 0 0
-0.1319 0.1083 -0.4751 0.657 -0.602 0.453 74 63 49 0 0
-0.1069 0.1320 -0.5037 0.988 0.105 0.111 69 55 34 0 0
-0.0918 0.1465 -0.5361 0.705 0.598 0.380 99 82 50 0 0
-0.0914 0.1470 -0.5376 0.696 0.660 0.284 121 103 65 0 0
-0.0982 0.1411 -0.5632 0.232 0.798 -0.556 163 159 150 0 0
-0.0960 0.1449 -0.6633 0.803 0.592 -0.071 222 203 159 0 0
-0.0870 0.1536 -0.6775 0.505 0.821 0.268 98 81 50 0 0
-0.0866 0.1539 -0.6793 0.505 0.821 0.268 110 92 61 0 0
-0.0863 0.1543 -0.6810 0.505 0.821 0.268 114 97 65 0 0
-0.0864 0.1542 -0.6831 0.526 0.849 0.056 114 98 65 0 0
-0.1001 0.1434 -0.7911 0.138 0.569 0.811 161 142 105 0 0
-0.0962 0.1471 -0.7980 0.492 0.783 0.382 124 108 80 0 0
-0.0734 0.1695 -0.8730 0.306 0.918 0.254 168 168 165 0 0
-0.1642 0.0755 -0.4496 0.444 0.822 0.356 124 116 101 0 0
-0.1059 0.1307 -0.5057 0.941 0.252 0.227 57 48 31 0 0
-0.0995 0.1368 -0.5144 0.596 0.531 0.603 80 66 40 0 0
-0.1004 0.1360 -0.5169 0.606 0.727 0.322 87 73 46 0 0
-0.1417 0.0999 -0.6555 -0.229 0.124 0.966 139 134 127 0 0
-0.0951 0.1433 -0.6575 0.426 0.591 0.686 196 175 129 0 0
-0.0942 0.1441 -0.6588 0.164 0.674 0.720 203 184 140 0 0
-0.0851 0.1529 -0.6790 0.505 0.821 0.268 123 106 77 0 0
-0.0762 0.1620 -0.7218 0.669 0.732 0.126 101 94 63 0 0
-0.1000 0.1410 -0.7901 0.012 0.614 0.790 130 118 86 0 0
-0.0790 0.1611 -0.8272 0.304 0.765 0.569 115 102 69 0 0
-0.1051 0.1292 -0.5059 0.775 0.632 -0.026 69 59 44 0 0
-0.1050 0.1293 -0.5078 0.321 0.606 0.728 76 66 50 0 0
-0.1040 0.1302 -0.5090 0.321 0.606 0.728 79 70 52 0 0
-0.0990 0.1350 -0.5149 0.740 0.465 0.486 83 71 46 0 0
-0.0907 0.1435 -0.5575 0.432 0.823 -0.370 144 128 95 0 0
-0.0912 0.1446 -0.6593 0.409 0.639 0.652 207 188 146 0 0
-0.0840 0.1516 -0.6771 0.539 0.786 0.302 124 107 76 0 0
-0.0921 0.1460 -0.7965 0.148 0.881 0.449 144 123 90 0 0
-0.0834 0.1544 -0.8158 0.159 0.877 0.453 122 104 75 0 0
-0.0761 0.1613 -0.8233 0.674 0.735 -0.073 110 96 65 0 0
-0.0773 0.1603 -0.8268 0.332 0.897 0.292 110 98 68 0 0
-0.1000 0.1318 -0.5145 0.675 0.479 0.561 81 69 47 0 0
-0.0907 0.1408 -0.5341 0.817 0.508 0.274 66 51 28 0 0
-0.0899 0.1417 -0.5428 0.521 0.806 0.281 122 106 73 0 0
-0.0862 0.1452 -0.5495 0.565 0.824 -0.049 145 130 87 0 0
-0.1407 0.0960 -0.6546 -0.237 0.107 0.966 123 117 107 0 0
-0.0854 0.1483 -0.6978 0.350 0.909 -0.228 65 54 33 0 0
-0.0751 0.1598 -0.8236 0.879 0.470 -0.074 104 90 57 0 0
-0.0760 0.1591 -0.8268 0.602 0.798 0.021 108 94 64 0 0
-0.0990 0.1305 -0.5146 0.675 0.479 0.561 80 69 51 0 0
-0.0984 0.1310 -0.5161 0.588 0.706 0.395 75 64 46 0 0
-0.0851 0.1440 -0.5495 0.713 0.700 -0.020 133 116 81 0 0
-0.0955 0.1358 -0.6551 0.133 0.595 0.793 185 170 135 0 0
-0.1050 0.1288 -0.7861 0.437 0.593 0.676 85 76 59 0 0
-0.0890 0.1440 -0.7960 0.389 0.815 0.429 126 108 84 0 0
-0.0882 0.1448 -0.7973 0.488 0.712 0.504 129 107 83 0 0
-0.0854 0.1475 -0.8009 0.498 0.681 0.536 88 76 51 0 0
-0.0747 0.1578 -0.8268 0.686 0.725 0.068 95 81 50 0 0
-0.0921 0.1366 -0.6552 0.163 0.619 0.769 161 139 102 0 0
-0.0880 0.1424 -0.7919 0.570 0.639 0.516 127 110 83 0 0
-0.0875 0.1429 -0.7958 0.788 0.569 0.235 108 96 77 0 0
-0.0862 0.1442 -0.7966 0.606 0.729 0.318 115 98 81 0 0
-0.1049 0.1204 -0.5145 0.847 -0.453 0.277 59 55 46 0 0
-0.1040 0.1212 -0.5158 0.847 -0.453 0.277 63 56 49 0 0
-0.1333 0.0954 -0.6497 -0.073 0.020 0.997 111 103 88 0 0
-0.0784 0.1474 -0.6725 0.555 0.708 0.437 67 53 32 0 0
-0.0765 0.1493 -0.6871 0.421 0.907 -0.037 133 112 77 0 0
-0.0889 0.1391 -0.7899 0.374 0.292 0.881 164 146 103 0 0
-0.0876 0.1403 -0.7907 0.635 0.370 0.678 150 135 96 0 0
-0.0868 0.1411 -0.7921 0.887 0.250 0.387 136 121 91 0 0
-0.0699 0.1574 -0.8266 0.468 0.843 0.265 111 97 70 0 0
-0.1600 0.0649 -0.4214 -0.499 0.774 0.390 121 107 78 0 0
-0.1587 0.0661 -0.4225 -0.454 0.820 0.348 116 102 75 0 0
-0.1545 0.0701 -0.4315 0.653 0.725 0.220 145 129 97 0 0
-0.1108 0.1125 -0.5136 0.445 -0.503 0.741 57 53 49 0 0
-0.1079 0.1152 -0.5136 0.450 -0.501 0.739 59 54 49 0 0
-0.1050 0.1179 -0.5136 0.491 -0.496 0.716 57 52 46 0 0
-0.1017 0.1211 -0.5170 0.935 -0.334 0.119 53 47 41 0 0
-0.1014 0.1214 -0.5186 0.935 -0.334 0.119 56 49 43 0 0
-0.1830 0.0461 -0.6626 0.904 -0.116 -0.410 219 219 219 0 0
-0.1857 0.0437 -0.6757 0.658 0.753 -0.013 204 203 199 0 0
-0.1334 0.0928 -0.6509 0.594 -0.351 0.724 109 102 87 0 0
-0.0684 0.1564 -0.8264 0.379 0.876 0.299 127 110 82 0 0
-0.1567 0.0656 -0.4184 -0.465 0.800 0.379 125 110 83 0 0
-0.1547 0.0674 -0.4193 -0.380 0.850 0.365 124 109 80 0 0
-0.1535 0.0686 -0.4242 -0.104 0.992 -0.070 124 108 83 0 0
-0.1613 0.0619 -0.4792 0.505 0.406 -0.762 45 39 31 0 0
-0.1647 0.0588 -0.4831 0.471 0.482 -0.739 34 29 23 0 0
-0.1705 0.0534 -0.4904 0.955 0.256 -0.151 56 52 42 0 0
-0.1715 0.0524 -0.4949 0.922 0.379 -0.080 47 43 33 0 0
-0.0937 0.1265 -0.5291 0.898 -0.146 0.415 76 68 57 0 0
-0.1318 0.0919 -0.6506 -0.299 0.270 0.915 109 101 88 0 0
-0.0782 0.1427 -0.6645 0.662 0.542 0.518 181 166 133 0 0
-0.0800 0.1427 -0.8030 0.588 0.707 0.393 84 71 51 0 0
-0.1529 0.0668 -0.4171 0.162 0.983 0.083 126 110 84 0 0
-0.1527 0.0670 -0.4188 0.177 0.982 0.068 122 105 77 0 0
-0.1526 0.0671 -0.4206 0.177 0.982 0.068 123 106 79 0 0
-0.1524 0.0673 -0.4242 0.177 0.982 0.068 113 97 70 0 0
-0.1654 0.0557 -0.4843 0.868 0.086 -0.489 41 36 32 0 0
-0.1667 0.0545 -0.4870 0.903 0.045 -0.427 46 42 34 0 0
-0.1715 0.0500 -0.4937 0.781 0.621 0.063 45 40 32 0 0
-0.1716 0.0499 -0.4957 0.791 0.610 -0.044 49 45 38 0 0
-0.1718 0.0498 -0.4978 0.755 0.649 -0.087 58 54 47 0 0
-0.1306 0.0905 -0.6507 -0.182 0.308 0.934 84 76 64 0 0
-0.1287 0.0923 -0.6512 -0.218 0.099 0.971 86 78 65 0 0
-0.0761 0.1429 -0.7045 0.270 0.963 -0.011 34 24 11 0 0
-0.0760 0.1430 -0.7085 0.604 0.431 0.670 72 60 43 0 0
-0.0603 0.1581 -0.7286 0.206 0.935 -0.290 122 108 76 0 0
-0.0551 0.1642 -0.8342 0.475 0.866 0.156 113 99 64 0 0
-0.0536 0.1658 -0.8501 0.369 0.869 0.329 141 123 85 0 0
-0.0532 0.1663 -0.8518 0.369 0.869 0.329 143 128 87 0 0
-0.1538 0.0635 -0.4145 -0.484 0.763 0.430 116 100 75 0 0
-0.1527 0.0646 -0.4158 -0.225 0.900 0.372 125 110 82 0 0
-0.1508 0.0664 -0.4167 0.162 0.983 0.083 125 110 82 0 0
-0.1505 0.0667 -0.4184 0.329 0.926 0.186 122 105 77 0 0
-0.1497 0.0675 -0.4198 0.424 0.905 -0.040 113 96 69 0 0
-0.1670 0.0517 -0.4879 0.715 0.402 -0.572 39 34 29 0 0
-0.1695 0.0494 -0.4913 0.659 0.724 -0.205 51 46 42 0 0
-0.1706 0.0484 -0.4978 0.755 0.649 -0.087 32 28 24 0 0
-0.1718 0.0473 -0.5005 0.402 0.864 -0.302 28 24 20 0 0
-0.1317 0.0870 -0.6506 0.133 0.209 0.969 110 102 90 0 0
-0.1294 0.0892 -0.6508 -0.014 0.012 1.000 91 83 72 0 0
-0.1276 0.0909 -0.6514 -0.030 -0.035 0.999 99 92 79 0 0
-0.0551 0.1618 -0.8334 0.173 0.984 -0.028 99 86 59 0 0
-0.0552 0.1617 -0.8357 0.173 0.984 -0.028 116 102 71 0 0
-0.0512 0.1657 -0.8511 0.440 0.897 0.043 143 126 89 0 0
-0.0525 0.1647 -0.8705 0.334 0.632 0.700 148 147 142 0 0
-0.1494 0.0653 -0.4129 -0.299 0.824 0.482 114 99 70 0 0
-0.1661 0.0501 -0.4881 0.684 0.488 -0.542 51 46 39 0 0
-0.1679 0.0484 -0.4911 0.496 0.844 -0.205 45 40 35 0 0
-0.1688 0.0476 -0.4936 0.567 0.794 -0.218 54 50 47 0 0
-0.1735 0.0432 -0.5062 0.659 0.368 -0.656 58 55 51 0 0
-0.1766 0.0403 -0.5141 0.914 0.079 -0.397 45 42 39 0 0
-0.1040 0.1097 -0.5274 -0.301 0.804 0.513 79 75 70 0 0
-0.1030 0.1107 -0.5286 -0.330 0.831 0.448 83 80 72 0 0
-0.0784 0.1354 -0.6599 0.512 0.743 0.432 87 70 48 0 0
-0.0775 0.1363 -0.6611 0.557 0.610 0.563 113 95 68 0 0
-0.0492 0.1651 -0.8525 0.273 0.960 0.065 147 132 91 0 0
-0.1453 0.0672 -0.4502 0.691 0.700 0.181 120 107 76 0 0
-0.1450 0.0675 -0.4519 0.475 0.778 0.412 112 98 70 0 0
-0.1665 0.0472 -0.4891 0.449 0.841 -0.303 47 43 37 0 0
-0.0761 0.1353 -0.6609 0.526 0.768 0.366 68 55 40 0 0
-0.0747 0.1366 -0.6618 0.530 0.684 0.501 78 64 49 0 0
-0.0683 0.1429 -0.6823 0.512 0.827 0.231 39 27 14 0 0
-0.0678 0.1435 -0.6879 0.538 0.841 0.053 81 68 48 0 0
-0.0606 0.1514 -0.8096 0.538 0.843 0.022 77 65 43 0 0
-0.1458 0.0640 -0.4086 0.017 0.983 0.183 105 90 61 0 0
-0.1655 0.0457 -0.4873 -0.084 0.961 0.262 46 41 37 0 0
-0.0902 0.1192 -0.6460 0.163 0.618 0.769 87 75 63 0 0
-0.0747 0.1343 -0.6608 0.526 0.768 0.366 61 49 33 0 0
-0.0686 0.1404 -0.7021 0.439 0.883 -0.169 46 32 18 0 0
-0.1396 0.0678 -0.4409 0.281 0.949 0.141 103 89 62 0 0
-0.1009 0.1057 -0.5258 -0.443 0.766 0.466 64 58 55 0 0
-0.0720 0.1344 -0.6616 0.520 0.785 0.335 54 42 25 0 0
-0.0629 0.1436 -0.7145 0.234 0.649 0.724 91 79 56 0 0
-0.1386 0.0665 -0.4578 0.300 0.954 0.001 77 65 50 0 0
-0.0671 0.1361 -0.5515 0.445 0.895 -0.029 136 117 83 0 0
-0.0932 0.1116 -0.6486 0.538 0.107 0.836 84 72 59 0 0
-0.0588 0.1451 -0.7117 0.548 0.642 0.536 94 82 60 0 0
-0.0788 0.1263 -0.7829 0.176 0.948 0.266 86 77 62 0 0
-0.0786 0.1265 -0.7849 0.497 0.784 0.373 84 75 58 0 0
-0.0785 0.1266 -0.7870 0.564 0.593 0.575 110 100 82 0 0
-0.1372 0.0652 -0.4151 0.734 0.488 0.472 110 94 66 0 0
-0.1511 0.0532 -0.6599 0.022 0.822 0.568 97 90 75 0 0
-0.0894 0.1128 -0.6485 0.222 0.588 0.778 65 54 40 0 0
-0.0620 0.1395 -0.6892 0.622 0.781 0.051 41 29 14 0 0
-0.0414 0.1603 -0.8398 0.606 0.770 0.199 109 94 64 0 0
-0.0408 0.1608 -0.8414 0.642 0.676 0.362 117 101 69 0 0
-0.0382 0.1635 -0.8672 0.490 0.871 0.045 141 138 134 0 0
-0.0372 0.1645 -0.8683 0.624 0.777 0.080 163 162 160 0 0
-0.1360 0.0639 -0.4042 -0.002 0.950 0.311 94 77 47 0 0
-0.1364 0.0636 -0.4062 0.144 0.939 0.313 104 88 57 0 0
-0.1360 0.0639 -0.4078 0.108 0.937 0.333 110 93 64 0 0
-0.1334 0.0665 -0.4083 0.430 0.581 0.691 124 107 77 0 0
-0.1548 0.0461 -0.4839 0.184 0.741 -0.646 62 60 57 0 0
-0.0643 0.1342 -0.5511 0.617 0.785 0.063 146 129 90 0 0
-0.0884 0.1113 -0.6487 0.208 0.583 0.786 71 61 49 0 0
-0.0694 0.1297 -0.6585 0.439 0.698 0.566 143 128 94 0 0
-0.0660 0.1336 -0.7636 0.333 0.798 -0.503 92 81 61 0 0
-0.0621 0.1375 -0.7899 0.492 0.837 0.238 146 132 103 0 0
-0.0419 0.1573 -0.8287 0.717 0.571 0.400 84 72 49 0 0
-0.0408 0.1584 -0.8318 0.794 0.525 0.307 80 69 46 0 0
-0.0402 0.1590 -0.8355 0.583 0.737 0.343 84 71 45 0 0
-0.1321 0.0656 -0.4543 0.106 0.993 0.048 92 84 63 0 0
-0.1320 0.0656 -0.4562 0.257 0.965 -0.054 50 42 24 0 0
-0.1483 0.0500 -0.4770 0.295 0.645 -0.704 87 84 75 0 0
-0.0698 0.1265 -0.5336 0.494 0.830 0.257 135 123 98 0 0
-0.0633 0.1329 -0.5569 0.707 0.589 0.391 105 89 58 0 0
-0.0678 0.1289 -0.6582 0.459 0.772 0.441 149 132 96 0 0
-0.0618 0.1353 -0.7866 0.735 0.466 0.492 119 107 85 0 0
-0.0404 0.1563 -0.8284 0.686 0.633 0.359 73 62 37 0 0
-0.0368 0.1598 -0.8509 0.724 0.646 0.243 137 122 84 0 0
-0.0350 0.1617 -0.8687 0.632 0.536 0.560 149 148 144 0 0
-0.1299 0.0653 -0.4519 0.094 0.991 -0.090 78 70 54 0 0
-0.1301 0.0651 -0.4539 0.101 0.992 -0.080 68 62 45 0 0
-0.1302 0.0650 -0.4558 0.229 0.967 -0.108 78 70 57 0 0
-0.1504 0.0455 -0.4808 0.480 0.434 -0.763 71 69 64 0 0
-0.0671 0.1272 -0.6567 0.497 0.569 0.655 146 131 95 0 0
-0.0337 0.1605 -0.8688 0.627 0.523 0.578 140 138 133 0 0
-0.1286 0.0642 -0.4500 0.641 0.701 -0.311 43 35 28 0 0
-0.1281 0.0647 -0.4515 0.356 0.902 -0.242 38 31 25 0 0
-0.1289 0.0639 -0.4539 0.389 0.916 -0.103 32 26 19 0 0
-0.1285 0.0642 -0.4555 0.374 0.917 -0.141 57 51 43 0 0
-0.1324 0.0604 -0.4615 0.681 0.522 -0.514 75 67 58 0 0
-0.1493 0.0441 -0.4790 0.549 0.314 -0.775 98 94 85 0 0
-0.1368 0.0563 -0.5044 0.053 -0.017 0.998 160 160 156 0 0
-0.1184 0.0743 -0.5061 -0.032 0.962 0.272 65 59 53 0 0
-0.1181 0.0746 -0.5098 0.592 0.806 0.017 56 51 45 0 0
-0.1192 0.0735 -0.5182 0.880 0.441 0.176 66 59 51 0 0
-0.0617 0.1297 -0.5425 0.503 0.656 0.563 89 74 47 0 0
-0.0594 0.1320 -0.5558 0.446 0.889 0.106 137 118 79 0 0
-0.0939 0.0986 -0.6443 -0.046 0.470 0.881 85 79 73 0 0
-0.0920 0.1005 -0.6448 -0.072 0.345 0.936 75 66 57 0 0
-0.0760 0.1161 -0.6514 0.452 0.699 0.554 116 103 79 0 0
-0.0746 0.1174 -0.6523 0.685 0.683 0.254 109 95 70 0 0
-0.0652 0.1267 -0.6581 0.476 0.581 0.660 115 100 74 0 0
-0.0587 0.1334 -0.7926 0.656 0.669 0.348 40 29 13 0 0
-0.0545 0.1375 -0.8011 0.392 0.697 0.600 120 108 83 0 0
-0.0524 0.1396 -0.8054 0.153 0.908 0.390 123 108 82 0 0
-0.0378 0.1539 -0.8307 0.486 0.779 0.396 105 91 62 0 0
-0.0302 0.1613 -0.8527 0.574 0.795 0.194 146 133 92 0 0
-0.1232 0.0670 -0.4091 0.222 0.959 0.174 83 68 40 0 0
-0.1272 0.0632 -0.4536 0.389 0.916 -0.103 17 14 13 0 0
-0.1268 0.0636 -0.4552 0.374 0.917 -0.141 22 19 15 0 0
-0.1373 0.0534 -0.5035 0.971 -0.237 -0.009 189 188 189 0 0
-0.1369 0.0538 -0.5052 -0.158 0.120 0.980 145 141 137 0 0
-0.1340 0.0566 -0.5053 -0.374 0.142 0.917 105 99 91 0 0
-0.1154 0.0748 -0.5069 0.278 0.960 0.013 52 47 41 0 0
-0.0941 0.0959 -0.6436 -0.203 0.140 0.969 90 83 76 0 0
-0.0906 0.0994 -0.6447 0.044 0.396 0.917 74 68 57 0 0
-0.0731 0.1165 -0.6500 0.409 0.876 0.257 127 112 87 0 0
-0.0537 0.1356 -0.7120 0.749 0.394 0.533 91 81 57 0 0
-0.0635 0.1261 -0.7817 0.617 0.676 0.402 51 45 35 0 0
-0.0574 0.1322 -0.7926 0.603 0.725 0.332 84 74 57 0 0
-0.0570 0.1326 -0.7943 0.603 0.725 0.332 93 81 61 0 0
-0.0315 0.1576 -0.8447 0.477 0.813 0.334 115 102 65 0 0
-0.0284 0.1607 -0.8498 0.369 0.891 0.265 141 127 87 0 0
-0.0279 0.1611 -0.8537 0.496 0.849 0.181 147 136 96 0 0
-0.1237 0.0641 -0.3901 0.469 0.873 0.132 117 101 69 0 0
-0.1245 0.0633 -0.4067 0.344 0.712 0.612 107 93 61 0 0
-0.1230 0.0648 -0.4114 0.190 0.792 0.580 98 85 51 0 0
-0.1273 0.0607 -0.4543 0.705 0.689 -0.166 9 8 7 0 0
-0.1368 0.0514 -0.5059 -0.569 0.442 0.693 89 85 79 0 0
-0.0720 0.1151 -0.6522 0.160 0.984 0.078 154 136 108 0 0
-0.0706 0.1166 -0.6570 0.613 0.643 0.459 165 150 125 0 0
-0.0545 0.1324 -0.6995 0.455 0.890 -0.009 86 73 48 0 0
-0.0543 0.1326 -0.7014 0.541 0.823 0.174 51 39 23 0 0
-0.0527 0.1342 -0.7102 0.638 0.753 0.160 120 107 81 0 0
-0.0463 0.1405 -0.7142 0.139 0.738 0.661 154 139 112 0 0
-0.0448 0.1419 -0.7148 0.060 0.808 0.585 139 127 100 0 0
-0.0561 0.1310 -0.7665 0.091 0.896 -0.434 52 43 32 0 0
-0.0587 0.1284 -0.7888 0.716 0.487 0.500 61 52 42 0 0
-0.0562 0.1309 -0.7927 0.656 0.669 0.348 85 76 56 0 0
-0.0555 0.1315 -0.7941 0.438 0.861 0.258 111 100 77 0 0
-0.0268 0.1598 -0.8539 0.484 0.762 0.430 153 139 98 0 0
-0.1215 0.0639 -0.3843 0.422 0.688 0.591 120 103 78 0 0
-0.1209 0.0645 -0.3857 0.585 0.785 0.206 99 83 58 0 0
-0.1263 0.0592 -0.4563 0.669 0.502 -0.548 11 10 9 0 0
-0.1358 0.0499 -0.4694 0.488 0.361 -0.795 32 27 23 0 0
-0.1404 0.0453 -0.5051 0.530 0.760 0.377 64 60 55 0 0
-0.1301 0.0556 -0.6590 -0.195 0.895 0.402 71 66 60 0 0
-0.0935 0.0916 -0.6432 -0.321 0.398 0.859 86 81 74 0 0
-0.0529 0.1316 -0.6992 0.455 0.890 -0.009 99 86 60 0 0
-0.0521 0.1323 -0.7046 0.697 0.676 0.240 63 55 36 0 0
-0.0534 0.1311 -0.7651 0.277 0.800 -0.532 54 46 34 0 0
-0.0572 0.1273 -0.7865 0.351 0.845 0.403 89 81 66 0 0
-0.1326 0.0506 -0.3439 -0.455 0.594 0.663 169 167 162 0 0
-0.1345 0.0487 -0.4694 0.441 0.420 -0.793 24 20 16 0 0
-0.1392 0.0440 -0.4741 0.472 0.362 -0.804 100 95 86 0 0
-0.1241 0.0589 -0.6573 -0.341 0.502 0.795 51 45 39 0 0
-0.1219 0.0611 -0.6576 -0.399 0.439 0.805 60 55 49 0 0
-0.0510 0.1310 -0.7007 0.302 0.845 0.442 52 43 23 0 0
-0.0509 0.1311 -0.7026 0.584 0.768 0.262 41 33 16 0 0
-0.0498 0.1322 -0.7119 0.215 0.755 0.620 122 108 86 0 0
-0.0264 0.1552 -0.8432 0.454 0.629 0.631 110 96 67 0 0
-0.0245 0.1571 -0.8497 0.497 0.810 0.311 136 121 83 0 0
-0.1162 0.0643 -0.4297 0.788 0.546 0.286 91 77 50 0 0
-0.1224 0.0582 -0.4517 0.587 0.701 -0.406 4 4 4 0 0
-0.1267 0.0539 -0.4617 0.862 0.172 -0.477 10 7 8 0 0
-0.1323 0.0484 -0.4688 0.390 0.469 -0.792 16 14 10 0 0
-0.0696 0.1104 -0.4967 -0.440 0.626 0.644 65 61 58 0 0
-0.0664 0.1133 -0.6526 0.351 0.917 0.191 125 112 84 0 0
-0.0498 0.1298 -0.7027 0.751 0.637 0.173 41 35 18 0 0
-0.0503 0.1292 -0.7095 0.435 0.718 0.543 129 119 94 0 0
-0.0403 0.1392 -0.7140 0.183 0.382 0.906 129 115 94 0 0
-0.0299 0.1493 -0.8136 0.633 0.692 0.347 77 64 46 0 0
-0.0230 0.1561 -0.8495 0.497 0.810 0.311 132 117 81 0 0
-0.0225 0.1565 -0.8512 0.421 0.827 0.373 138 123 84 0 0
-0.0220 0.1570 -0.8528 0.321 0.868 0.378 143 125 84 0 0
-0.1153 0.0629 -0.4299 0.602 0.704 0.377 75 61 35 0 0
-0.1056 0.0724 -0.4931 0.477 0.763 0.436 99 93 87 0 0
-0.0522 0.1253 -0.5576 0.091 0.900 0.427 115 99 66 0 0
-0.0495 0.1277 -0.6749 0.718 0.630 0.296 71 55 37 0 0
-0.0487 0.1284 -0.7029 0.751 0.637 0.173 38 31 17 0 0
-0.0488 0.1283 -0.7092 0.511 0.639 0.576 120 110 84 0 0
-0.0480 0.1291 -0.7105 0.499 0.703 0.507 132 120 93 0 0
-0.0453 0.1317 -0.7141 0.190 0.588 0.787 106 92 72 0 0
-0.0097 0.1668 -0.8659 0.639 0.570 0.517 190 189 189 0 0
-0.1167 0.0592 -0.3788 -0.050 0.897 0.439 110 90 56 0 0
-0.1156 0.0603 -0.3801 -0.114 0.964 0.240 128 107 70 0 0
-0.0470 0.1276 -0.7025 0.677 0.607 0.415 41 33 20 0 0
-0.0478 0.1268 -0.7074 0.596 0.685 0.418 83 73 55 0 0
-0.0473 0.1274 -0.7090 0.451 0.605 0.656 99 92 67 0 0
-0.0317 0.1428 -0.7433 0.335 0.747 -0.575 94 83 57 0 0
-0.0517 0.1227 -0.7774 0.574 0.790 0.214 60 49 38 0 0
-0.0092 0.1649 -0.8646 0.599 0.742 0.301 185 183 184 0 0
-0.0087 0.1653 -0.8663 0.536 0.446 0.717 190 188 188 0 0
-0.1113 0.0621 -0.4180 0.471 0.848 0.244 93 79 51 0 0
-0.1129 0.0605 -0.4280 0.367 0.852 0.373 76 64 38 0 0
-0.1124 0.0609 -0.4296 0.379 0.828 0.414 76 63 38 0 0
-0.1183 0.0550 -0.4552 0.123 0.915 -0.384 4 3 5 0 0
-0.0471 0.1256 -0.5573 0.708 0.688 0.163 139 119 86 0 0
-0.0469 0.1258 -0.5591 0.708 0.688 0.163 119 98 69 0 0
-0.0525 0.1202 -0.5692 0.410 0.703 -0.581 86 72 45 0 0
-0.0684 0.1041 -0.6414 0.357 0.818 0.451 43 39 29 0 0
-0.0600 0.1124 -0.6563 0.482 0.792 0.375 146 133 107 0 0
-0.0462 0.1260 -0.7008 0.836 0.490 0.246 41 32 22 0 0
-0.0459 0.1263 -0.7026 0.677 0.607 0.415 43 33 23 0 0
-0.0280 0.1441 -0.7158 0.595 0.476 0.648 145 129 97 0 0
-0.0467 0.1252 -0.7821 0.411 0.688 0.598 83 74 59 0 0
-0.0417 0.1302 -0.7875 0.434 0.826 0.360 131 114 87 0 0
-0.0284 0.1434 -0.8163 0.514 0.800 0.311 88 74 48 0 0
-0.0238 0.1480 -0.8263 0.522 0.728 0.445 112 97 71 0 0
-0.1422 0.0293 -0.3064 0.271 0.933 0.238 177 177 173 0 0
-0.1411 0.0304 -0.3095 -0.269 0.839 0.474 129 121 110 0 0
-0.1108 0.0601 -0.4294 0.367 0.852 0.373 85 72 47 0 0
-0.0626 0.1081 -0.4786 0.123 0.887 0.445 108 94 78 0 0
-0.0615 0.1092 -0.4798 0.213 0.943 0.255 100 85 67 0 0
-0.0467 0.1238 -0.5373 0.487 0.845 0.219 91 74 48 0 0
-0.0456 0.1248 -0.5571 0.540 0.841 -0.028 135 116 80 0 0
-0.0457 0.1247 -0.5591 0.708 0.688 0.163 111 91 59 0 0
-0.0668 0.1032 -0.6411 0.396 0.887 0.237 28 25 16 0 0
-0.0452 0.1246 -0.7011 0.836 0.490 0.246 43 34 24 0 0
-0.0406 0.1291 -0.7132 0.403 0.413 0.817 96 83 69 0 0
-0.0269 0.1428 -0.7159 0.595 0.476 0.648 107 91 65 0 0
-0.0346 0.1348 -0.7941 0.351 0.689 0.634 149 132 98 0 0
-0.0307 0.1386 -0.8073 0.714 0.624 0.319 91 76 48 0 0
-0.0290 0.1403 -0.8076 0.721 0.520 0.459 113 96 70 0 0
-0.0159 0.1532 -0.8696 0.314 0.949 0.026 128 127 122 0 0
0.0017 0.1708 -0.8585 0.338 0.939 0.066 192 190 190 0 0
-0.1513 0.0177 -0.3068 -0.394 0.645 0.655 179 178 181 0 0
-0.1487 0.0204 -0.3076 -0.385 0.711 0.589 179 178 177 0 0
-0.1070 0.0618 -0.3758 0.636 0.726 0.262 147 131 87 0 0
-0.1074 0.0614 -0.3777 0.337 0.841 0.424 112 96 59 0 0
-0.0604 0.1080 -0.4780 -0.085 0.896 0.436 111 94 73 0 0
-0.0441 0.1239 -0.5588 0.579 0.814 0.044 132 115 82 0 0
-0.0737 0.0939 -0.6379 0.158 0.167 0.973 76 68 57 0 0
-0.0705 0.0971 -0.6373 0.513 0.071 0.855 65 56 47 0 0
-0.0680 0.0995 -0.6392 0.095 0.962 0.257 73 66 58 0 0
-0.0639 0.1037 -0.6457 0.594 0.508 0.623 63 55 43 0 0
-0.0257 0.1416 -0.7159 0.616 0.486 0.620 133 116 91 0 0
-0.0441 0.1229 -0.7821 0.388 0.764 0.516 93 84 67 0 0
-0.0325 0.1344 -0.7932 0.632 0.462 0.622 145 127 94 0 0
-0.0047 0.1619 -0.8661 0.126 0.911 0.392 185 183 185 0 0
0.0038 0.1704 -0.8575 0.061 0.973 0.222 190 188 188 0 0
-0.1060 0.0603 -0.3954 0.676 0.730 0.105 97 82 52 0 0
-0.0727 0.0924 -0.6382 0.301 -0.069 0.951 74 66 55 0 0
-0.0651 0.1000 -0.6398 0.424 0.501 0.755 44 36 31 0 0
-0.0624 0.1027 -0.6455 0.486 0.592 0.643 94 86 75 0 0
-0.0508 0.1143 -0.6575 0.596 0.599 0.536 79 67 49 0 0
-0.0226 0.1423 -0.7181 0.425 0.801 0.422 109 93 61 0 0
-0.0443 0.1201 -0.7794 0.659 0.574 0.486 64 54 41 0 0
-0.0442 0.1202 -0.7815 0.504 0.609 0.612 91 82 67 0 0
-0.0416 0.1228 -0.7830 0.156 0.775 0.612 69 60 46 0 0
-0.0300 0.1344 -0.7985 0.594 0.711 0.377 108 92 68 0 0
-0.0124 0.1517 -0.8550 0.737 0.654 0.168 130 118 83 0 0
-0.1037 0.0603 -0.3841 0.505 0.840 0.198 119 102 75 0 0
-0.1050 0.0590 -0.3937 0.525 0.830 0.188 99 84 52 0 0
-0.1047 0.0593 -0.3953 0.480 0.864 0.151 99 84 55 0 0
-0.0624 0.1002 -0.6426 0.754 0.351 0.556 56 49 40 0 0
-0.0512 0.1115 -0.6549 0.645 0.496 0.582 99 89 70 0 0
-0.0224 0.1401 -0.7151 0.636 0.706 0.312 136 118 87 0 0
-0.0210 0.1415 -0.7177 0.574 0.790 0.216 91 75 49 0 0
-0.0205 0.1420 -0.7193 0.385 0.779 0.494 146 131 97 0 0
-0.0353 0.1266 -0.7840 0.518 0.705 0.484 101 89 69 0 0
-0.0104 0.1514 -0.8363 0.657 0.578 0.484 118 102 67 0 0
-0.0017 0.1599 -0.8678 0.195 0.877 0.440 187 185 186 0 0
-0.1016 0.0601 -0.3890 0.510 0.844 0.165 111 96 65 0 0
-0.0397 0.1215 -0.5356 0.544 0.837 0.067 104 89 61 0 0
-0.0399 0.1212 -0.5563 0.461 0.886 0.043 119 100 69 0 0
-0.0414 0.1186 -0.6961 0.578 0.781 0.236 21 17 12 0 0
-0.0411 0.1188 -0.6979 0.478 0.775 0.414 19 16 11 0 0
-0.0406 0.1193 -0.7057 0.627 0.638 0.447 46 36 30 0 0
-0.0401 0.1199 -0.7072 0.627 0.638 0.447 49 39 30 0 0
-0.0208 0.1393 -0.7147 0.682 0.731 0.032 151 134 103 0 0
-0.0380 0.1214 -0.7797 0.439 0.797 0.414 89 81 70 0 0
-0.0340 0.1254 -0.7841 0.313 0.548 0.776 70 61 43 0 0
-0.0297 0.1297 -0.7902 0.716 0.602 0.353 69 55 32 0 0
-0.0080 0.1512 -0.8416 0.581 0.783 0.220 135 120 81 0 0
-0.0972 0.0626 -0.3384 0.205 0.883 0.423 68 54 40 0 0
-0.0956 0.0642 -0.3412 0.205 0.775 0.598 73 62 44 0 0
-0.1015 0.0578 -0.3931 0.312 0.877 0.364 113 98 68 0 0
-0.0674 0.0903 -0.6389 0.155 0.190 0.969 70 63 55 0 0
-0.0486 0.1092 -0.6548 0.523 0.678 0.516 100 88 72 0 0
-0.0410 0.1165 -0.6990 0.573 0.816 0.079 19 16 11 0 0
-0.0198 0.1378 -0.7150 0.615 0.779 0.123 111 96 68 0 0
-0.0101 0.1468 -0.8346 0.379 0.859 0.345 110 95 67 0 0
-0.0076 0.1492 -0.8382 0.213 0.904 0.369 134 118 81 0 0
-0.0961 0.0614 -0.3367 0.289 0.697 0.656 85 70 50 0 0
-0.0983 0.0586 -0.3992 0.462 0.873 0.156 81 67 37 0 0
-0.0980 0.0588 -0.4044 0.534 0.844 0.054 95 81 53 0 0
-0.0373 0.1191 -0.5580 0.541 0.832 0.124 148 130 91 0 0
-0.0373 0.1191 -0.5599 0.635 0.768 0.083 145 128 90 0 0
-0.0474 0.1079 -0.6549 0.491 0.769 0.410 62 52 35 0 0
-0.0384 0.1166 -0.7081 0.564 0.699 0.440 30 24 18 0 0
-0.0172 0.1381 -0.7176 0.714 0.695 0.081 106 86 61 0 0
-0.0189 0.1355 -0.8070 0.472 0.771 0.427 111 97 67 0 0
-0.0184 0.1360 -0.8086 0.503 0.750 0.429 127 112 79 0 0
-0.0176 0.1368 -0.8099 0.520 0.795 0.311 114 101 71 0 0
-0.0011 0.1530 -0.8698 0.208 0.853 0.478 175 174 173 0 0
0.0010 0.1552 -0.8693 0.512 0.858 -0.042 182 182 182 0 0
0.0006 0.1547 -0.8721 0.313 0.899 -0.307 188 187 186 0 0
-0.0969 0.0578 -0.3812 0.745 0.548 0.380 74 60 32 0 0
-0.0966 0.0579 -0.4043 0.534 0.844 0.054 98 84 58 0 0
-0.0983 0.0559 -0.4252 0.748 0.659 0.078 95 80 60 0 0
-0.0980 0.0562 -0.4305 0.590 0.767 0.252 112 101 89 0 0
-0.0361 0.1179 -0.5581 0.690 0.677 0.258 138 120 82 0 0
-0.0358 0.1182 -0.5597 0.690 0.677 0.258 112 94 59 0 0
-0.0376 0.1150 -0.7044 0.691 0.717 0.090 24 19 16 0 0
-0.0155 0.1374 -0.7131 0.479 0.778 0.406 113 101 73 0 0
-0.0311 0.1210 -0.7720 0.561 0.732 -0.386 58 48 39 0 0
-0.0319 0.1201 -0.7750 0.664 0.678 -0.315 51 42 32 0 0
-0.0342 0.1177 -0.7798 0.901 0.385 0.201 50 41 29 0 0
-0.0070 0.1449 -0.8340 0.434 0.820 0.372 136 120 89 0 0
0.0005 0.1521 -0.8694 0.242 0.813 0.529 171 171 171 0 0
-0.0950 0.0574 -0.3755 0.384 0.643 0.663 115 100 71 0 0
-0.0952 0.0569 -0.4024 0.534 0.844 0.054 92 77 53 0 0
-0.0969 0.0549 -0.4250 0.435 0.900 -0.005 84 69 48 0 0
-0.0347 0.1174 -0.5224 0.503 0.851 0.151 81 66 41 0 0
-0.0335 0.1183 -0.5457 0.445 0.689 0.572 116 96 64 0 0
-0.0572 0.0932 -0.6414 0.740 0.304 0.600 57 50 42 0 0
-0.0368 0.1133 -0.6986 0.737 0.675 -0.037 18 15 12 0 0
-0.0362 0.1139 -0.7042 0.542 0.832 0.117 21 17 13 0 0
-0.0328 0.1173 -0.7113 0.304 0.330 0.894 56 49 44 0 0
-0.0310 0.1185 -0.7755 0.370 0.900 -0.231 42 32 21 0 0
-0.0314 0.1180 -0.7803 0.387 0.877 0.285 66 56 44 0 0
-0.0901 0.0601 -0.3737 0.964 0.121 0.237 123 108 79 0 0
-0.0938 0.0560 -0.4022 0.534 0.844 0.054 93 78 56 0 0
-0.0349 0.1151 -0.5032 0.690 0.653 0.314 68 53 31 0 0
-0.0345 0.1155 -0.5047 0.706 0.637 0.310 79 66 40 0 0
-0.0333 0.1163 -0.5408 0.592 0.614 0.522 120 101 71 0 0
-0.0327 0.1168 -0.5422 0.531 0.688 0.495 123 102 71 0 0
-0.0687 0.0789 -0.6363 0.063 0.746 0.663 79 72 62 0 0
-0.0363 0.1114 -0.6994 0.795 0.581 -0.174 14 13 11 0 0
-0.0316 0.1161 -0.7113 0.304 0.330 0.894 66 58 52 0 0
-0.0834 0.0649 -0.3484 0.474 0.865 0.167 63 47 30 0 0
-0.0887 0.0591 -0.3753 0.784 0.592 -0.187 113 96 65 0 0
-0.0374 0.1105 -0.4839 0.690 0.543 0.478 64 50 34 0 0
-0.0321 0.1152 -0.5370 0.651 0.711 0.265 114 97 68 0 0
-0.0301 0.1171 -0.5486 0.485 0.853 0.194 140 121 85 0 0
-0.0670 0.0782 -0.6358 0.255 0.457 0.852 77 70 60 0 0
-0.0660 0.0792 -0.6371 0.108 0.886 0.451 84 76 67 0 0
-0.0583 0.0870 -0.6406 0.455 0.262 0.851 63 54 45 0 0
-0.0361 0.1091 -0.7025 0.765 0.602 -0.227 12 11 9 0 0
-0.0303 0.1149 -0.7113 0.096 0.676 0.731 61 55 54 0 0
-0.0041 0.1404 -0.8219 0.639 0.713 0.289 118 103 70 0 0
-0.1056 0.0402 -0.3072 0.615 0.692 0.377 116 99 71 0 0
-0.0883 0.0572 -0.3757 0.476 0.860 0.185 125 109 77 0 0
-0.0297 0.1152 -0.5473 0.546 0.826 0.142 120 102 67 0 0
-0.0658 0.0769 -0.6359 0.408 0.167 0.897 72 65 55 0 0
-0.0569 0.0859 -0.6405 0.448 0.522 0.726 78 69 60 0 0
-0.0348 0.1079 -0.7025 0.709 0.682 -0.179 11 10 8 0 0
-0.0085 0.1349 -0.7109 0.336 0.939 0.077 75 67 57 0 0
-0.0017 0.1405 -0.8140 0.658 0.669 0.346 82 68 41 0 0
-0.0868 0.0563 -0.3737 0.155 0.970 0.190 126 112 78 0 0
-0.0865 0.0566 -0.3754 0.155 0.970 0.190 128 114 80 0 0
-0.0606 0.0826 -0.4232 -0.008 0.947 -0.320 84 74 62 0 0
-0.0492 0.0939 -0.4555 0.516 0.758 0.399 85 70 48 0 0
-0.0442 0.0990 -0.4649 0.297 0.702 0.647 224 208 173 0 0
-0.0435 0.0998 -0.4661 0.482 0.662 0.574 177 157 124 0 0
-0.0428 0.1004 -0.4675 0.620 0.697 0.360 145 123 91 0 0
-0.0422 0.1010 -0.4689 0.578 0.637 0.510 164 142 110 0 0
-0.0882 0.0513 -0.6333 0.328 0.458 0.826 58 51 41 0 0
-0.0578 0.0826 -0.6382 0.031 0.758 0.651 54 45 36 0 0
-0.0558 0.0846 -0.6406 0.457 0.687 0.565 76 67 58 0 0
-0.0491 0.0915 -0.6469 0.692 0.532 0.487 53 44 39 0 0
-0.0331 0.1076 -0.6689 0.614 0.574 0.543 54 42 33 0 0
-0.0326 0.1077 -0.6994 0.711 0.701 -0.058 11 9 8 0 0
-0.0067 0.1342 -0.7104 0.336 0.939 0.077 78 71 64 0 0
-0.0058 0.1351 -0.7156 0.565 0.763 0.314 163 143 117 0 0
-0.0055 0.1354 -0.7173 0.516 0.671 0.533 148 131 101 0 0
-0.0149 0.1247 -0.7893 0.597 0.625 0.503 74 59 39 0 0
0.0045 0.1440 -0.8389 0.457 0.855 0.247 136 120 84 0 0
0.0043 0.1438 -0.8413 0.616 0.766 0.185 135 120 81 0 0
0.0058 0.1450 -0.8708 0.276 0.958 -0.072 140 138 133 0 0
-0.0579 0.0832 -0.4222 -0.076 0.982 -0.173 91 78 62 0 0
-0.0269 0.1136 -0.5283 0.578 0.806 0.126 103 86 60 0 0
-0.0889 0.0480 -0.6329 0.776 0.352 0.523 58 49 40 0 0
-0.0710 0.0665 -0.6344 -0.030 0.772 0.635 70 63 53 0 0
-0.0571 0.0808 -0.6367 0.328 0.792 0.515 84 75 66 0 0
-0.0567 0.0812 -0.6384 0.554 0.760 0.340 64 55 46 0 0
-0.0560 0.0819 -0.6399 0.578 0.630 0.519 56 47 38 0 0
-0.0325 0.1053 -0.7006 0.735 0.675 -0.065 12 10 8 0 0
-0.0266 0.1115 -0.6967 0.856 0.517 0.000 11 10 8 0 0
-0.0046 0.1339 -0.7157 0.510 0.758 0.406 170 150 123 0 0
-0.0041 0.1344 -0.7172 0.510 0.758 0.406 204 187 157 0 0
-0.0035 0.1350 -0.7187 0.457 0.704 0.544 145 130 101 0 0
-0.0126 0.1246 -0.7904 0.380 0.819 0.429 46 33 19 0 0
0.0060 0.1431 -0.8386 0.468 0.743 0.479 130 114 78 0 0
0.0055 0.1425 -0.8415 0.698 0.683 0.216 137 122 82 0 0
0.0064 0.1434 -0.8425 0.258 0.808 0.529 143 129 90 0 0
0.0081 0.1452 -0.8448 0.480 0.746 0.462 147 132 95 0 0
0.0069 0.1435 -0.8734 0.367 0.815 0.449 153 154 151 0 0
0.0076 0.1442 -0.8748 0.452 0.875 0.171 169 170 170 0 0
-0.0762 0.0629 -0.3488 0.642 0.758 0.116 106 91 59 0 0
-0.0264 0.1120 -0.5195 0.621 0.765 0.173 101 83 58 0 0
-0.0258 0.1125 -0.5265 0.610 0.784 0.115 100 83 57 0 0
-0.0250 0.1130 -0.5445 0.435 0.790 0.433 135 117 84 0 0
-0.0252 0.1128 -0.5484 0.720 0.643 0.261 128 114 79 0 0
-0.0277 0.1098 -0.5694 0.813 0.576 0.078 82 71 53 0 0
-0.0842 0.0503 -0.6321 -0.222 0.806 0.548 65 56 47 0 0
-0.0693 0.0657 -0.6340 -0.006 0.547 0.837 67 60 50 0 0
-0.0560 0.0795 -0.6348 0.457 0.739 0.495 73 64 55 0 0
-0.0546 0.0809 -0.6397 0.809 0.505 0.300 70 61 52 0 0
-0.0275 0.1082 -0.6865 0.737 0.431 0.521 19 16 13 0 0
-0.0312 0.1042 -0.7026 0.758 0.640 0.128 12 11 9 0 0
-0.0032 0.1329 -0.7155 0.487 0.811 0.324 146 132 109 0 0
-0.0138 0.1211 -0.7714 0.331 0.886 -0.324 50 39 27 0 0
0.0080 0.1426 -0.8421 0.258 0.808 0.529 139 125 85 0 0
0.0090 0.1432 -0.8724 0.536 0.808 0.244 147 147 143 0 0
0.0093 0.1435 -0.8742 0.549 0.824 0.141 165 165 165 0 0
-0.0935 0.0433 -0.3058 -0.022 0.938 0.346 86 74 56 0 0
-0.0872 0.0498 -0.3099 0.317 0.756 0.573 144 125 92 0 0
-0.0870 0.0499 -0.3116 0.198 0.845 0.497 159 140 103 0 0
-0.0779 0.0591 -0.3280 0.470 0.707 0.529 167 147 110 0 0
-0.0395 0.0968 -0.4658 0.789 0.467 0.398 173 160 133 0 0
-0.0357 0.1006 -0.4723 0.613 0.680 0.403 97 86 66 0 0
-0.0246 0.1114 -0.5246 0.579 0.810 0.092 111 94 68 0 0
-0.0243 0.1116 -0.5281 0.382 0.873 0.303 103 86 60 0 0
-0.0241 0.1115 -0.5485 0.720 0.643 0.261 125 110 76 0 0
-0.0242 0.1114 -0.5504 0.750 0.654 0.098 130 115 82 0 0
-0.0547 0.0782 -0.6348 0.690 0.592 0.417 63 54 45 0 0
-0.0536 0.0794 -0.6379 0.829 0.557 0.052 70 61 52 0 0
-0.0532 0.0797 -0.6396 0.708 0.627 0.325 76 67 58 0 0
-0.0289 0.1040 -0.6975 0.846 0.510 0.156 12 11 9 0 0
-0.0291 0.1036 -0.7123 0.510 0.647 0.567 42 39 35 0 0
-0.0284 0.1043 -0.7137 0.510 0.647 0.567 51 47 44 0 0
0.0103 0.1426 -0.8319 0.594 0.689 0.415 107 94 60 0 0
0.0137 0.1458 -0.8543 0.379 0.925 0.013 138 126 83 0 0
0.0102 0.1419 -0.8724 0.525 0.851 0.002 137 136 131 0 0
0.0103 0.1420 -0.8746 0.568 0.786 0.244 160 160 158 0 0
-0.0853 0.0494 -0.3113 0.173 0.784 0.596 149 130 95 0 0
-0.0372 0.0969 -0.4668 0.694 0.553 0.460 184 170 142 0 0
-0.0236 0.1102 -0.5155 0.431 0.838 0.334 89 70 43 0 0
-0.0233 0.1103 -0.5282 0.785 0.572 0.240 104 87 61 0 0
-0.0262 0.1066 -0.5682 0.703 0.609 -0.367 98 89 73 0 0
-0.0818 0.0476 -0.6302 -0.160 0.746 0.646 50 40 31 0 0
-0.0513 0.0792 -0.6390 0.805 0.592 -0.045 77 68 59 0 0
-0.0511 0.0794 -0.6409 0.744 0.640 0.190 74 65 56 0 0
-0.0509 0.0795 -0.6428 0.590 0.557 0.584 69 60 51 0 0
-0.0500 0.0805 -0.6440 0.505 0.318 0.802 77 68 59 0 0
-0.0277 0.1029 -0.6954 0.757 0.649 -0.072 11 10 8 0 0
-0.0264 0.1039 -0.7129 0.571 0.480 0.666 52 48 45 0 0
-0.0099 0.1201 -0.7721 0.343 0.865 -0.367 60 51 34 0 0
-0.0116 0.1182 -0.7762 0.178 0.984 -0.009 77 69 50 0 0
-0.0095 0.1203 -0.7868 0.340 0.718 0.608 108 96 72 0 0
0.0105 0.1404 -0.8310 0.288 0.843 0.455 135 121 88 0 0
0.0147 0.1442 -0.8615 0.606 0.791 -0.080 58 59 48 0 0
0.0120 0.1412 -0.8764 0.536 0.843 0.043 172 170 171 0 0
-0.0847 0.0477 -0.3098 0.215 0.745 0.631 109 93 67 0 0
-0.0721 0.0601 -0.3536 0.553 0.819 0.151 114 101 69 0 0
-0.0236 0.1081 -0.5017 0.312 0.820 0.479 83 67 44 0 0
-0.0237 0.1078 -0.5109 0.594 0.749 0.295 85 68 42 0 0
-0.0234 0.1082 -0.5125 0.594 0.749 0.295 93 76 50 0 0
-0.0539 0.0740 -0.6343 0.506 0.518 0.690 63 54 45 0 0
-0.0488 0.0793 -0.6440 0.172 0.720 0.673 66 58 48 0 0
-0.0403 0.0880 -0.6487 0.344 0.699 0.627 45 37 34 0 0
-0.0268 0.1016 -0.6730 0.822 0.448 0.352 46 37 26 0 0
-0.0187 0.1094 -0.7127 0.190 0.272 0.944 59 55 52 0 0
0.0058 0.1347 -0.7264 0.517 0.854 0.067 145 125 90 0 0
-0.0062 0.1216 -0.7672 0.221 0.887 -0.406 78 67 47 0 0
-0.0072 0.1204 -0.7705 0.193 0.912 -0.362 71 63 40 0 0
0.0067 0.1341 -0.8175 0.449 0.873 0.193 93 76 48 0 0
0.0162 0.1432 -0.8634 0.485 0.860 0.158 54 54 41 0 0
-0.0230 0.1064 -0.5021 0.453 0.850 0.269 83 66 42 0 0
-0.0229 0.1063 -0.5112 0.683 0.603 0.413 88 71 45 0 0
-0.0234 0.1049 -0.5583 0.934 0.320 -0.159 70 58 39 0 0
-0.0802 0.0441 -0.6269 -0.143 0.973 0.181 84 74 62 0 0
-0.0674 0.0574 -0.6306 0.640 0.381 0.667 66 58 48 0 0
-0.0282 0.0979 -0.6631 0.678 0.659 0.325 60 53 43 0 0
-0.0232 0.1026 -0.6893 0.399 0.864 0.307 11 9 9 0 0
-0.0241 0.1013 -0.7090 0.359 0.771 0.526 27 26 22 0 0
-0.0237 0.1017 -0.7107 0.167 0.669 0.725 35 32 29 0 0
0.0055 0.1322 -0.7177 0.521 0.771 0.366 145 129 104 0 0
0.0062 0.1329 -0.7190 0.475 0.775 0.416 157 137 111 0 0
-0.0041 0.1212 -0.7663 0.268 0.882 -0.387 73 63 38 0 0
-0.0048 0.1204 -0.7693 0.210 0.910 -0.357 74 64 42 0 0
-0.0068 0.1181 -0.7824 0.023 0.993 0.113 67 54 36 0 0
-0.0022 0.1227 -0.7923 0.203 0.641 0.740 85 73 49 0 0
-0.0005 0.1244 -0.7947 0.214 0.741 0.636 135 123 97 0 0
0.0080 0.1330 -0.8152 0.385 0.844 0.373 79 65 39 0 0
0.0137 0.1387 -0.8281 0.234 0.912 0.338 186 170 130 0 0
-0.0856 0.0421 -0.3060 0.490 0.829 0.271 102 84 67 0 0
-0.0849 0.0428 -0.3074 0.513 0.662 0.547 105 87 68 0 0
-0.0733 0.0547 -0.3211 0.536 0.801 0.266 80 64 43 0 0
-0.0319 0.0953 -0.4692 0.512 0.510 0.691 119 99 73 0 0
-0.0287 0.0985 -0.4778 0.577 0.726 0.375 91 78 57 0 0
-0.0204 0.1063 -0.5231 0.748 0.653 0.121 98 83 56 0 0
-0.0203 0.1065 -0.5249 0.748 0.653 0.121 96 81 55 0 0
-0.0200 0.1067 -0.5284 0.757 0.651 0.052 116 100 75 0 0
-0.0673 0.0549 -0.6295 0.325 0.595 0.735 55 48 38 0 0
-0.0664 0.0559 -0.6308 0.640 0.381 0.667 66 59 49 0 0
-0.0468 0.0763 -0.6425 0.229 0.878 0.421 62 55 45 0 0
-0.0465 0.0765 -0.6443 0.454 0.837 0.304 70 63 53 0 0
-0.0434 0.0797 -0.6477 0.255 0.467 0.847 76 69 59 0 0
-0.0232 0.1003 -0.6822 0.846 0.490 0.210 29 25 24 0 0
-0.0129 0.1104 -0.7156 0.201 0.074 0.977 56 52 49 0 0
0.0086 0.1328 -0.7240 0.386 0.816 0.430 115 101 73 0 0
0.0096 0.1338 -0.7270 0.371 0.926 -0.065 159 139 99 0 0
-0.0030 0.1198 -0.7686 0.761 0.521 -0.387 59 48 30 0 0
-0.1074 0.0175 -0.2691 0.008 0.747 0.664 163 164 156 0 0
-0.1072 0.0177 -0.2707 -0.117 0.831 0.544 114 110 95 0 0
-0.0728 0.0531 -0.3129 0.335 0.846 0.415 106 93 61 0 0
-0.0346 0.0906 -0.4449 0.832 0.430 0.352 89 73 50 0 0
-0.0304 0.0946 -0.4690 0.550 0.394 0.737 107 88 60 0 0
-0.0274 0.0975 -0.4778 0.427 0.752 0.502 82 68 47 0 0
-0.0206 0.1042 -0.4984 0.625 0.626 0.466 85 69 42 0 0
-0.0204 0.1045 -0.5000 0.669 0.678 0.305 86 71 42 0 0
-0.0201 0.1046 -0.5090 0.661 0.687 0.303 91 74 47 0 0
-0.0720 0.0475 -0.6284 -0.026 0.439 0.898 42 34 26 0 0
-0.0713 0.0482 -0.6299 0.072 0.649 0.758 48 41 32 0 0
-0.0225 0.0985 -0.6807 0.846 0.490 0.210 25 20 17 0 0
-0.0148 0.1059 -0.7126 0.106 0.465 0.879 55 51 48 0 0
0.0055 0.1273 -0.7182 0.113 0.253 0.961 85 75 66 0 0
0.0109 0.1328 -0.7228 0.363 0.900 0.240 124 110 82 0 0
0.0110 0.1329 -0.7268 0.426 0.905 0.011 126 103 69 0 0
-0.0029 0.1173 -0.7700 0.575 0.689 -0.441 52 40 26 0 0
-0.0047 0.1154 -0.7763 0.732 0.636 -0.246 62 52 33 0 0
0.0176 0.1377 -0.8308 0.585 0.723 0.368 103 91 66 0 0
-0.1065 0.0161 -0.2675 0.008 0.747 0.664 163 159 151 0 0
-0.1055 0.0171 -0.2688 -0.056 0.821 0.568 120 115 97 0 0
-0.1049 0.0177 -0.2703 -0.117 0.831 0.544 137 126 102 0 0
-0.1041 0.0186 -0.2717 -0.087 0.751 0.654 157 145 122 0 0
-0.0709 0.0461 -0.6285 0.012 0.702 0.712 51 42 34 0 0
-0.0605 0.0569 -0.6341 0.177 0.222 0.959 69 60 51 0 0
-0.0593 0.0581 -0.6352 0.736 0.281 0.616 74 65 56 0 0
-0.0314 0.0872 -0.6513 0.608 0.637 0.475 31 29 25 0 0
-0.0303 0.0884 -0.6543 0.547 0.667 0.506 43 39 35 0 0
-0.0138 0.1045 -0.7128 0.365 0.296 0.882 52 48 45 0 0
0.0126 0.1321 -0.7265 0.511 0.860 -0.002 129 110 76 0 0
0.0127 0.1321 -0.7305 0.487 0.873 -0.022 110 92 56 0 0
0.0141 0.1317 -0.8169 0.484 0.796 0.363 157 135 96 0 0
0.0230 0.1406 -0.8478 0.481 0.804 0.351 120 104 70 0 0
-0.1044 0.0160 -0.2654 0.781 0.585 0.221 169 164 160 0 0
-0.1049 0.0154 -0.2673 0.025 0.780 0.626 124 117 101 0 0
-0.1038 0.0165 -0.2686 -0.022 0.731 0.682 152 141 118 0 0
-0.1022 0.0182 -0.2714 0.015 0.774 0.634 160 149 125 0 0
-0.0183 0.1017 -0.5112 0.941 0.336 0.046 77 62 38 0 0
-0.0182 0.1017 -0.5130 0.941 0.336 0.046 77 62 39 0 0
-0.0291 0.0871 -0.6544 0.623 0.562 0.544 29 26 22 0 0
-0.0231 0.0932 -0.6631 0.565 0.512 0.647 19 15 14 0 0
-0.0013 0.1138 -0.7754 0.489 0.848 -0.204 62 50 31 0 0
0.0058 0.1210 -0.7932 0.495 0.743 0.451 53 39 25 0 0
0.0155 0.1307 -0.8167 0.484 0.796 0.363 159 140 100 0 0
0.0233 0.1375 -0.8786 0.652 0.756 0.062 187 187 189 0 0
-0.1036 0.0144 -0.2639 0.894 0.415 -0.168 166 165 158 0 0
-0.1037 0.0143 -0.2656 0.207 0.847 0.489 127 121 110 0 0
-0.0330 0.0867 -0.3798 0.695 0.621 0.362 78 63 42 0 0
-0.0308 0.0878 -0.4340 0.443 0.820 0.361 78 66 44 0 0
-0.0198 0.0982 -0.4912 0.648 0.619 0.444 76 61 42 0 0
-0.0211 0.0967 -0.4994 0.872 0.403 -0.279 61 47 34 0 0
-0.0207 0.0970 -0.5028 0.875 -0.029 0.483 75 62 47 0 0
-0.0184 0.0985 -0.5402 0.891 0.440 -0.110 84 81 69 0 0
0.0048 0.1191 -0.7167 0.771 0.086 0.631 62 58 57 0 0
-0.0958 0.0201 -0.2733 -0.050 0.801 0.596 90 82 61 0 0
-0.0951 0.0208 -0.2747 -0.152 0.908 0.392 73 65 48 0 0
-0.0765 0.0401 -0.2944 0.437 0.815 0.381 125 111 88 0 0
-0.0567 0.0595 -0.3637 0.050 0.751 0.659 61 52 38 0 0
-0.0323 0.0849 -0.3920 0.568 0.708 0.420 71 58 36 0 0
-0.0292 0.0873 -0.4266 0.347 0.878 0.329 69 58 40 0 0
-0.0286 0.0877 -0.4351 0.320 0.840 0.438 84 69 46 0 0
-0.0277 0.0887 -0.4380 0.328 0.735 0.594 85 70 47 0 0
-0.0276 0.0882 -0.4611 0.805 0.589 0.078 65 53 39 0 0
-0.0188 0.0968 -0.4913 0.723 0.560 0.404 74 62 45 0 0
-0.0182 0.0966 -0.5296 0.987 -0.066 -0.146 70 63 55 0 0
-0.0184 0.0963 -0.5317 0.988 -0.099 -0.122 74 69 62 0 0
0.0218 0.1320 -0.8320 0.521 0.806 0.280 98 90 59 0 0
0.0229 0.1332 -0.8327 0.071 0.773 0.630 105 92 64 0 0
0.0253 0.1355 -0.8408 0.473 0.759 0.448 145 133 98 0 0
0.0386 0.1487 -0.8772 0.045 0.839 -0.542 210 210 210 0 0
-0.0794 0.0350 -0.2826 0.030 0.825 0.564 218 204 167 0 0
-0.0792 0.0352 -0.2842 0.202 0.890 0.409 150 130 104 0 0
-0.0561 0.0578 -0.3622 0.454 0.848 0.275 71 61 45 0 0
-0.0559 0.0581 -0.3638 0.496 0.786 0.368 84 75 60 0 0
-0.0561 0.0577 -0.3657 0.593 0.024 0.805 101 91 80 0 0
-0.0334 0.0818 -0.3727 0.367 0.643 0.673 139 118 83 0 0
-0.0303 0.0847 -0.3880 0.609 0.793 -0.018 72 54 32 0 0
-0.0248 0.0886 -0.4709 0.510 0.285 0.812 37 27 17 0 0
-0.0234 0.0901 -0.4717 0.303 0.375 0.876 72 61 46 0 0
-0.0225 0.0910 -0.4729 0.430 0.420 0.799 79 69 53 0 0
0.0042 0.1121 -0.7735 0.308 0.866 -0.393 75 63 42 0 0
-0.0778 0.0343 -0.2824 0.232 0.907 0.352 211 196 161 0 0
-0.0523 0.0599 -0.3488 0.602 0.707 0.371 87 74 53 0 0
-0.0516 0.0606 -0.3536 0.149 0.985 0.084 57 47 34 0 0
-0.0545 0.0572 -0.3637 0.514 0.661 0.547 83 73 58 0 0
-0.0535 0.0582 -0.3649 0.556 0.541 0.631 99 89 78 0 0
-0.0275 0.0848 -0.4112 0.297 0.953 0.060 79 64 41 0 0
-0.0206 0.0905 -0.4796 0.903 -0.171 0.395 98 88 73 0 0
0.0064 0.1118 -0.7746 0.151 0.982 -0.115 74 63 47 0 0
0.0194 0.1243 -0.8294 0.297 0.911 0.285 187 173 137 0 0
-0.0756 0.0343 -0.2836 0.425 0.837 0.344 192 175 140 0 0
-0.0247 0.0849 -0.4312 0.405 0.777 0.482 91 78 53 0 0
-0.0231 0.0866 -0.4338 0.471 0.687 0.553 81 67 43 0 0
0.0240 0.1315 -0.6492 -0.140 0.989 -0.037 6 6 6 0 0
0.0252 0.1327 -0.6538 0.535 0.820 -0.205 7 6 6 0 0
0.0249 0.1323 -0.6561 0.535 0.820 -0.205 7 6 6 0 0
0.0199 0.1245 -0.7455 0.497 0.832 -0.248 153 136 95 0 0
0.0085 0.1115 -0.7737 0.219 0.959 -0.180 63 51 37 0 0
0.0089 0.1119 -0.7754 0.100 0.995 0.005 63 52 38 0 0
0.0329 0.1357 -0.8516 0.511 0.696 0.504 136 120 80 0 0
0.0368 0.1397 -0.8577 0.803 0.590 0.083 66 63 56 0 0
0.0369 0.1398 -0.8598 0.803 0.590 0.083 75 70 64 0 0
-0.0973 0.0092 -0.2602 0.802 0.521 0.291 174 172 163 0 0
-0.0482 0.0595 -0.3530 0.503 0.862 0.057 47 38 23 0 0
-0.0478 0.0598 -0.3546 0.287 0.956 0.055 44 35 20 0 0
-0.0246 0.0842 -0.3782 0.267 0.880 0.394 108 99 84 0 0
-0.0244 0.0843 -0.3797 0.336 0.934 0.126 86 76 62 0 0
0.0285 0.1350 -0.6090 0.881 0.459 -0.116 19 16 14 0 0
0.0290 0.1354 -0.6105 0.920 0.364 -0.145 24 22 19 0 0
0.0284 0.1348 -0.6129 0.999 -0.035 -0.040 16 15 12 0 0
0.0279 0.1342 -0.6153 0.935 0.340 -0.098 11 8 6 0 0
0.0279 0.1341 -0.6173 0.949 0.307 -0.066 19 16 12 0 0
0.0105 0.1112 -0.7727 0.219 0.959 -0.180 75 65 46 0 0
0.0110 0.1116 -0.7744 0.173 0.980 -0.100 59 51 34 0 0
0.0166 0.1172 -0.7917 0.738 0.583 0.340 78 65 40 0 0
0.0228 0.1229 -0.8261 0.399 0.886 0.235 180 164 126 0 0
0.0346 0.1352 -0.8421 0.431 0.828 0.358 140 124 82 0 0
0.0380 0.1383 -0.8601 0.803 0.590 0.083 71 67 60 0 0
-0.0726 0.0328 -0.2833 0.640 0.666 0.384 236 218 184 0 0
-0.0715 0.0338 -0.2862 0.573 0.747 0.337 179 166 132 0 0
-0.0218 0.0848 -0.3789 0.588 0.518 0.621 87 76 58 0 0
-0.0229 0.0836 -0.3812 0.367 0.910 -0.194 75 63 44 0 0
-0.0226 0.0831 -0.4069 0.431 0.794 0.428 89 75 49 0 0
0.0299 0.1341 -0.6088 0.898 0.399 -0.185 65 58 48 0 0
0.0289 0.1328 -0.6175 0.303 0.929 -0.211 92 85 73 0 0
0.0291 0.1328 -0.6231 0.636 0.765 -0.103 78 72 61 0 0
0.0268 0.1282 -0.6990 0.566 0.824 -0.014 128 116 91 0 0
0.0227 0.1225 -0.7472 0.442 0.840 -0.316 156 137 97 0 0
0.0125 0.1108 -0.7719 0.424 0.858 -0.291 85 77 53 0 0
0.0250 0.1228 -0.8227 0.561 0.739 0.373 179 160 115 0 0
0.0254 0.1233 -0.8243 0.676 0.643 0.360 195 178 141 0 0
0.0258 0.1236 -0.8261 0.557 0.712 0.427 132 120 96 0 0
0.0263 0.1241 -0.8277 0.491 0.705 0.512 98 88 67 0 0
0.0393 0.1374 -0.8533 0.744 0.508 0.433 109 102 82 0 0
0.0391 0.1371 -0.8580 0.439 0.898 -0.007 63 62 51 0 0
-0.0712 0.0318 -0.2832 0.535 0.762 0.364 222 207 173 0 0
-0.0615 0.0418 -0.2993 0.503 0.819 0.275 66 50 33 0 0
-0.0612 0.0422 -0.3009 0.589 0.788 0.180 48 37 19 0 0
-0.0216 0.0826 -0.3811 0.523 0.850 0.064 69 56 34 0 0
-0.0216 0.0820 -0.4052 0.599 0.791 0.124 88 72 47 0 0
-0.0214 0.0821 -0.4068 0.408 0.809 0.424 97 81 55 0 0
0.0281 0.1300 -0.6020 -0.452 0.869 0.200 74 66 56 0 0
0.0303 0.1321 -0.6133 0.630 0.743 -0.224 112 102 78 0 0
0.0251 0.1227 -0.7437 0.604 0.764 -0.226 140 124 85 0 0
0.0144 0.1103 -0.7712 0.385 0.868 -0.313 98 89 65 0 0
0.0147 0.1106 -0.7730 0.334 0.940 -0.071 66 58 37 0 0
0.0124 0.1080 -0.7778 0.563 0.419 0.712 61 53 33 0 0
0.0272 0.1226 -0.8259 0.456 0.852 0.256 104 96 78 0 0
0.0332 0.1289 -0.8316 0.303 0.850 0.431 105 91 50 0 0
0.0351 0.1309 -0.8358 0.222 0.804 0.552 156 148 117 0 0
-0.0199 0.0814 -0.4065 0.893 0.420 0.161 87 72 46 0 0
0.0352 0.1353 -0.6021 0.404 0.915 -0.011 151 137 103 0 0
0.0351 0.1349 -0.6099 0.571 0.821 -0.006 127 113 84 0 0
0.0352 0.1351 -0.6116 0.501 0.852 0.154 127 113 81 0 0
0.0312 0.1283 -0.6927 0.476 0.871 -0.121 149 132 95 0 0
0.0279 0.1233 -0.7399 0.434 0.895 -0.107 158 141 97 0 0
0.0162 0.1096 -0.7706 0.282 0.943 -0.178 92 83 58 0 0
0.0164 0.1098 -0.7725 0.393 0.914 0.107 83 75 54 0 0
0.0151 0.1083 -0.7762 0.382 0.830 0.405 69 61 37 0 0
0.0204 0.1140 -0.7808 0.655 0.657 0.374 92 80 55 0 0
0.0290 0.1219 -0.8275 0.609 0.710 0.354 67 60 40 0 0
0.0348 0.1280 -0.8312 0.217 0.865 0.452 187 173 127 0 0
0.0359 0.1291 -0.8343 0.279 0.879 0.387 180 170 136 0 0
0.0373 0.1305 -0.8391 0.545 0.404 0.734 97 82 49 0 0
-0.0590 0.0398 -0.2992 0.655 0.692 0.302 102 84 60 0 0
-0.0181 0.0816 -0.3855 0.713 0.661 0.233 88 75 50 0 0
0.0553 0.1587 -0.4728 0.345 0.812 0.471 123 107 77 0 0
0.0469 0.1487 -0.5052 0.559 0.725 -0.402 122 110 77 0 0
0.0471 0.1488 -0.5068 0.331 0.884 -0.330 115 103 73 0 0
0.0470 0.1486 -0.5087 0.080 0.985 -0.155 111 98 72 0 0
0.0470 0.1486 -0.5104 0.135 0.984 0.115 117 104 80 0 0
0.0469 0.1482 -0.5193 0.150 0.919 -0.364 100 95 85 0 0
0.0462 0.1474 -0.5217 0.116 0.924 -0.363 90 85 76 0 0
0.0448 0.1457 -0.5264 -0.037 0.993 -0.108 89 86 78 0 0
0.0371 0.1351 -0.6014 0.394 0.917 0.057 156 141 103 0 0
0.0366 0.1344 -0.6057 0.649 0.750 -0.127 160 143 109 0 0
0.0364 0.1340 -0.6097 0.571 0.821 -0.006 143 125 94 0 0
0.0336 0.1287 -0.6834 0.710 0.695 -0.112 167 149 106 0 0
0.0302 0.1236 -0.7282 0.693 0.719 -0.045 134 119 80 0 0
0.0175 0.1084 -0.7749 -0.111 0.932 0.346 87 80 53 0 0
0.0218 0.1131 -0.7763 0.654 0.635 0.411 75 66 47 0 0
0.0286 0.1192 -0.8163 0.738 0.626 0.252 101 85 52 0 0
0.0289 0.1194 -0.8182 0.611 0.782 0.122 143 129 89 0 0
0.0291 0.1196 -0.8202 0.611 0.782 0.122 167 153 112 0 0
0.0371 0.1279 -0.8321 0.349 0.806 0.479 202 189 147 0 0
0.0421 0.1327 -0.8547 0.572 0.780 0.255 84 73 57 0 0
-0.0680 0.0286 -0.2699 0.481 0.634 0.605 128 107 77 0 0
-0.0169 0.0805 -0.3888 0.732 0.566 -0.380 103 87 62 0 0
0.0563 0.1577 -0.4728 0.539 0.814 0.218 124 105 73 0 0
0.0527 0.1535 -0.4807 0.678 0.723 0.133 141 122 85 0 0
