ply
format ascii 1.0
element vertex 670
property float x
property float y
property float z
property uchar diffuse_red
property uchar diffuse_green
property uchar diffuse_blue
end_header
0.021479462151929807 0.03242335700540745 -0.8620987527480396 25 22 16
0.01888175310503093 0.031169235849440938 -0.8667865510922129 31 26 20
0.016538004194979194 0.03003018922540719 -0.8712600925316191 62 57 50
0.012457346219261922 0.028100136362945338 -0.8773278582038322 93 88 82
0.013231929937136677 0.028379574725297896 -0.8789922301156752 112 108 101
0.01940458506211279 0.03111675259100108 -0.8757213397065141 128 125 119
0.02377480393414609 0.050522485755196064 -0.2542691863971224 171 155 117
0.029701188156590945 0.05306485124066053 -0.25420031776190694 166 151 113
0.03526679813124562 0.05545002114521403 -0.25421269889979586 166 150 114
0.040624177962256404 0.05774464516976163 -0.2542661454842878 174 157 121
0.04065769349183628 0.057711496563682976 -0.2557749242989157 186 169 132
0.042833008416144784 0.05861506687926507 -0.25669021369363043 194 179 139
0.04406287998374512 0.05910523980980059 -0.2578645127218033 205 188 148
0.04564035263951478 0.05974754952721352 -0.25893890468959796 228 212 174
0.04671010528456935 0.06016782160349544 -0.26015352765172833 242 230 193
0.04843192478178048 0.06087347800908511 -0.26118104976972034 252 240 202
0.04926864298928943 0.0611919061576864 -0.2624578962446359 250 240 203
0.05117231471243183 0.061977350323396664 -0.26342694788572596 252 242 205
0.05240653762095475 0.062469892901444085 -0.2645852251750906 239 225 185
0.053962906593144566 0.06310353640781823 -0.2656475709626912 234 220 180
0.0521805462239566 0.06227546623490682 -0.2676832065854796 235 222 180
0.053241357086546814 0.06269214620481928 -0.2688901905651125 233 220 180
0.054367998702132256 0.06313770861609418 -0.2700760347075729 190 174 139
0.054267546594699706 0.0630458746044546 -0.27162493572660223 134 115 85
0.05330650627761733 0.06257699921166092 -0.27343332387060915 84 64 39
0.052293164548015775 0.0620850546307953 -0.2752623996976282 67 50 29
0.053563592809636976 0.06259357271720284 -0.2764061656863978 70 54 35
0.05493125128867398 0.06314477130728625 -0.2775180123567836 71 57 36
0.05177804935184793 0.06171478905338221 -0.28000884724414593 72 58 35
0.04989360471525086 0.060840520349189575 -0.2821220476864451 64 50 27
0.04953791559671288 0.06063613358128589 -0.28377103123355607 61 48 25
0.04918151083054954 0.06043133826300984 -0.28542324755211 63 50 27
0.05753806453567028 0.0637563829242475 -0.29357722102616146 93 80 52
0.06024114814499837 0.06489397086719341 -0.2942447397029489 96 85 55
0.060120789743755475 0.06479264129949838 -0.2958242270717605 98 84 55
0.0627616747132787 0.06590323258974994 -0.2965024392562748 86 72 43
0.06178953549128858 0.06542799003379597 -0.2983619484286012 89 75 46
0.061279849129135304 0.0651556196904177 -0.3000736943064838 91 77 47
0.06007613311722998 0.06457839688289221 -0.30201959542642925 94 82 50
0.06180886612641185 0.06529050348300944 -0.3029908365924528 93 80 52
0.06105648705657543 0.06491128856018058 -0.30479214245132724 87 73 48
0.06050528197689318 0.06462030018895973 -0.3065299924291233 80 66 43
0.060212859376294406 0.0644428776105014 -0.3081838478582139 81 67 43
0.060423585180708055 0.0644864249293687 -0.30966915507650067 80 66 42
0.060445114410422746 0.06444680132980198 -0.31122040094794456 81 67 43
0.05843754445491614 0.06351541277212 -0.3134715819051386 81 70 43
0.06049282185847032 0.0643694265802237 -0.31432671029680304 77 64 40
0.05877837494001757 0.06356655452687053 -0.31648654595794173 80 66 41
0.05899236626552678 0.06361122026435212 -0.31798078455714973 90 76 46
0.05925781663452921 0.06367847439125426 -0.3194581376723218 101 87 56
0.06011428668949382 0.0640055848540925 -0.32072811957911573 100 86 58
0.061438826790174324 0.0645385758709282 -0.3218312641984218 98 83 57
0.06013745612335712 0.06391668154330962 -0.32386653103005936 98 85 57
0.05993088786442306 0.0637761785821505 -0.32551656653163463 99 86 59
0.05941626690418183 0.06350006755288348 -0.3272799319480722 95 81 55
0.05895411867769092 0.06324692848471168 -0.32902802885094834 103 89 63
0.05864319931682985 0.06306022739773273 -0.3307247631475553 115 101 74
0.05787284052936397 0.06267123046704044 -0.3325919734279702 119 105 78
0.05634478704103654 0.061948583062408205 -0.33474127439059176 118 104 77
0.05556380650894844 0.06155458053669668 -0.3366228645697938 115 100 74
0.059410487210763474 0.06319784189477963 -0.3367982217932356 114 99 73
0.06021265421297046 0.06350089364887854 -0.3380930692142051 114 99 73
0.05821043477672981 0.06256898567821396 -0.34043356793410795 114 100 72
0.05834945701095088 0.06257986750872593 -0.34198020987811767 115 102 72
0.05770400851051115 0.06224515502527663 -0.3438237705233544 111 99 73
0.05593035880658782 0.061413292472135124 -0.3460983884542959 94 82 60
0.05167048301886015 0.05948575560896173 -0.34932612829996185 69 57 39
-0.035812481702998125 0.019927283181884317 -0.41477431587044533 81 68 54
-0.03615243135239821 0.019720154880815022 -0.4167245796131377 76 64 50
-0.03562631735369562 0.01989546100445523 -0.41831862848234036 81 69 55
-0.03720639278941047 0.019140326838552296 -0.42079146900647413 77 65 53
-0.03573134679302359 0.019734744244007563 -0.4219925503778897 79 66 56
-0.03761688589354435 0.01884430908260544 -0.4246042084861604 78 67 54
-0.0396753139894252 0.01787718594558614 -0.4272979012988909 80 71 56
-0.039324000688138405 0.0179748276280067 -0.4289789722690836 87 78 62
-0.04100188292645225 0.017175449875751786 -0.43152551894821023 89 80 64
-0.03989072061071272 0.01760884037973881 -0.4328871894010314 91 81 68
-0.04074178118542929 0.01717467982218182 -0.4350901318676753 90 81 68
-0.045845387741466015 0.014859828900036745 -0.4391330013973265 82 74 61
-0.04624985314132479 0.01462260429609294 -0.4411608483372971 82 74 62
-0.04723712783587741 0.014127470274013176 -0.44344599250309014 55 46 36
-0.04838018874424782 0.013563234159705173 -0.44580506759034655 47 39 31
-0.05030990164849486 0.012650749792771962 -0.4485156468268498 45 41 33
-0.051892647285999516 0.011891503420387473 -0.4510827242185656 40 37 32
-0.05186892810017088 0.011842947694537476 -0.4529474100287849 31 26 23
-0.049440731105879016 0.012740372133462921 -0.4574997530840764 36 28 23
-0.0477502461631151 0.013429679957644838 -0.45861992802576856 61 52 44
-0.04621386257420618 0.014050865842657745 -0.45980584192574403 99 88 76
-0.04392014600028982 0.015007574640783658 -0.460645284005872 69 57 43
-0.04339307846598456 0.01518192880139714 -0.46228254003057434 34 21 8
-0.04150588741092273 0.01595882061383304 -0.46329885238561974 43 30 20
-0.03997353564711234 0.016578637622802164 -0.46447335808248014 35 23 13
-0.03966091839027963 0.016658059612205192 -0.4662063028083541 57 45 30
-0.039544888810765566 0.016650318699481748 -0.4680313508180548 82 72 52
-0.037381358765815 0.01755005802186617 -0.4689078904376698 103 90 67
-0.03572857337611149 0.01822356011423601 -0.47001684847845865 90 77 52
-0.034996569615902 0.01848894239716249 -0.4715528933578353 82 71 49
-0.03491479223886232 0.01846601334737591 -0.4733940339663935 79 67 46
-0.034647940102148916 0.018525095422346843 -0.4751499636368748 82 70 48
-0.035138040171393714 0.018248399464213735 -0.47726564893660467 95 83 60
-0.03592901143022384 0.01783810702037486 -0.4795285330455826 95 83 58
-0.03616361027662601 0.01767448235425159 -0.4815312661930179 100 88 62
-0.03595231258568343 0.017708603661152247 -0.48332367330951315 91 79 53
-0.036334441972144305 0.0174793300083963 -0.4854030518260791 98 86 60
-0.03342231892468814 0.01871201512997822 -0.4858959969319804 96 81 58
-0.03339536898846965 0.018664278667353776 -0.4877786403315369 94 79 56
-0.03386418375436323 0.018396377463633498 -0.4899047619781543 96 81 58
-0.03365312962633357 0.018430209638057707 -0.49170303522978626 90 75 53
-0.03359459800557976 0.018396261144593112 -0.49357769978773985 100 85 62
-0.033448846669037385 0.018400979648813987 -0.4954116412925988 111 97 72
-0.03430137811597844 0.017962220710495594 -0.4977405824222383 122 108 82
-0.035565674324308766 0.017340361816784278 -0.5002793325049051 117 102 78
-0.03360652003565631 0.018150454569834107 -0.5012208414325164 121 107 79
-0.03334413432562383 0.01820672857376586 -0.5030051482662706 114 100 72
-0.03334174902585768 0.01814740792318552 -0.5049212978077797 114 99 75
-0.03292672018309126 0.018271421625830536 -0.506632156075489 107 93 67
-0.03420454439107126 0.01764287058356105 -0.5091992852401663 111 97 70
-0.03430990401743428 0.017535364527547725 -0.5111790459512284 128 114 88
-0.032928880517691744 0.01808869941028872 -0.5124049631678624 112 97 72
-0.03339208700916346 0.017821961379960477 -0.5145704814956948 118 104 78
-0.03309602230224051 0.017892796529300634 -0.5163508036780828 127 113 86
-0.03384066328717414 0.017500644938045887 -0.5186682245725356 127 112 83
-0.03389948820389313 0.017413443456126554 -0.5206365971790494 130 115 87
-0.03638865423279003 0.016244758821709643 -0.5238680940634085 131 116 90
-0.036390056515288705 0.016182794320569655 -0.5258166455977746 122 107 81
-0.03738828150521986 0.015677087314604543 -0.5282884862380509 107 92 66
-0.03689750948955178 0.015833990307663234 -0.5299858848310591 113 98 71
-0.03806677010896933 0.015251829310178183 -0.5325575557431632 115 100 72
-0.03896079275133904 0.01479199977968923 -0.5349908549588204 116 102 73
-0.040307685425542805 0.014130310433669538 -0.5376701983026799 120 104 79
-0.03922685022438552 0.014549640569571504 -0.5390655729710278 118 103 77
-0.040588968762305055 0.013880829746518747 -0.5417638193324523 116 102 75
-0.040277513060455045 0.013957354039671785 -0.5435729687415194 125 111 85
-0.04059617734769591 0.013753077851512224 -0.5457223738788268 122 108 82
-0.04099888090607201 0.0135112324791897 -0.5479209298019527 120 106 81
-0.0417338605434929 0.01312116682768058 -0.5503036106681574 115 102 76
-0.04198012995042874 0.012948771306019333 -0.5524260117231916 118 106 81
-0.04261370225877048 0.012603602086922197 -0.5547632613818991 97 85 61
-0.0423021156778049 0.012679690981129602 -0.5565880179201623 106 94 70
-0.042132432761640665 0.012692457651319988 -0.5584921207514518 102 90 65
-0.04252220830050846 0.012455649824971882 -0.5607066721559159 98 87 63
-0.04260689555562788 0.012354798037565756 -0.5627564963595867 94 83 65
-0.04253373990994963 0.012324270083406752 -0.5647215870460578 52 41 28
-0.04421055999816559 0.011512870711776133 -0.5676643280622558 56 44 32
-0.04517048425263562 0.011021088485655375 -0.5702152963601563 64 52 38
-0.044469668971805876 0.011270293793362737 -0.5718405330142168 82 70 55
-0.04552283168262758 0.010736593462336713 -0.5744535417785803 101 89 72
-0.044916315026489934 0.010943601114077176 -0.5761352662318033 52 39 22
-0.042734296631570884 0.01185404149139048 -0.5769236405903062 55 43 26
-0.0421393983717791 0.012055943651403625 -0.5786093519860963 62 50 36
-0.007279196129030885 0.02476777497025194 -0.6494253238485675 63 50 33
-0.008353970884306172 0.024219259563458606 -0.652214620013224 82 71 51
-0.001592410077917189 0.02627258743530396 -0.6790421017563159 83 73 54
0.002429778990004766 0.028018420895139506 -0.6783491441312585 86 77 58
0.004774134835421023 0.029008612176760984 -0.6788146090637268 84 75 55
0.007819247216339809 0.03031486623699116 -0.6787815008534387 94 84 60
0.009082502335767823 0.030818228474424905 -0.6799913557548161 96 86 59
0.010444230715111302 0.03136606822272027 -0.6811291473333454 96 85 58
0.012292877486688059 0.03213355949926881 -0.6819193531100232 107 94 67
0.013979831745820875 0.03282829273196196 -0.6828191931711913 112 97 71
0.015559174556878719 0.033474628228090345 -0.6837912035486619 122 106 81
0.017444032550529037 0.034258911643503656 -0.684541046399309 124 112 87
0.018835039486472083 0.034820545540506176 -0.6856393157819315 113 102 79
0.019013861298156937 0.03483527956674906 -0.6876053331990711 95 85 63
0.019914864768864587 0.035175882876712944 -0.6890529894616596 110 99 73
0.020191777924233656 0.035234812258641765 -0.6909507050498511 122 109 78
0.020389511251751508 0.03525794290173756 -0.6929074925298124 129 114 81
0.02025961926106265 0.03513307868325548 -0.695104546978307 109 96 66
0.019893871179539308 0.03490159424370737 -0.6974770880452897 100 89 66
0.020558831751563006 0.035135502507129976 -0.6991000643737229 94 82 59
0.02166255139769291 0.03556761359007847 -0.7004010621466809 144 129 102
0.02112713502549829 0.035259220186021706 -0.7029064912260627 138 123 91
0.021729465997197023 0.035464777188104285 -0.7045773100080772 131 116 85
0.022341138450526626 0.035674547926879976 -0.7062414685306884 127 111 80
0.02212696526492558 0.03551102065306132 -0.7085191161003652 136 119 89
0.022625882375187534 0.03566974582367019 -0.7102695130146333 136 121 93
0.022483083869546366 0.035538296518088694 -0.7125000057132184 138 123 93
0.022340114109509812 0.035406657511967254 -0.7147341913260854 146 131 100
0.022196884362481406 0.03527478840394879 -0.716972145058276 122 107 82
0.023637619735531967 0.035859328901055004 -0.7180198696865006 89 77 59
0.025051910479676393 0.036432014110809374 -0.7190841210528068 62 49 32
0.025912617036184915 0.03675430790793725 -0.7205647143150736 95 83 66
0.02708371331044651 0.037217102911462796 -0.7218084079971705 98 88 74
0.02730408552633265 0.03724963300399656 -0.7237748533810818 81 72 61
0.028302339289003414 0.037634256797307045 -0.7251483134761629 64 57 50
0.028650076320583168 0.037724385837268226 -0.727019267482146 65 62 56
0.029039961874913228 0.03783355760743469 -0.7288592033489806 64 58 50
0.028983232049113017 0.037740408315322216 -0.7310449599337147 55 46 34
0.030042481988596548 0.03815268970896228 -0.7323703722771518 66 57 40
0.03030220927458266 0.03820279144463558 -0.7343144920409763 86 76 53
0.030818967899293476 0.038369306252758764 -0.7360603697625555 117 103 71
0.03110218657461475 0.03842995825958467 -0.7379892070401486 146 129 91
0.031667478368936935 0.03861841400002003 -0.7396989356856523 137 118 82
0.032339530738524386 0.03885525577420401 -0.7413252846754251 143 121 86
0.03309281587937357 0.0391289315845965 -0.7428876286071169 143 122 85
0.03310615188103777 0.03906705836756527 -0.7450338794863779 152 133 91
0.03323753638531243 0.039058634734251294 -0.7470895976909234 154 135 93
0.03396361747828519 0.03931991100902925 -0.7486754143621134 147 128 86
0.0340916578104386 0.03930986001370729 -0.750737291818464 148 128 88
0.034093376283050564 0.03924240952872854 -0.7529025223545783 157 138 98
0.03409530278837597 0.03917495801074054 -0.7550706171589322 159 140 100
0.03366783503934623 0.03891249813190657 -0.7575867143369535 165 145 106
0.03407650998760417 0.039029486778485986 -0.7594341673398712 153 131 92
0.03447818163079727 0.03914325825447933 -0.7612884595350239 145 123 84
0.03385428947720456 0.03879123981374488 -0.7639749546784977 150 128 90
0.03366688681647867 0.03863729404314352 -0.7663127135314729 147 127 86
0.0332423074509508 0.03837547771889062 -0.7688476879540409 156 137 95
0.03346807792994172 0.038408995450162936 -0.7708562455981618 161 142 99
0.03348497601397807 0.038347530173348326 -0.7730380249810939 164 144 101
0.03325937331550827 0.038175751705701005 -0.7754221198013319 161 139 98
0.033588552054105325 0.03825603450683977 -0.7773531430346542 165 146 104
0.03415566187128022 0.03844444338806889 -0.779089104179431 161 142 100
0.03448902538762716 0.03852654677994406 -0.7810192735341392 153 134 89
0.034810826349927715 0.03860334212497658 -0.7829606218728165 159 140 96
0.03530171885346753 0.038757001357417775 -0.784762663640089 155 136 94
0.03537496258338807 0.03872062645379942 -0.7869146188288532 154 135 94
0.03756226968024007 0.03964610438147506 -0.7872974695481623 146 127 87
0.037607875229136 0.039597131280400016 -0.7894732969928865 143 124 84
0.03765347827513238 0.03954806473598389 -0.7916520575966114 153 134 91
0.03768744847382044 0.039493609933103455 -0.7938435875070691 153 135 90
0.037480261294078276 0.03932925793127394 -0.7962425079730551 148 129 86
0.03727263887536522 0.039164577288698516 -0.7986459402898101 154 135 91
0.03761093171450566 0.039248410858019195 -0.8005882605351108 161 143 97
0.034703173292783385 0.03785349200806652 -0.8053063346711835 165 147 99
0.03478999779786768 0.037822411535139766 -0.8074750125999194 160 142 96
0.0355886230972387 0.03811560237645861 -0.8090347811467262 160 141 99
0.03513863182313903 0.03783973845724589 -0.8116699534582433 157 139 95
0.036067055490339756 0.03819203962575768 -0.8131193601536021 144 128 86
0.0370635834897477 0.03857542824051351 -0.8145085536389459 140 122 86
0.037215918017006494 0.03857392294742659 -0.8166297289621648 140 121 86
0.03674304115526075 0.03828720302857534 -0.819298137315323 155 136 94
0.0364129362534224 0.0380654337797887 -0.8218473073417913 152 134 91
0.03542683636044641 0.037544238567881055 -0.8249759954288646 156 139 95
0.035952223767765884 0.03771246763209718 -0.8267848817595551 157 140 96
0.03620848666934187 0.03775785442867431 -0.8288315683635572 157 140 96
0.03336519729421153 0.03638841501658335 -0.8336180288128425 156 139 96
0.03233336128084732 0.03584539977528413 -0.8368170965216329 156 139 98
0.031389108855692044 0.03534211415458556 -0.8399466509110527 151 133 94
0.029888508836810518 0.03458451435594449 -0.8435794999244473 146 130 95
0.029486976471859216 0.0343285751599806 -0.8462415356733165 119 107 78
0.026689099666080823 0.03297776905945628 -0.8510544046533223 107 98 75
0.02361209034426942 0.031498895460469536 -0.856134781519147 85 77 62
0.021267310464939737 0.030354055384946538 -0.860574304872632 33 28 18
0.019107678123998606 0.029293371713918617 -0.864861486061885 24 20 14
0.016198610059722673 0.027889662348594232 -0.8698408714831769 53 47 41
0.011236860316373332 0.025546903821134392 -0.8767006937327209 85 80 73
0.024037360094738558 0.03125178274235693 -0.86976987431017 123 118 112
0.021138215718122244 0.029851667639292145 -0.8747701946483621 135 132 127
0.028543367884801107 0.033017618936794293 -0.8750268441292394 161 160 158
0.02676163221555071 0.05048047302092387 -0.2443960991033772 158 141 105
0.028504505053262845 0.051195880249199396 -0.24546483300914612 166 150 111
0.03084242500216039 0.052172418012537435 -0.24637296845306011 157 142 109
0.03467748822092641 0.053708349085491366 -0.24991613362047754 171 156 116
0.028440413785584567 0.05092239025287036 -0.25312131787576553 173 158 117
0.031908886720407315 0.05239543118382882 -0.25371276976029467 163 147 110
0.03824788762284825 0.05512877731042502 -0.25351073362680193 156 137 102
0.03880233618193945 0.055323321037650294 -0.25487951797239955 181 163 124
0.039812085779125185 0.05571776405649396 -0.25612246441203607 191 174 131
0.04111291022772906 0.05624006541456765 -0.2572830219075152 202 186 143
0.04470604684611132 0.057769119196985574 -0.2578001847694431 227 210 168
0.04630893285847039 0.05842436176814779 -0.2588672476579241 246 233 197
0.04688089747843985 0.05862687456603945 -0.2602225147636155 254 250 219
0.048065133523354814 0.05909836569697865 -0.2614035345144518 254 251 219
0.04941989139817697 0.05964484347467037 -0.2625337113121892 247 239 205
0.05175823298612066 0.06062360496747618 -0.263378259999464 249 239 201
0.05377792420324409 0.0614625175823838 -0.2643091933427373 243 231 190
0.052145389758094775 0.060696365165049095 -0.2662981249708753 251 241 199
0.053116850616681865 0.06107462332016328 -0.2675321715294817 227 212 169
0.05428167721972361 0.06153793369714364 -0.2687079410524838 200 182 144
0.0546714155460233 0.061660521322601455 -0.27011104978964684 124 106 77
0.0521389608256486 0.060498121463595234 -0.27238415696284907 75 58 33
0.051165549004949476 0.06002103398131245 -0.27420094104649234 61 46 24
0.05038969018573844 0.05963067600903919 -0.2759633071658509 67 52 33
0.049293366858618126 0.059099209681586606 -0.27782697388472133 73 60 41
0.04923648520985411 0.059024860125939035 -0.2793799633370307 77 65 45
0.04657884537362664 0.057806132302054974 -0.28173018676100536 70 59 37
0.045754246835369286 0.05739368507023895 -0.28352751104128526 67 55 33
0.04841875532211319 0.05851664148376394 -0.28425103382144995 71 59 38
0.053100716702252714 0.06052780670222026 -0.2843407207352557 75 63 42
0.0539546264026852 0.06085428455049284 -0.2856125379249106 74 63 41
0.06470706173977143 0.06553869902994812 -0.2837748705938986 77 62 42
0.06574534233218865 0.06594694927688309 -0.2849700570514291 78 63 41
0.0693822338006801 0.06749958834027389 -0.28533892220952695 81 66 44
0.05461320129437461 0.06084693091635479 -0.29466177308444547 90 76 49
0.05782548845570428 0.062212445402321556 -0.2951698682086216 91 80 50
0.06009366060948087 0.06316223746110994 -0.2959765749892946 90 77 48
0.05891348377876113 0.06259257354197043 -0.29790643937371325 88 74 45
0.06120862916342243 0.0635544372279653 -0.2986985593820346 89 75 46
0.06020715192529092 0.06306335683303643 -0.3005751200434971 90 76 47
0.059733321191446 0.06280472062242234 -0.3022815096745411 95 81 50
0.06127526433720459 0.063434732320514 -0.3033179053346766 99 85 56
0.06102179214931806 0.06327315134691237 -0.3049538294400056 99 84 57
0.061118235608536846 0.06326579936210652 -0.3064743929271639 95 80 52
0.06111068337191167 0.06321252891072333 -0.3080317722238605 98 84 55
0.061910470297784216 0.06351532998834417 -0.309315878061658 100 85 56
0.061579851055975854 0.06331945273309571 -0.31098635555583237 98 83 54
0.05760446362799283 0.06151530650286742 -0.3139144610323663 99 86 54
0.05808683256201149 0.061677794923592676 -0.31531589609550775 100 86 58
0.05810254652066342 0.06163432311950004 -0.31687980746237077 99 84 55
0.058540601961237185 0.061777209953474674 -0.31829802968340026 106 91 58
0.05816535721666253 0.06156105548748046 -0.3200021505272439 111 96 64
0.058530385533332285 0.061671629927009086 -0.32144833781984317 108 93 64
0.05994055429931785 0.0622436707448796 -0.32252475044124085 102 86 59
0.05949095104905503 0.06199451012957999 -0.3242606045915573 106 91 61
0.05905651422419171 0.06175193719547201 -0.32599448114481044 109 94 65
0.058622554582702956 0.061509465705163045 -0.32773159025092147 100 85 57
0.0560828109148582 0.06033660078259251 -0.3302328967200477 104 89 62
0.05574031536028117 0.06013420562224879 -0.33194724384056556 115 101 73
0.05633050792323972 0.06034385231576052 -0.3333245303399139 119 105 77
0.056391870536098225 0.060319790274547994 -0.3348955086019368 119 105 77
0.05881710186407489 0.06134049465461996 -0.33559791758605084 112 100 73
0.06016697318228891 0.061886040384036355 -0.3366916672454236 113 101 73
0.05973500970705961 0.06164391100594854 -0.3384448596369579 111 100 72
0.06025557572621133 0.06182284461030594 -0.33984586224740726 106 95 68
0.05841837738866611 0.0609591260993054 -0.3421313627804649 101 89 64
0.05528230541012902 0.059469004059091016 -0.3465235579497834 69 58 40
-0.034161400734389696 0.01898919915682863 -0.4089063014173886 75 63 49
-0.033134003071402754 0.019270953564227533 -0.41389406409290264 68 56 42
-0.03394309925218418 0.018854135045665132 -0.41603510725973813 69 57 43
-0.03403227869348008 0.01875644753730321 -0.417882138329692 84 72 58
-0.0337539767122856 0.01882168317512503 -0.4195783824617927 72 60 48
-0.034425430048377434 0.01846553694123633 -0.42167389922228743 75 64 54
-0.0405493934343954 0.015690021311608862 -0.42606883907978066 77 68 56
-0.04110061276025734 0.015386615927877267 -0.42813261098935346 80 72 59
-0.04173931742853579 0.015044247686676102 -0.43023776522926954 86 78 61
-0.042389445936611536 0.014696662011517328 -0.4323523600930333 90 81 65
-0.04000555265799159 0.015695789925207607 -0.43317289238020223 95 86 72
-0.03994577421895279 0.01566326517879009 -0.43498613233239336 79 70 56
-0.04548299280484047 0.01314540932356216 -0.4392173398928553 90 80 65
-0.046944504733661796 0.01243683215218884 -0.4417042221443702 95 84 72
-0.049397920347973995 0.01128745592996433 -0.4446304203209032 75 64 53
-0.049756735826224585 0.011068161294897863 -0.4466523444195355 46 38 30
-0.049274682176676576 0.011222321026440746 -0.44830886292932587 51 47 39
-0.048696688989255776 0.011117891697656868 -0.4593012303045754 75 66 54
-0.047425374406913856 0.011622749375647556 -0.4606096553482218 93 84 67
-0.0458071846443997 0.012281948242835766 -0.4617585055763424 94 82 66
-0.04455314777248695 0.012779288481730738 -0.46306957895295153 46 33 20
-0.042130233058696454 0.013796679419523797 -0.4638441225140197 43 30 20
-0.0417259817288918 0.013916152475353175 -0.46553857300328116 54 41 31
-0.03967895856377662 0.014766583294494498 -0.466476954181928 67 55 40
-0.04032688928069203 0.014417844264553475 -0.46865689267573674 99 89 70
-0.03838227842717162 0.01522286520441192 -0.469637461516543 111 100 78
-0.036515667794610324 0.015993318709047716 -0.47064959940533957 73 61 40
-0.035519494557854636 0.01637639185355219 -0.47206470833382175 60 50 31
-0.03492191120423749 0.016582028079570113 -0.4736658418169424 78 65 46
-0.03540322159592538 0.016307198769989498 -0.47577621365574085 76 64 44
-0.035108825604215216 0.016377724820881054 -0.4775232925736883 98 85 64
-0.0349456547701148 0.016389755694635078 -0.47933406767994874 101 89 65
-0.03549049850062938 0.016086304816680344 -0.4814846442911238 81 69 43
-0.035695419128907724 0.01593416998953269 -0.48347672187142665 93 81 55
-0.03457993702463666 0.016370338593485814 -0.48483665508951 91 79 53
-0.03407258395075058 0.0165355295634506 -0.4864885610978634 86 71 49
-0.034413590563533075 0.016322551832622018 -0.4885523281617492 97 82 60
-0.03457023577528473 0.016191645094313506 -0.49053004093718283 96 81 58
-0.03475510505821158 0.01604805785472703 -0.4925245447262772 102 87 64
-0.03543538429518203 0.0156834545847456 -0.494765158300557 96 81 58
-0.03508592676540426 0.015777939733645704 -0.4965037314184825 114 99 75
-0.03527292137434579 0.01563310644749677 -0.4985085652480785 94 80 54
-0.03592709280315917 0.015279761545255219 -0.5007483215352309 92 78 53
-0.036510905268990174 0.014957650993601052 -0.5029579420000799 103 89 61
-0.03493239291914779 0.01560028136341668 -0.5040912379293033 116 102 75
-0.03506165842739181 0.015480862415578708 -0.5060779850336647 103 89 65
-0.03454774675058786 0.01564843091669113 -0.5077437081042157 106 91 68
-0.03453393327938595 0.015592733974932285 -0.5096627846371586 112 97 74
-0.03442285766548045 0.015580384469347439 -0.5115349096125664 99 85 62
-0.033366349143467866 0.015990135816048454 -0.5129274871828041 100 86 63
-0.033820535128745555 0.015725270543945416 -0.5150909148018382 100 87 63
-0.03464575473364831 0.015294546421339539 -0.5174489552637039 102 90 64
-0.03502817673946415 0.015061446397018258 -0.5195845354372691 114 100 73
-0.035142022800533024 0.014948213311877623 -0.5215852039103724 129 112 87
-0.03747108865831156 0.013845040408102777 -0.5247383193965727 123 108 83
-0.03781835932730432 0.013627165556358553 -0.5268706593604097 116 101 78
-0.03829157078405307 0.013352876769235952 -0.5290726714813856 107 93 69
-0.04031715429506691 0.012384502432296926 -0.5320934938982682 107 94 69
-0.04253175226316727 0.011331291674857524 -0.5352241513201094 116 104 78
-0.044248772473708536 0.010500216376434404 -0.538102879949679 107 95 67
-0.042885210827853876 0.011046510250339592 -0.5393566912342239 116 101 77
-0.0435742578773026 0.010674819561150503 -0.5417005378424028 112 97 74
-0.04419849436527057 0.010331953427450469 -0.544014965691268 109 96 73
-0.04368188161523687 0.010499337777799336 -0.545722597570985 109 97 75
-0.04384019564492442 0.010364703380791498 -0.5477940170975171 108 97 76
-0.044255807949184156 0.010114820934122165 -0.5500075851809431 97 86 64
-0.04303981259253209 0.010595081827183966 -0.5513409186105351 96 85 63
-0.043523009016206676 0.010314778593919147 -0.5535964564030135 97 87 65
-0.044405898236812735 0.00985538701116817 -0.5560746632168702 96 86 64
-0.04496621204677906 0.009540241235002717 -0.5583821590762502 94 84 62
-0.04343202651120179 0.010162925676701753 -0.5595427845082717 93 83 61
-0.04458878189666962 0.009580461075420904 -0.5621848694811419 95 84 63
-0.04440303353616848 0.0095991522813198 -0.5640906618672095 74 63 48
-0.044271801593818494 0.009593358652417477 -0.5660286291682202 43 33 23
-0.0459844101399515 0.008761303211742552 -0.5689969589965816 57 44 32
-0.04472973173629094 0.009258727098931774 -0.5703140200886817 57 44 28
-0.04577480131358852 0.008725455715304503 -0.5729203264936163 74 61 44
-0.046318708413841336 0.008416625319307688 -0.5752509337115651 88 75 58
-0.046705173574721454 0.008178228308547655 -0.5774972807344978 68 55 38
-0.04680770170374038 0.008067014705109316 -0.5795866554533713 57 44 28
-0.046512615924783285 0.00813401823998286 -0.5814526429686684 67 55 41
-0.0448389615796945 0.008819299056409574 -0.58253229235446 76 66 51
-0.04333609284448811 0.00942809480110944 -0.5837059039690896 75 66 52
-0.04225400739081209 0.00984821054242141 -0.5851183472569504 66 56 44
-0.0428660785825343 0.00950818024656111 -0.5875074135966495 41 31 20
-0.04409159114566588 0.008892684726247532 -0.5902570215854942 67 54 38
-0.044883794121407805 0.008471435864900623 -0.5927622499007985 88 76 57
-0.04479274922977888 0.008446498326297 -0.594758020411018 100 88 67
-0.04393651790167463 0.008765035229422166 -0.596308165131176 89 78 56
-0.013047577421417211 0.020277620934272406 -0.6515696909419535 89 76 56
-0.01174684199096615 0.0207977209601989 -0.652797592662276 50 38 21
-0.012201031993200134 0.020525598639301132 -0.6551869079964062 59 48 30
-0.0016240342543235031 0.024564719376342775 -0.671090231672695 65 52 33
-0.003120713230529787 0.02382031456143842 -0.674221582634457 95 83 62
-0.0036424186504796785 0.023516653913546168 -0.6766885813873181 81 70 49
-0.00395350070162534 0.023308122240270762 -0.6790147038912027 74 63 43
-0.0031192617827450753 0.02361771330309688 -0.680548824985987 87 76 58
-0.0012121650888951285 0.02441286919233486 -0.6813341063267677 58 49 33
-3.749574326586402e-05 0.024876671701728456 -0.6826263775086825 41 34 19
0.003132328851560534 0.026243765181189843 -0.682516611424723 78 70 52
0.006361508176161823 0.027638079595968243 -0.6823542839187056 100 90 70
0.00746057612268311 0.028068137779057714 -0.6836846248080157 93 82 60
0.00900480457167166 0.02869987625747998 -0.6846978657987659 94 82 57
0.00968126540903863 0.02893865176568132 -0.6863236436314952 107 94 68
0.010784456065071613 0.029370760857693037 -0.6876453467698441 116 100 76
0.011304825970868931 0.02953884123776243 -0.6893816279541763 118 106 81
0.013164634893641974 0.030313927122588902 -0.6901584457354226 108 97 74
0.01422291048187349 0.03072587437610451 -0.6915063220735153 91 81 60
0.015828664705307666 0.03138606757803357 -0.6924576655642983 103 91 69
0.01655195612190763 0.03164628111377872 -0.6940431916538421 134 120 94
0.01660976548921328 0.031604724546739765 -0.6961112572455781 137 121 93
0.01665874141823198 0.031559076777571304 -0.698188392492984 129 114 89
0.016803720852312548 0.031556891341060156 -0.7001981420663185 111 96 73
0.018408675145397957 0.03221700190822972 -0.7011413448553557 127 112 87
0.019840634044764688 0.0327987478623613 -0.702207432045149 142 126 98
0.02051400125208283 0.03303633372896682 -0.7038288153161455 143 128 94
0.01943346072313687 0.03247782750496998 -0.706745723098125 155 140 106
0.0202165826998989 0.03276511763074909 -0.708289554614068 144 128 97
0.020345573314064197 0.03275542369925859 -0.7103189361505632 137 120 91
0.020652449134308 0.03282643341083838 -0.7122180989509082 127 111 87
0.02071557998796089 0.03278668805850414 -0.714301044655312 133 119 94
0.020136337773410007 0.03245505759638656 -0.7168682680701703 107 93 68
0.021704866238158288 0.03309903332540648 -0.7178259634153379 59 46 29
0.022518141416666138 0.03339995469115094 -0.7193492403716606 58 46 32
0.023802375292844707 0.03391493261769221 -0.7205156087857455 63 51 33
0.024512486853889154 0.0341690387435698 -0.7221147657769692 115 104 84
0.025660628994706447 0.034622284842756965 -0.7233804224713332 117 104 86
0.02631625403344534 0.03485166187783642 -0.7250197594571973 89 76 58
0.02722059629203083 0.03519414307304615 -0.7264687699323122 66 56 43
0.02767224299909532 0.035330761262160074 -0.7282641883117246 59 53 42
0.028370910266162702 0.03557971825601308 -0.7298703854665577 52 46 37
0.02979748947221697 0.03615985900883602 -0.7309143989415299 49 39 27
0.02995163673265308 0.03616109902529081 -0.7329402848006118 89 77 59
0.030355966569174914 0.0362761273703989 -0.7347741686942317 90 75 49
0.03114696948576176 0.03656712719841246 -0.7363080513997013 115 97 62
0.0320604119946567 0.03691388759757812 -0.7377457123664448 139 120 78
0.031522915239499294 0.03660002326905322 -0.7403189001100505 134 115 78
0.032492788502208464 0.03697244992776605 -0.7417132422703996 123 103 68
0.03228421932442349 0.03680816516519568 -0.7440347318877505 157 137 97
0.032769466579824574 0.036959822740921675 -0.7458119246381519 154 135 93
0.03335361787594757 0.037156517403083136 -0.7475115500528688 154 135 92
0.03391183764558861 0.03734138341605045 -0.7492321488798881 154 134 92
0.034001667792616846 0.03731275494002596 -0.7513265642574735 153 131 91
0.03396307948660418 0.03722550308270421 -0.7535262575060865 166 145 104
0.033576117736597716 0.036979317595681876 -0.7560084407338198 165 145 103
0.03351737106031841 0.03688264085604191 -0.7582315881523831 165 143 103
0.0333004282374309 0.036713709205123526 -0.7605856062080278 164 142 102
0.03287286025449415 0.036448572342505856 -0.7631139841704488 155 133 93
0.03235644139979915 0.0361427384493138 -0.7657194478217414 164 142 101
0.032150304761038195 0.0359783073735378 -0.7680780717350536 143 124 81
0.0318556742834428 0.03577336119563407 -0.7705128989011834 166 147 105
0.032618306733605135 0.036050846019710356 -0.772087593420133 164 145 104
0.032771229629567855 0.0360500051347392 -0.7741618683234914 158 138 98
0.03292434569856162 0.03604917544195348 -0.7762383819328503 164 142 101
0.033584221561479416 0.03627968596738916 -0.7778993599861801 152 133 90
0.03400336695904482 0.036400244760412384 -0.7797594831421063 148 129 87
0.03421902988501488 0.03642781304093787 -0.7817895414639602 157 139 94
0.0350927517067989 0.03675597062906637 -0.7832744050354665 161 142 99
0.035274688557443534 0.036768040316298406 -0.7853353047807633 154 135 92
0.035075867192052745 0.03660601648169194 -0.7877169548415235 149 130 88
0.035503533162669104 0.03673023586661364 -0.7895772247929691 141 122 83
0.03557133814582558 0.03668989498647794 -0.7917413122725907 146 127 87
0.03582264061398077 0.03673336929688861 -0.7937534710502756 151 132 88
0.03624143531141327 0.036853380412974354 -0.7956259486988411 162 144 98
0.03167179027165501 0.03469157600712108 -0.8017305253641751 162 144 98
0.03204276132717071 0.03478925329431219 -0.8036578446259267 163 145 99
0.032513151710537314 0.03493237497603366 -0.80550181662557 165 147 101
0.03338081750788069 0.035257274698506744 -0.8070070025652325 165 147 99
0.034185351141951426 0.03555330682241274 -0.8085654261401294 166 148 102
0.03453692164054431 0.03564199505038469 -0.8105127800081061 156 137 95
0.0347958165495533 0.035688200330781836 -0.8125415980365801 155 138 96
0.03560854423424606 0.035987967141419025 -0.8140934884213571 134 117 80
0.03587176477437462 0.03603606811174584 -0.8161212190258438 124 105 73
0.03604572091380431 0.03604321368215359 -0.8182285410214858 126 107 73
0.035941249199739705 0.03592271301933464 -0.8205810293459572 147 128 88
0.03485625548863849 0.035352765128191535 -0.8237945214495637 146 127 87
0.03571448498170096 0.03567318277632786 -0.8253128723123224 151 133 91
0.03580893045737937 0.03564350411617083 -0.8275017972510258 153 136 93
0.03599094253272914 0.03565388300773474 -0.8296163458421005 154 137 94
0.036252527392588524 0.03570067391665363 -0.8316629573504832 155 138 95
0.03160718660527978 0.03349689291351604 -0.8380606442720397 154 137 98
0.029095589613967077 0.03227106921692535 -0.8425877414167738 147 131 94
0.02943637620606912 0.0323534059624091 -0.8445884140825833 135 119 88
0.028874072195607614 0.03202128597903889 -0.8473977314776796 111 99 76
0.02442222663495086 0.029903866957210604 -0.8536980973663051 97 89 72
0.020894761642220927 0.02820996248497737 -0.859192947920152 52 45 35
0.018875388847392538 0.027207772951258674 -0.8633497553249657 24 21 15
0.01645964061540256 0.026023149444349178 -0.8678778240206202 38 34 28
0.011329194920995322 0.02359127941375805 -0.8748798473452365 73 68 62
0.022783882289662716 0.028625874660038908 -0.871544879165639 129 124 119
0.025531059616209273 0.029661747930359472 -0.8760868381058946 159 158 155
0.025207051833915806 0.04860543297349156 -0.23122719286499482 147 130 95
0.0257321328649655 0.04878684106745611 -0.23260989604721205 156 141 103
0.026179486319737204 0.04893405466612541 -0.2340120810181804 153 139 101
0.020785307007754557 0.04651135677893066 -0.2368802558039214 166 151 112
0.028366092924597033 0.049697595707024256 -0.2395227752765213 142 125 91
0.029823263398378375 0.05028923756948783 -0.24066629924602378 142 125 93
0.02812888487162274 0.04949367310162986 -0.24262273940885853 126 108 81
0.029399661208994683 0.050003278470089924 -0.24381409905501375 145 127 96
0.03050704683530122 0.05044101729442729 -0.24504599850746198 163 145 112
0.03188911115724568 0.05099976932723571 -0.2462037230479385 165 147 115
0.03589139025798751 0.05271256540511977 -0.24666380435646446 168 148 114
0.03728512276864339 0.05322710339588245 -0.24932551660606037 169 154 112
0.03862748191304921 0.05376877530566804 -0.25048136673871063 165 149 108
0.039484142352496206 0.05409652349514504 -0.25176663404153166 160 142 105
0.03852428835165549 0.05362382215718667 -0.25354735029199454 158 139 103
0.0408931679548811 0.05461800598461803 -0.2544178974445823 194 176 134
0.040205417001335085 0.054265096553636274 -0.25612777779964485 217 201 157
0.04192819415445622 0.05497468274025808 -0.2571712412084851 216 200 158
0.04528563644984372 0.05640508474736802 -0.25775363399060336 234 220 180
0.047106030959035414 0.05715804825118992 -0.2587594151855701 253 243 211
0.048216094200061343 0.05759789979858605 -0.25996209860121056 255 253 225
0.04911003719740666 0.057942493064590796 -0.261224479560472 255 255 227
0.048185938869475205 0.05748519717026174 -0.2630061419173946 252 246 215
0.04967265762393065 0.058091267430265305 -0.2640986134847413 245 233 196
0.0512004761589727 0.05871557066965176 -0.2651761403616314 247 233 190
0.05283578614106928 0.05938740919882718 -0.2662191873216296 236 220 177
0.053870475718362065 0.05979430586221582 -0.26743453115389476 210 191 150
0.056116489212015126 0.060735884810174515 -0.2682916777131151 148 127 95
0.0521602024143874 0.05893986325187839 -0.27097938226023505 80 62 37
0.04750047924045751 0.05683281333905611 -0.273891260291743 67 51 29
0.04492647808858631 0.055646094152461106 -0.2761959547166494 62 50 29
0.04309449446442249 0.05478669474622942 -0.27828761598017315 69 56 34
0.041880800489458476 0.0542000926376324 -0.2802000401766943 74 63 42
0.041142029320975694 0.05382306472494989 -0.28197380542705547 81 72 52
0.05664521743420247 0.06036973821475623 -0.2864431057441676 72 59 41
0.05786328239945792 0.060857852146516636 -0.2875958331878809 76 62 43
0.060842734493058374 0.0621247779916635 -0.28818709300133377 80 66 45
0.06086676276881376 0.06193409001007569 -0.2943268939302979 91 79 48
0.05995366071540857 0.061479663549546947 -0.2961659007993484 92 79 49
0.058703277328930076 0.060875847726673656 -0.29812028808969965 93 79 50
0.06011416195388587 0.06144944560778828 -0.2992046153437727 94 80 50
0.05874029938047949 0.06079073312790795 -0.30120750346376 94 80 50
0.06006674260797832 0.06132699164792597 -0.3023188361170032 97 82 54
0.061814279500964665 0.06204973886377284 -0.30328681944479285 99 84 57
0.061905906553873916 0.062039512266938004 -0.30480706398987606 100 85 58
0.06159773587505848 0.06185221377833139 -0.30646385022022377 99 85 57
0.06181351481742152 0.061896841153731084 -0.3079457659008141 97 83 56
0.05804521279595502 0.06017693467169236 -0.3107874267576541 99 85 58
0.058847660338326335 0.060481126179489364 -0.31207733291542183 99 85 58
0.05851507378827034 0.0602825274633729 -0.31375730939983193 98 86 59
0.057356232893524005 0.05971775512948655 -0.31572626897605016 100 86 60
0.058430820007823916 0.06014244356070671 -0.31692429171500325 102 87 61
0.05895111564746011 0.06032154709716948 -0.3183142813178324 106 91 63
0.058644273073449715 0.060134041800615025 -0.31999489175921414 112 97 67
0.057898934709951506 0.0597520650165401 -0.3218332024538135 112 97 67
0.058172209286016734 0.05982152628419019 -0.3233147547950061 110 95 65
0.059024485019408934 0.06014767777202154 -0.32459097516275964 113 98 68
0.0572448735399729 0.05930676658298974 -0.3268085055816957 112 97 68
0.05687239677305767 0.05908965763046442 -0.32852783949275743 107 92 62
0.05448677341311585 0.05797949911032596 -0.3309780645500368 112 97 67
0.052670563463515195 0.05712160801777724 -0.33323161711433485 119 104 74
0.05405213271589821 0.057682205188857597 -0.3343264700880712 120 105 75
0.056664910075529 0.0587892131720667 -0.33496711363235687 116 102 72
0.05871257014774534 0.059645663544506164 -0.33580885458750326 108 97 68
0.060310461119561246 0.06030265685049199 -0.3368119195921028 104 95 68
0.06033687092097888 0.060262194221904486 -0.3383956951288785 102 91 67
-0.0335504483114058 0.017421136825542194 -0.40887672594993474 70 60 47
-0.03403427753375715 0.01714678295480543 -0.41087614088149027 67 56 42
-0.03191728738351411 0.018030077187685387 -0.41181215837902657 71 60 46
-0.0317180710539781 0.0180597195334624 -0.41353331948593997 78 66 52
-0.03153229615511546 0.018083326881633263 -0.4152615672411421 77 65 51
-0.03265500797727036 0.017524169571661558 -0.4175353650191636 68 56 42
-0.03492428242132567 0.016454137746281572 -0.4202941174600966 77 65 52
-0.03581873576542427 0.015996181623217365 -0.42248676270517865 77 66 53
-0.037048909030016855 0.01538848048804975 -0.4248262335439449 75 66 54
-0.038961029106281214 0.014476707326599433 -0.42746075833145014 82 75 62
-0.04162199139940549 0.01323093116725331 -0.4304224286947337 89 79 67
-0.042313012124052654 0.012862741713096384 -0.4325558074557576 87 77 64
-0.043043477836059524 0.012476813582441085 -0.4347108522041198 93 83 70
-0.04093837797977143 0.013354828766487178 -0.4356513212384305 94 83 70
-0.045189648192499265 0.011398951049422859 -0.4393316602506543 90 80 65
-0.04814322185127776 0.010021166201186787 -0.4424668603388409 93 82 69
-0.04979604789122702 0.009223064283664678 -0.4450485892778586 80 70 55
-0.04918919700374941 0.009432596520471737 -0.44665047161055804 46 36 26
-0.05041687221434005 0.008823743674695544 -0.44905804499455637 62 56 50
-0.051900829066865356 0.007853855325834186 -0.4591118743538669 76 67 58
-0.04923799969982892 0.008980882941758153 -0.4598010350297499 60 49 36
-0.04818393262628026 0.009389812583778176 -0.4612097591069995 74 63 47
-0.04698372469634465 0.009864054203283484 -0.46255068811527794 71 58 43
-0.043108029303851464 0.01153333309575312 -0.4626708479278547 57 44 31
-0.0429558603569922 0.011539713036994498 -0.4644821273726299 38 26 16
-0.042264051875234326 0.011787121530471581 -0.46604741438692554 39 26 18
-0.04159879128418312 0.012022673740811826 -0.46762476463602665 70 57 42
-0.04119796698070971 0.012140057917599326 -0.46932443658190937 95 84 65
-0.03845873228178914 0.013302536802207138 -0.4699383057906875 102 90 71
-0.036892105060511965 0.013941115514562077 -0.4710915336957394 57 44 26
-0.036938826004366404 0.01385854455003177 -0.4729970573043307 56 45 28
-0.03600541589255607 0.014214125730244886 -0.4744442115823985 74 62 42
-0.035736163772804835 0.01427274395176352 -0.47620384769936414 89 77 55
-0.035059986629819045 0.014513310341135191 -0.47777199749840515 99 86 64
-0.034560246627644675 0.01467496017222969 -0.4794239767005398 96 83 60
-0.03549483437831194 0.014194927893176057 -0.4817616523808251 89 77 52
-0.03505225044080648 0.014330882408146547 -0.48344477684065157 95 83 58
-0.034972791346462306 0.014304319526543527 -0.48530346646603256 99 87 62
-0.035278867944286196 0.014105142697248316 -0.48735058792182706 113 99 76
-0.03555468258546421 0.01391939496453469 -0.48938658123693557 87 73 50
-0.034966016508091086 0.014120535095439826 -0.49100499523931657 100 86 63
-0.03441166585201233 0.014306304228579744 -0.4926403986697355 91 77 53
-0.034284980921153646 0.01430055717628509 -0.49448603349570464 94 81 56
-0.034706937333075255 0.014049035680876357 -0.49660391133084236 101 88 63
-0.03500086251496767 0.013854729633812388 -0.49866249093507153 119 105 81
-0.035841697525417354 0.013415304969103647 -0.5009961138837016 96 82 58
-0.03701896176485808 0.012824963398599842 -0.5035029973746906 108 94 67
-0.03856903719512114 0.012067339387542203 -0.5062032569288074 102 88 60
-0.0359731412886658 0.013167508716852988 -0.5068301771473671 85 70 46
-0.03539234208988973 0.013364705094877694 -0.5084653091125823 104 90 71
-0.0359198908044005 0.013065036263073218 -0.5106613940639106 104 90 71
-0.03521279072353886 0.01331877344565581 -0.5122350174922632 104 90 71
-0.03417139758133117 0.013722418171973852 -0.5136380412614273 105 92 72
-0.03520672546561332 0.013194759151011412 -0.5161019947565905 97 85 63
-0.035454727846968626 0.013020032850593208 -0.5181680873008029 79 67 44
-0.038279866227210885 0.01168909734445163 -0.5215658650118573 96 83 59
-0.03999665702742633 0.010854998089648835 -0.5244035696468654 108 93 69
-0.042104304450696184 0.009845215526569279 -0.5274532870473668 103 89 66
-0.04201672494638614 0.009820272312996883 -0.5293695715442835 102 89 67
-0.04301308829750217 0.009308731640865403 -0.531855004877019 100 88 66
-0.044510826612430165 0.008571910100841365 -0.5346100015591027 100 89 66
-0.0450176921647181 0.008279693273426855 -0.5368511994227352 110 98 75
-0.04512248134981775 0.008167876571629526 -0.538884261688192 103 90 68
-0.04474913794707108 0.008270692749495698 -0.54066650412071 93 80 61
-0.046057536509218316 0.0076180952666280305 -0.5433456968737543 90 78 59
-0.04560847548177613 0.0077547465510462155 -0.54509293416333 90 79 61
-0.04514309870404851 0.007898701284246079 -0.5468322434825036 82 71 54
-0.04542443125507811 0.007707094335479586 -0.5489744145190221 84 74 57
-0.04535709170928762 0.007672066667363059 -0.5509318159948238 80 70 51
-0.044060943282694 0.008189289308248623 -0.5522250577496524 81 71 51
-0.04486792761903105 0.007761140456282095 -0.5546606187274901 74 65 44
-0.04564795404959085 0.007344924504633352 -0.5570871822071208 77 68 48
-0.04625132285781011 0.007007962073267857 -0.5594225331914991 74 64 45
-0.046156297806725366 0.006984930413926352 -0.5613786022618628 73 63 43
-0.04636937147736053 0.006823242706670965 -0.5635070151046542 72 62 44
-0.04642669314770184 0.006731509486199799 -0.5655525723738387 58 48 36
-0.04721500840052367 0.006310788285637525 -0.5680074375347948 42 32 22
-0.047512272288505075 0.006110849541488425 -0.5701940069687593 74 63 50
-0.04749286743389891 0.006053305548517296 -0.5722070460566173 68 55 41
-0.047038987776604174 0.006191244376253069 -0.5739784916180645 68 55 40
-0.047137585723443315 0.006080437505904729 -0.5760623382634816 53 40 23
-0.04717774465501054 0.0059958435603489485 -0.5781161471127411 61 47 30
-0.04730138575074247 0.0058735643591203285 -0.5802201698728878 57 44 28
-0.047631680749453426 0.0056581093483240585 -0.5824450963746511 58 46 31
-0.046821876888577 0.005956076625196885 -0.5840220527246838 50 41 25
-0.04730613161495986 0.005671075091607844 -0.5863410050673254 48 38 25
-0.04370259030140511 0.007227783385936479 -0.5863108113594852 49 39 28
-0.044990000544240044 0.006580812635032754 -0.5890948782584144 46 35 23
-0.045812712033164865 0.006143028876798934 -0.5916173224904238 98 86 69
-0.04636819870520137 0.005825507122829726 -0.593990263858905 124 112 93
-0.04579063372346001 0.006018645693357083 -0.595706670871812 79 68 46
-0.04405183312476099 0.006735375047654965 -0.5967432472357497 78 66 45
-0.043504974323990586 0.006914717095742706 -0.5984761460645869 77 63 44
-0.042485984968743506 0.007306989109108181 -0.5999310996725585 76 63 44
-0.041509707857727035 0.0076800391642937865 -0.6014099406083722 91 80 60
-0.014666181194687739 0.017714447287244126 -0.6488786719704416 90 76 51
-0.013461316238231519 0.018192188593795316 -0.6501741266786847 131 115 92
