ply
format ascii 1.0
element vertex 828
property float x
property float y
property float z
property float nx
property float ny
property float nz
property uchar diffuse_red
property uchar diffuse_green
property uchar diffuse_blue
property uchar class
property uchar detection
end_header
-0.0678 -0.1342 -0.3805 -0.852 0.506 0.134 186 187 191 0 0
-0.0617 -0.1255 -0.5014 -0.802 0.594 0.063 203 206 210 0 0
-0.0619 -0.1256 -0.5032 -0.787 0.612 0.083 203 205 210 0 0
-0.0708 -0.1315 -0.5725 -0.874 -0.358 -0.329 54 45 35 0 0
-0.0703 -0.1310 -0.5748 -0.879 -0.417 -0.233 68 60 50 0 0
-0.0669 -0.1258 -0.6560 -0.773 -0.113 0.625 21 15 13 0 0
-0.0686 -0.1273 -0.6565 -0.473 -0.169 0.865 23 17 15 0 0
-0.0688 -0.1270 -0.6725 -0.995 -0.048 0.088 26 22 18 0 0
-0.0685 -0.1266 -0.6769 -0.919 0.146 0.367 26 23 17 0 0
-0.0694 -0.1274 -0.6781 -0.860 0.166 0.482 28 25 18 0 0
-0.0696 -0.1270 -0.6965 -0.889 0.277 0.364 10 8 9 0 0
-0.0706 -0.1279 -0.6976 -0.762 0.220 0.609 10 9 9 0 0
-0.0883 -0.1431 -0.7090 -0.679 0.012 0.734 71 64 51 0 0
-0.0898 -0.1444 -0.7116 -0.747 -0.469 0.471 90 77 58 0 0
-0.0693 -0.1249 -0.7627 -0.623 -0.605 -0.495 78 65 45 0 0
-0.0102 -0.0871 -0.1848 -0.693 -0.676 0.252 87 72 46 0 0
-0.0069 -0.0838 -0.1962 -0.504 -0.784 0.362 111 96 64 0 0
-0.0075 -0.0843 -0.1975 -0.295 -0.934 0.202 109 96 61 0 0
-0.0069 -0.0837 -0.2007 -0.399 -0.909 0.119 102 87 57 0 0
-0.0056 -0.0823 -0.2087 -0.317 -0.862 0.396 74 65 42 0 0
-0.0107 -0.0865 -0.2194 -0.234 -0.677 0.698 133 121 101 0 0
-0.0622 -0.1280 -0.3530 -0.948 0.315 -0.046 111 108 102 0 0
-0.0633 -0.1290 -0.3540 -0.329 -0.810 0.485 145 142 138 0 0
-0.0639 -0.1294 -0.3554 0.025 -0.924 0.381 160 157 155 0 0
-0.0660 -0.1312 -0.3575 0.248 -0.854 0.458 171 172 171 0 0
-0.0645 -0.1296 -0.3681 -0.874 0.479 -0.086 185 185 188 0 0
-0.0668 -0.1243 -0.6232 -0.874 0.099 0.477 15 11 10 0 0
-0.0660 -0.1236 -0.6258 -0.897 0.234 0.375 14 10 9 0 0
-0.0646 -0.1222 -0.6310 -0.992 0.057 -0.109 12 9 7 0 0
-0.0687 -0.1246 -0.6737 -0.964 -0.019 0.265 18 14 11 0 0
-0.0693 -0.1251 -0.6752 -0.950 -0.306 -0.055 17 13 11 0 0
-0.0698 -0.1255 -0.6767 -0.516 -0.787 0.338 16 14 11 0 0
-0.0705 -0.1261 -0.6781 -0.390 -0.807 0.444 19 16 13 0 0
-0.0706 -0.1261 -0.6801 -0.585 -0.705 0.401 18 14 11 0 0
-0.0693 -0.1248 -0.6834 -0.817 -0.257 0.516 17 13 11 0 0
-0.0700 -0.1254 -0.6868 -0.736 -0.452 0.503 11 9 9 0 0
-0.0702 -0.1255 -0.6887 -0.304 -0.952 -0.041 8 8 6 0 0
-0.0925 -0.1444 -0.7142 -0.652 -0.441 0.616 66 57 39 0 0
-0.0926 -0.1445 -0.7162 -0.494 -0.790 0.364 75 63 44 0 0
-0.0747 -0.1266 -0.7888 -0.398 -0.846 0.354 105 92 67 0 0
-0.0856 -0.1355 -0.8164 -0.194 -0.976 0.097 137 119 78 0 0
-0.0071 -0.0819 -0.1979 -0.572 -0.764 0.298 99 86 54 0 0
-0.0073 -0.0821 -0.1993 -0.453 -0.692 0.562 110 97 66 0 0
-0.0080 -0.0827 -0.2006 -0.482 -0.614 0.625 104 90 60 0 0
-0.0089 -0.0831 -0.2125 -0.607 -0.779 0.158 78 70 51 0 0
-0.0091 -0.0833 -0.2140 -0.558 -0.808 0.188 83 75 56 0 0
-0.0112 -0.0850 -0.2179 -0.387 -0.800 0.459 107 98 78 0 0
-0.0428 -0.1114 -0.2657 -0.876 -0.291 0.383 56 41 24 0 0
-0.0438 -0.1123 -0.2668 -0.711 -0.354 0.608 62 49 32 0 0
-0.0451 -0.1126 -0.2958 -0.428 -0.439 0.790 92 82 70 0 0
-0.0462 -0.1136 -0.2969 -0.428 -0.439 0.790 65 55 43 0 0
-0.0552 -0.1209 -0.3152 -0.910 -0.184 0.371 194 182 154 0 0
-0.0566 -0.1221 -0.3177 -0.626 -0.382 0.680 209 202 169 0 0
-0.0622 -0.1261 -0.3502 -0.758 -0.287 0.585 145 144 139 0 0
-0.0640 -0.1276 -0.3510 0.036 -0.657 0.753 176 177 175 0 0
-0.0624 -0.1257 -0.3680 -0.874 0.479 -0.086 184 185 189 0 0
-0.0620 -0.1253 -0.3698 -0.874 0.479 -0.086 184 185 189 0 0
-0.0612 -0.1204 -0.5160 -0.789 0.600 0.133 205 206 210 0 0
-0.0648 -0.1203 -0.6278 -0.832 -0.102 0.545 14 10 9 0 0
-0.0694 -0.1229 -0.6761 -0.989 -0.101 0.107 16 12 11 0 0
-0.0713 -0.1246 -0.6764 -0.334 -0.631 0.700 17 12 11 0 0
-0.0675 -0.1205 -0.7007 -0.913 0.354 0.204 9 9 9 0 0
-0.0734 -0.1254 -0.7137 0.221 -0.288 0.932 18 17 15 0 0
-0.1022 -0.1474 -0.8273 -0.210 -0.790 0.577 171 157 115 0 0
-0.1135 -0.1561 -0.8720 -0.197 -0.946 0.259 168 166 168 0 0
-0.0134 -0.0858 -0.1874 -0.649 -0.619 0.441 151 137 100 0 0
-0.0098 -0.0824 -0.1958 -0.380 -0.869 0.318 110 95 63 0 0
-0.0413 -0.1083 -0.2604 -0.468 -0.492 0.734 74 59 39 0 0
-0.0427 -0.1095 -0.2629 -0.624 -0.445 0.643 98 84 59 0 0
-0.0411 -0.1072 -0.2900 -0.671 -0.461 0.581 48 38 28 0 0
-0.0414 -0.1075 -0.2914 -0.442 -0.628 0.641 49 39 29 0 0
-0.0497 -0.1146 -0.2974 -0.864 0.141 0.483 93 86 73 0 0
-0.0556 -0.1193 -0.3154 -0.910 -0.184 0.371 174 164 130 0 0
-0.0600 -0.1217 -0.3648 -0.873 0.488 0.027 182 183 187 0 0
-0.0572 -0.1145 -0.5233 -0.802 0.593 0.074 205 206 210 0 0
-0.0661 -0.1177 -0.6761 -0.795 0.233 0.560 14 10 9 0 0
-0.0684 -0.1194 -0.6904 -1.000 -0.005 0.017 8 7 5 0 0
-0.0768 -0.1261 -0.7135 -0.068 -0.029 0.997 25 23 21 0 0
-0.0716 -0.1197 -0.7725 -0.223 -0.877 0.426 104 91 67 0 0
-0.0720 -0.1200 -0.7744 -0.313 -0.741 0.594 108 95 70 0 0
0.0042 -0.0688 -0.1695 -0.431 -0.629 0.647 179 179 182 0 0
-0.0092 -0.0798 -0.1977 -0.302 -0.742 0.599 105 92 61 0 0
-0.0394 -0.1049 -0.2507 -0.901 -0.395 0.179 90 74 48 0 0
-0.0382 -0.1027 -0.2868 -0.678 -0.721 0.144 29 22 16 0 0
-0.0699 -0.1225 -0.5575 -0.962 0.266 0.067 24 19 16 0 0
-0.0701 -0.1226 -0.5593 -0.962 0.266 0.067 29 23 21 0 0
-0.0703 -0.1227 -0.5610 -0.932 0.295 0.209 39 34 31 0 0
-0.0697 -0.1221 -0.5634 -0.979 0.196 0.054 45 40 36 0 0
-0.0697 -0.1221 -0.5653 -0.985 0.171 0.020 31 26 20 0 0
-0.0661 -0.1146 -0.7042 -0.999 -0.035 0.027 7 7 7 0 0
-0.0144 -0.0828 -0.1831 -0.444 -0.761 0.473 89 74 44 0 0
-0.0122 -0.0803 -0.2032 -0.584 -0.758 0.290 99 84 57 0 0
-0.0276 -0.0930 -0.2305 -0.406 -0.495 0.768 222 205 171 0 0
-0.0407 -0.1041 -0.2505 -0.759 -0.649 -0.053 86 68 44 0 0
-0.0404 -0.1037 -0.2522 -0.693 -0.619 0.370 76 59 34 0 0
-0.0697 -0.1203 -0.5529 -0.926 0.373 -0.053 28 23 19 0 0
-0.0695 -0.1196 -0.5682 -0.965 0.261 -0.038 17 14 12 0 0
-0.0619 -0.1120 -0.5955 -0.980 0.144 -0.136 28 24 23 0 0
-0.0614 -0.1115 -0.5978 -0.983 0.171 -0.072 26 22 21 0 0
-0.0612 -0.1113 -0.6000 -0.983 0.171 -0.072 23 19 19 0 0
-0.0638 -0.1112 -0.6762 -0.873 -0.358 0.332 11 9 8 0 0
-0.0673 -0.1131 -0.7105 -0.896 -0.107 0.431 7 5 6 0 0
-0.0986 -0.1407 -0.7187 -0.698 -0.546 0.464 68 60 43 0 0
-0.0777 -0.1203 -0.7772 -0.438 -0.899 -0.022 95 85 62 0 0
0.0011 -0.0675 -0.1691 -0.244 -0.759 0.604 176 173 162 0 0
-0.0159 -0.0822 -0.1829 -0.340 -0.782 0.522 85 69 40 0 0
-0.0207 -0.0851 -0.2237 -0.345 -0.752 0.561 161 147 129 0 0
-0.0327 -0.0956 -0.2322 -0.450 -0.540 0.712 220 205 165 0 0
-0.0336 -0.0963 -0.2334 -0.539 -0.554 0.634 224 209 171 0 0
-0.0410 -0.1024 -0.2492 -0.786 -0.618 0.018 125 111 83 0 0
-0.0415 -0.1028 -0.2505 -0.394 -0.907 0.145 99 84 57 0 0
-0.0417 -0.1029 -0.2520 -0.394 -0.907 0.145 86 69 45 0 0
-0.0446 -0.1051 -0.2663 -0.846 -0.409 0.342 72 57 35 0 0
-0.0447 -0.1051 -0.2693 -0.720 -0.673 -0.170 79 63 46 0 0
-0.0427 -0.1031 -0.2763 -0.849 -0.363 -0.385 39 30 20 0 0
-0.0686 -0.1166 -0.5698 -0.965 0.260 -0.034 16 15 12 0 0
-0.0684 -0.1164 -0.5718 -0.989 0.130 -0.065 13 12 9 0 0
-0.0678 -0.1157 -0.5742 -0.996 0.093 -0.018 13 12 10 0 0
-0.0675 -0.1154 -0.5763 -0.972 0.211 -0.108 25 24 21 0 0
-0.0665 -0.1143 -0.5829 -0.944 -0.080 -0.321 23 19 17 0 0
-0.0659 -0.1137 -0.5853 -0.924 -0.059 -0.377 19 16 15 0 0
-0.0650 -0.1128 -0.5880 -0.909 -0.094 -0.405 22 20 18 0 0
-0.0638 -0.1117 -0.5909 -0.909 -0.094 -0.405 23 21 17 0 0
-0.0617 -0.1096 -0.5946 -0.946 -0.030 -0.322 19 15 12 0 0
-0.0599 -0.1078 -0.6020 -1.000 0.020 0.023 19 15 13 0 0
-0.0600 -0.1078 -0.6039 -1.000 0.020 0.023 26 23 19 0 0
-0.0573 -0.1042 -0.6421 -0.986 0.054 0.155 20 16 14 0 0
-0.0576 -0.1044 -0.6439 -0.975 0.085 0.204 28 23 21 0 0
-0.0584 -0.1050 -0.6453 -0.925 0.163 0.343 33 28 26 0 0
-0.0590 -0.1055 -0.6467 -0.925 0.163 0.343 30 25 23 0 0
-0.0596 -0.1061 -0.6482 -0.925 0.163 0.343 27 23 21 0 0
-0.0781 -0.1204 -0.7156 -0.263 -0.055 0.963 34 30 27 0 0
-0.0816 -0.1235 -0.7142 -0.671 -0.592 0.447 36 32 29 0 0
-0.0822 -0.1239 -0.7157 -0.603 -0.420 0.678 41 36 32 0 0
-0.0996 -0.1394 -0.7187 -0.698 -0.546 0.464 82 73 56 0 0
-0.1052 -0.1412 -0.8179 -0.583 -0.419 0.696 99 84 51 0 0
-0.0002 -0.0668 -0.1631 -0.722 -0.677 0.145 177 177 176 0 0
-0.0006 -0.0670 -0.1689 -0.302 -0.638 0.709 126 118 96 0 0
-0.0209 -0.0844 -0.1893 -0.541 -0.834 0.108 152 137 109 0 0
-0.0447 -0.1031 -0.2666 -0.777 -0.577 0.251 68 53 34 0 0
-0.0449 -0.1033 -0.2680 -0.544 -0.793 0.276 70 55 36 0 0
-0.0438 -0.1021 -0.2731 -0.792 -0.563 -0.239 56 42 29 0 0
-0.0435 -0.1018 -0.2748 -0.823 -0.518 -0.233 52 40 26 0 0
-0.0433 -0.1016 -0.2764 -0.841 -0.461 -0.282 46 36 23 0 0
-0.0675 -0.1133 -0.5733 -0.961 0.275 -0.010 31 30 26 0 0
-0.0663 -0.1121 -0.5763 -0.970 0.235 -0.056 28 27 23 0 0
-0.0659 -0.1116 -0.5823 -0.964 0.209 -0.162 28 24 20 0 0
-0.0665 -0.1121 -0.5838 -0.959 0.036 -0.281 25 22 18 0 0
-0.0656 -0.1112 -0.5864 -0.924 -0.059 -0.377 24 20 17 0 0
-0.0622 -0.1079 -0.5931 -0.946 -0.030 -0.322 32 28 24 0 0
-0.0594 -0.1051 -0.6033 -0.980 -0.198 -0.006 18 15 11 0 0
-0.0594 -0.1050 -0.6052 -0.980 -0.198 -0.006 24 21 16 0 0
-0.0661 -0.1075 -0.7117 -0.761 0.128 0.636 13 11 13 0 0
-0.0672 -0.1084 -0.7128 -0.845 0.094 0.526 19 17 17 0 0
-0.0666 -0.1077 -0.7155 -0.138 -0.100 0.985 25 22 21 0 0
-0.0698 -0.1107 -0.7144 -0.469 -0.109 0.876 30 26 24 0 0
-0.0779 -0.1179 -0.7148 -0.248 -0.388 0.888 35 31 28 0 0
-0.0792 -0.1190 -0.7156 -0.294 -0.261 0.919 36 32 29 0 0
-0.0814 -0.1210 -0.7155 -0.355 -0.570 0.741 42 38 35 0 0
-0.0824 -0.1219 -0.7165 -0.244 -0.566 0.787 49 44 39 0 0
-0.0894 -0.1282 -0.7137 -0.124 -0.980 0.157 53 46 39 0 0
-0.1020 -0.1365 -0.8009 -0.711 -0.620 0.330 70 56 29 0 0
-0.1030 -0.1374 -0.8042 -0.508 -0.718 0.475 88 73 45 0 0
-0.1066 -0.1402 -0.8155 -0.645 -0.711 0.280 102 87 54 0 0
-0.1227 -0.1539 -0.8338 -0.426 -0.900 0.087 143 128 86 0 0
-0.0151 -0.0778 -0.1746 0.032 -0.613 0.789 195 182 142 0 0
-0.0222 -0.0836 -0.1891 -0.541 -0.834 0.108 172 157 126 0 0
-0.0170 -0.0782 -0.2086 -0.479 -0.830 0.286 77 64 42 0 0
-0.0424 -0.0996 -0.2523 -0.899 -0.438 0.028 85 70 44 0 0
-0.0430 -0.0991 -0.2800 -0.759 -0.430 -0.490 48 39 29 0 0
-0.0410 -0.0950 -0.3468 -0.902 0.422 -0.090 182 181 186 0 0
-0.0630 -0.1065 -0.5913 -0.937 -0.051 -0.345 35 32 28 0 0
-0.0619 -0.1054 -0.5942 -0.926 -0.141 -0.351 40 37 33 0 0
-0.0598 -0.1034 -0.5979 -0.960 0.077 -0.271 36 34 29 0 0
-0.0597 -0.1032 -0.6000 -0.962 -0.001 -0.274 31 30 25 0 0
-0.0598 -0.1032 -0.6019 -1.000 0.006 -0.010 26 25 20 0 0
-0.0598 -0.1032 -0.6038 -0.980 -0.198 -0.006 25 24 19 0 0
-0.0598 -0.1031 -0.6058 -0.980 -0.198 -0.006 25 23 17 0 0
-0.0597 -0.1030 -0.6079 -1.000 -0.022 0.004 31 29 24 0 0
-0.0594 -0.1020 -0.6261 -0.979 -0.188 -0.084 23 22 19 0 0
-0.0586 -0.1010 -0.6348 -0.994 -0.106 -0.041 13 11 12 0 0
-0.0550 -0.0967 -0.6667 -0.862 0.505 -0.048 12 9 7 0 0
-0.0546 -0.0962 -0.6691 -0.868 0.493 -0.050 11 8 7 0 0
-0.0560 -0.0967 -0.6929 -0.892 0.441 0.097 7 6 5 0 0
-0.0560 -0.0966 -0.6951 -0.906 0.421 0.043 7 6 4 0 0
-0.0662 -0.1052 -0.7127 -0.368 0.093 0.925 17 16 15 0 0
-0.0678 -0.1066 -0.7133 -0.395 -0.087 0.914 24 23 21 0 0
-0.0692 -0.1078 -0.7140 -0.395 -0.087 0.914 29 26 24 0 0
-0.0713 -0.1097 -0.7141 -0.451 -0.317 0.834 33 29 26 0 0
-0.0801 -0.1176 -0.7137 -0.040 -0.776 0.630 35 31 28 0 0
-0.0821 -0.1194 -0.7138 -0.206 -0.808 0.552 35 31 28 0 0
-0.0830 -0.1202 -0.7150 -0.180 -0.763 0.621 43 38 35 0 0
-0.0836 -0.1207 -0.7165 -0.107 -0.587 0.803 47 41 37 0 0
-0.0913 -0.1278 -0.7108 0.002 -0.985 0.174 53 46 38 0 0
-0.0899 -0.1264 -0.7143 -0.024 -0.559 0.828 53 46 39 0 0
-0.0848 -0.1197 -0.7755 -0.191 -0.981 -0.043 86 75 58 0 0
-0.0873 -0.1217 -0.7815 -0.103 -0.693 0.713 107 95 67 0 0
-0.1031 -0.1353 -0.8010 -0.711 -0.620 0.330 84 68 37 0 0
-0.1039 -0.1359 -0.8023 -0.536 -0.721 0.439 131 115 77 0 0
-0.1078 -0.1392 -0.8087 -0.673 -0.157 0.723 117 102 69 0 0
-0.1077 -0.1389 -0.8155 -0.558 -0.754 0.346 100 85 52 0 0
-0.1218 -0.1505 -0.8475 -0.627 -0.702 0.338 133 119 75 0 0
-0.1232 -0.1514 -0.8549 -0.441 -0.878 0.186 140 127 92 0 0
-0.1237 -0.1518 -0.8565 -0.361 -0.834 0.418 125 118 94 0 0
-0.0022 -0.0645 -0.1615 -0.673 -0.463 0.577 159 153 143 0 0
-0.0029 -0.0651 -0.1628 -0.755 -0.443 0.484 141 132 112 0 0
-0.0221 -0.0816 -0.1864 -0.653 -0.737 0.171 140 121 86 0 0
-0.0224 -0.0818 -0.1878 -0.653 -0.737 0.171 127 112 75 0 0
-0.0224 -0.0818 -0.1893 -0.855 -0.487 0.176 141 126 94 0 0
-0.0184 -0.0776 -0.2069 -0.521 -0.846 0.116 90 76 49 0 0
-0.0183 -0.0774 -0.2084 -0.479 -0.830 0.286 75 60 37 0 0
-0.0182 -0.0770 -0.2176 -0.357 -0.659 0.662 65 56 38 0 0
-0.0458 -0.0989 -0.3013 -0.608 -0.179 0.774 120 112 92 0 0
-0.0469 -0.0999 -0.3024 -0.608 -0.179 0.774 128 120 100 0 0
-0.0374 -0.0898 -0.3457 -0.869 0.398 -0.293 180 181 185 0 0
-0.0566 -0.0991 -0.5740 -0.762 0.612 0.211 215 216 218 0 0
-0.0603 -0.1018 -0.5925 -0.962 0.114 -0.248 120 121 119 0 0
-0.0595 -0.1009 -0.5951 -0.958 0.123 -0.257 118 120 117 0 0
-0.0587 -0.1001 -0.5978 -0.958 0.123 -0.257 132 134 131 0 0
-0.0702 -0.1064 -0.7142 -0.317 -0.172 0.933 31 28 25 0 0
-0.0815 -0.1167 -0.7113 0.058 -0.615 0.786 36 32 29 0 0
-0.1029 -0.1357 -0.7146 -0.385 -0.710 0.589 96 86 69 0 0
-0.1039 -0.1367 -0.7156 -0.524 -0.480 0.704 103 90 73 0 0
-0.0926 -0.1241 -0.7834 -0.302 -0.670 0.678 116 103 76 0 0
-0.1013 -0.1315 -0.7956 -0.648 -0.700 0.298 60 48 24 0 0
-0.1017 -0.1318 -0.7973 -0.648 -0.700 0.298 66 55 31 0 0
-0.1140 -0.1420 -0.8226 -0.676 -0.518 0.524 105 90 59 0 0
-0.1244 -0.1506 -0.8435 -0.783 -0.592 0.191 145 132 90 0 0
-0.0201 -0.0782 -0.1753 -0.515 -0.633 0.579 206 195 154 0 0
-0.0234 -0.0808 -0.1863 -0.586 -0.750 0.308 131 112 83 0 0
-0.0236 -0.0809 -0.1892 -0.543 -0.598 0.589 89 74 44 0 0
-0.0200 -0.0766 -0.2173 -0.425 -0.797 0.429 63 51 36 0 0
-0.0394 -0.0928 -0.2525 -0.926 0.163 0.342 64 49 30 0 0
-0.0466 -0.0976 -0.3013 -0.614 -0.100 0.783 79 71 60 0 0
-0.0741 -0.1076 -0.7156 -0.867 -0.450 0.215 33 29 26 0 0
-0.0729 -0.1063 -0.7190 -0.187 -0.855 -0.485 35 31 28 0 0
-0.0854 -0.1179 -0.7106 -0.131 -0.769 0.625 36 32 29 0 0
-0.0868 -0.1191 -0.7114 -0.362 -0.761 0.538 37 33 30 0 0
-0.1053 -0.1357 -0.7132 -0.375 -0.920 0.110 108 93 71 0 0
-0.1079 -0.1379 -0.7188 -0.704 -0.683 0.194 148 127 81 0 0
-0.1081 -0.1380 -0.7207 -0.647 -0.762 0.029 142 121 76 0 0
-0.0893 -0.1191 -0.7751 -0.522 -0.793 0.314 55 48 28 0 0
-0.1156 -0.1416 -0.8109 -0.466 -0.688 0.557 99 85 54 0 0
-0.1139 -0.1398 -0.8174 -0.590 -0.791 0.161 139 123 87 0 0
-0.1139 -0.1397 -0.8197 -0.573 -0.815 0.088 111 95 62 0 0
-0.1143 -0.1400 -0.8215 -0.656 -0.734 0.175 108 93 60 0 0
-0.1146 -0.1402 -0.8233 -0.607 -0.772 0.189 110 95 64 0 0
-0.1193 -0.1443 -0.8265 -0.072 -0.597 0.799 135 121 76 0 0
-0.1278 -0.1518 -0.8294 -0.766 -0.616 0.182 159 146 107 0 0
-0.1253 -0.1491 -0.8437 -0.847 -0.516 0.127 142 128 88 0 0
-0.0034 -0.0617 -0.1600 -0.788 -0.425 0.446 130 121 100 0 0
-0.0040 -0.0621 -0.1614 -0.788 -0.425 0.446 180 169 140 0 0
-0.0045 -0.0625 -0.1628 -0.870 -0.369 0.327 151 141 111 0 0
-0.0417 -0.0924 -0.2643 -0.915 -0.355 0.194 75 62 43 0 0
-0.0419 -0.0926 -0.2658 -0.915 -0.355 0.194 89 76 57 0 0
-0.0418 -0.0924 -0.2674 -0.920 -0.390 0.031 87 74 55 0 0
-0.0420 -0.0925 -0.2689 -0.970 -0.180 0.162 83 71 50 0 0
-0.0350 -0.0837 -0.3393 -0.851 0.517 -0.091 179 181 184 0 0
-0.0734 -0.1046 -0.7153 -0.932 -0.169 0.321 31 27 24 0 0
-0.0870 -0.1171 -0.7101 0.067 -0.606 0.792 37 33 30 0 0
-0.0883 -0.1182 -0.7110 0.112 -0.673 0.731 38 34 31 0 0
-0.1091 -0.1367 -0.7187 -0.761 -0.626 0.172 147 121 77 0 0
-0.1043 -0.1296 -0.7947 -0.433 -0.696 0.572 131 115 80 0 0
-0.1201 -0.1427 -0.8269 -0.002 -0.715 0.699 135 119 76 0 0
-0.1288 -0.1504 -0.8296 -0.772 -0.574 0.272 173 159 120 0 0
-0.1251 -0.1467 -0.8387 -0.463 -0.884 0.060 136 124 84 0 0
-0.0056 -0.0615 -0.1627 -0.775 -0.404 0.486 170 157 125 0 0
-0.0068 -0.0625 -0.1639 -0.590 -0.670 0.450 87 75 46 0 0
-0.0214 -0.0754 -0.1753 -0.658 -0.350 0.667 198 184 150 0 0
-0.0435 -0.0914 -0.2796 -0.990 -0.142 0.000 55 44 27 0 0
-0.0522 -0.0871 -0.6077 -0.903 0.406 -0.138 215 216 219 0 0
-0.0521 -0.0864 -0.6220 -0.975 0.221 0.012 214 215 219 0 0
-0.0754 -0.1041 -0.7145 -0.408 -0.857 0.316 29 25 24 0 0
-0.0806 -0.1089 -0.7114 -0.869 -0.453 0.199 34 30 28 0 0
-0.1100 -0.1354 -0.7168 -0.726 -0.526 0.443 135 111 71 0 0
-0.0950 -0.1198 -0.7692 -0.256 -0.856 -0.449 79 72 44 0 0
-0.1138 -0.1356 -0.8004 -0.536 -0.612 0.582 126 110 72 0 0
-0.1213 -0.1414 -0.8269 -0.087 -0.671 0.736 135 118 78 0 0
-0.1218 -0.1418 -0.8285 -0.097 -0.275 0.956 167 150 103 0 0
-0.1294 -0.1487 -0.8302 -0.885 -0.415 0.211 184 172 130 0 0
-0.1325 -0.1508 -0.8465 -0.730 -0.613 0.302 149 135 101 0 0
-0.1328 -0.1510 -0.8484 -0.730 -0.647 0.222 126 116 87 0 0
-0.1326 -0.1508 -0.8508 -0.460 -0.863 0.209 100 91 62 0 0
-0.1330 -0.1508 -0.8594 -0.271 -0.936 0.226 64 61 49 0 0
-0.0078 -0.0615 -0.1624 -0.504 -0.767 0.397 161 146 111 0 0
-0.0253 -0.0765 -0.1864 -0.393 -0.657 0.643 76 61 38 0 0
-0.0529 -0.0848 -0.6242 -0.944 -0.324 -0.067 214 215 219 0 0
-0.0526 -0.0844 -0.6265 -0.982 -0.180 -0.052 213 214 218 0 0
-0.0542 -0.0834 -0.6915 -0.771 -0.557 -0.307 79 76 73 0 0
-0.0476 -0.0766 -0.7107 -0.879 0.274 0.391 34 30 25 0 0
-0.1169 -0.1388 -0.7315 -0.268 -0.943 -0.197 130 115 81 0 0
-0.1313 -0.1481 -0.8292 -0.659 -0.550 0.513 195 183 139 0 0
-0.1343 -0.1500 -0.8524 -0.662 -0.731 0.166 125 111 75 0 0
-0.0276 -0.0750 -0.2237 -0.753 -0.497 0.431 42 30 14 0 0
-0.0392 -0.0845 -0.2537 -0.837 -0.546 0.037 46 36 23 0 0
-0.0400 -0.0849 -0.2597 -0.947 0.083 0.311 85 77 61 0 0
-0.0410 -0.0858 -0.2624 -0.970 -0.021 0.243 73 65 51 0 0
-0.0418 -0.0864 -0.2637 -0.873 -0.096 0.478 81 73 57 0 0
-0.0430 -0.0874 -0.2679 -0.905 -0.365 0.218 59 44 32 0 0
-0.0433 -0.0876 -0.2694 -0.907 -0.417 0.057 54 40 29 0 0
-0.0434 -0.0876 -0.2709 -0.907 -0.417 0.057 49 36 23 0 0
-0.0508 -0.0803 -0.6310 -0.827 -0.548 0.129 213 214 218 0 0
-0.0505 -0.0799 -0.6333 -0.740 -0.343 0.579 214 215 218 0 0
-0.0530 -0.0819 -0.6414 -0.674 -0.594 0.439 118 119 119 0 0
-0.0647 -0.0915 -0.6681 -0.913 0.054 0.405 8 6 7 0 0
-0.0654 -0.0921 -0.6695 -0.862 0.207 0.463 7 5 6 0 0
-0.1193 -0.1393 -0.7175 -0.648 -0.650 0.397 128 108 70 0 0
-0.1188 -0.1383 -0.7306 -0.281 -0.946 -0.163 134 120 84 0 0
-0.1022 -0.1211 -0.7855 -0.363 -0.770 0.525 131 117 86 0 0
-0.1031 -0.1218 -0.7868 -0.301 -0.745 0.595 130 116 83 0 0
-0.1255 -0.1407 -0.8245 -0.034 -0.984 0.174 128 113 74 0 0
-0.1264 -0.1415 -0.8256 0.228 -0.833 0.503 135 120 77 0 0
-0.0278 -0.0738 -0.2102 -0.694 -0.677 0.246 98 85 61 0 0
-0.0300 -0.0752 -0.2247 -0.382 -0.761 0.525 55 41 26 0 0
-0.0399 -0.0828 -0.2600 -0.947 0.083 0.311 61 50 34 0 0
-0.0408 -0.0835 -0.2628 -0.960 -0.119 0.253 45 34 22 0 0
-0.0416 -0.0842 -0.2641 -0.943 -0.092 0.321 65 55 39 0 0
-0.0432 -0.0855 -0.2682 -0.871 -0.152 0.467 84 71 56 0 0
-0.0439 -0.0861 -0.2695 -0.832 -0.068 0.551 52 38 29 0 0
-0.0435 -0.0857 -0.2712 -0.959 -0.276 0.065 45 33 22 0 0
-0.0421 -0.0841 -0.2780 -0.860 0.027 0.510 33 23 10 0 0
-0.0534 -0.0802 -0.6338 -0.919 0.390 0.062 193 194 195 0 0
-0.0530 -0.0797 -0.6363 -0.851 0.210 0.481 194 196 197 0 0
-0.0565 -0.0810 -0.6852 0.113 -0.592 0.798 12 11 10 0 0
-0.0500 -0.0746 -0.6976 0.113 -0.896 -0.428 67 62 59 0 0
-0.0543 -0.0777 -0.7172 -0.508 -0.861 -0.006 38 37 33 0 0
-0.0541 -0.0775 -0.7196 -0.532 -0.815 -0.231 36 35 31 0 0
-0.0808 -0.1021 -0.7124 -0.313 -0.914 0.257 31 27 26 0 0
-0.1008 -0.1205 -0.7110 -0.196 -0.195 0.961 58 52 42 0 0
-0.1145 -0.1294 -0.8013 -0.577 -0.499 0.647 59 42 19 0 0
-0.1335 -0.1455 -0.8315 -0.700 -0.710 0.080 162 152 111 0 0
-0.1328 -0.1445 -0.8413 -0.930 -0.329 0.162 127 115 79 0 0
-0.1343 -0.1458 -0.8418 -0.692 -0.554 0.464 132 117 84 0 0
-0.1349 -0.1462 -0.8433 -0.692 -0.554 0.464 134 118 83 0 0
-0.0036 -0.0518 -0.1549 -0.022 -0.531 0.847 88 81 68 0 0
-0.0288 -0.0726 -0.2101 -0.493 -0.843 0.215 87 72 48 0 0
-0.0294 -0.0731 -0.2115 -0.772 -0.607 0.187 61 46 25 0 0
-0.0296 -0.0733 -0.2129 -0.682 -0.649 0.338 70 55 34 0 0
-0.0300 -0.0736 -0.2143 -0.682 -0.649 0.338 67 52 29 0 0
-0.0296 -0.0728 -0.2236 -0.644 -0.742 0.186 63 48 30 0 0
-0.0298 -0.0729 -0.2251 -0.684 -0.698 0.214 56 41 25 0 0
-0.0303 -0.0733 -0.2264 -0.703 -0.709 0.056 58 45 30 0 0
-0.0310 -0.0740 -0.2277 -0.618 -0.463 0.635 33 23 12 0 0
-0.0318 -0.0746 -0.2290 -0.604 -0.519 0.605 32 22 13 0 0
-0.0315 -0.0740 -0.2368 -0.715 -0.578 0.393 70 57 42 0 0
-0.0317 -0.0741 -0.2383 -0.644 -0.723 0.250 48 36 25 0 0
-0.0440 -0.0841 -0.2682 -0.628 -0.264 0.732 97 85 67 0 0
-0.0442 -0.0843 -0.2697 -0.832 -0.068 0.551 63 51 39 0 0
-0.0439 -0.0840 -0.2714 -0.982 -0.120 0.143 42 31 18 0 0
-0.0435 -0.0688 -0.6351 0.073 -0.921 0.382 214 215 218 0 0
-0.0496 -0.0743 -0.6361 0.632 -0.562 0.533 159 160 159 0 0
-0.0782 -0.0996 -0.6597 -0.027 -0.921 -0.388 9 7 8 0 0
-0.0763 -0.0977 -0.6635 -0.185 -0.848 -0.496 9 7 8 0 0
-0.0610 -0.0828 -0.6841 0.258 -0.963 0.083 13 11 12 0 0
-0.0590 -0.0808 -0.6881 0.187 -0.941 -0.282 47 44 43 0 0
-0.0546 -0.0765 -0.6944 0.139 -0.893 -0.429 55 50 49 0 0
-0.0516 -0.0736 -0.6993 0.194 -0.899 -0.391 46 41 39 0 0
-0.0497 -0.0717 -0.7033 0.141 -0.901 -0.411 36 31 28 0 0
-0.0477 -0.0696 -0.7074 0.205 -0.913 -0.352 33 29 27 0 0
-0.0514 -0.0729 -0.7124 0.076 -0.560 0.825 43 39 36 0 0
-0.0648 -0.0849 -0.7188 0.253 -0.319 0.913 24 20 19 0 0
-0.1076 -0.1223 -0.7623 -0.188 -0.901 -0.391 93 82 54 0 0
-0.1067 -0.1213 -0.7656 -0.225 -0.907 -0.357 94 83 55 0 0
-0.1367 -0.1455 -0.8468 -0.572 -0.447 0.688 112 100 69 0 0
-0.0212 -0.0585 -0.3331 -0.728 0.632 0.267 179 180 181 0 0
-0.0210 -0.0582 -0.3349 -0.624 0.664 0.411 180 181 182 0 0
-0.0835 -0.1028 -0.6436 0.192 -0.913 0.360 16 15 12 0 0
-0.0844 -0.1035 -0.6449 0.159 -0.912 0.379 14 13 10 0 0
-0.0787 -0.0976 -0.6624 -0.269 -0.825 -0.497 9 7 8 0 0
-0.0595 -0.0788 -0.6908 0.252 -0.897 -0.364 30 27 26 0 0
-0.0570 -0.0763 -0.6953 0.189 -0.905 -0.382 38 33 32 0 0
-0.0550 -0.0743 -0.6993 0.141 -0.901 -0.411 42 38 37 0 0
-0.0521 -0.0714 -0.7043 0.127 -0.905 -0.406 43 41 39 0 0
-0.0509 -0.0702 -0.7075 0.128 -0.943 -0.308 43 41 40 0 0
-0.0512 -0.0703 -0.7116 0.086 -0.890 0.448 44 40 37 0 0
-0.0528 -0.0718 -0.7122 -0.072 -0.555 0.828 45 41 38 0 0
-0.0554 -0.0741 -0.7140 -0.324 -0.544 0.774 30 26 23 0 0
-0.0592 -0.0773 -0.7190 -0.244 -0.937 0.252 32 28 25 0 0
-0.0678 -0.0853 -0.7170 -0.444 0.185 0.877 25 21 20 0 0
-0.0698 -0.0871 -0.7172 -0.327 0.224 0.918 25 21 20 0 0
-0.1239 -0.1361 -0.7329 -0.384 -0.866 -0.321 155 136 97 0 0
-0.1111 -0.1232 -0.7619 -0.536 -0.663 -0.523 87 76 46 0 0
-0.1290 -0.1373 -0.8176 -0.391 -0.684 0.616 95 80 47 0 0
-0.1350 -0.1422 -0.8324 -0.167 -0.964 0.208 158 147 108 0 0
-0.0290 -0.0694 -0.1924 -0.512 -0.493 0.703 39 29 17 0 0
-0.0303 -0.0706 -0.1936 -0.903 -0.369 0.221 36 26 14 0 0
-0.0300 -0.0703 -0.1952 -0.891 -0.189 0.413 34 25 14 0 0
-0.0333 -0.0726 -0.2108 -0.436 -0.896 -0.087 84 69 49 0 0
-0.0303 -0.0683 -0.2487 -0.920 -0.324 0.220 26 18 13 0 0
-0.0432 -0.0792 -0.2707 -0.927 -0.001 0.375 58 49 36 0 0
-0.0244 -0.0589 -0.3423 -0.731 0.597 0.331 179 180 184 0 0
-0.0576 -0.0743 -0.6980 -0.012 -0.858 -0.514 43 42 40 0 0
-0.0552 -0.0720 -0.7024 -0.062 -0.877 -0.477 45 44 42 0 0
-0.0526 -0.0694 -0.7070 -0.071 -0.966 -0.250 42 41 39 0 0
-0.0582 -0.0742 -0.7146 -0.298 -0.796 0.528 26 22 19 0 0
-0.0633 -0.0790 -0.7139 -0.103 -0.905 0.413 31 27 24 0 0
-0.0610 -0.0767 -0.7183 -0.244 -0.937 0.252 31 27 24 0 0
-0.1198 -0.1310 -0.7113 -0.691 -0.647 0.323 169 148 106 0 0
-0.1256 -0.1355 -0.7321 -0.419 -0.863 -0.283 138 120 83 0 0
-0.1296 -0.1358 -0.8116 -0.675 -0.474 0.566 110 96 62 0 0
-0.1339 -0.1396 -0.8152 -0.482 -0.776 0.408 104 88 61 0 0
-0.1369 -0.1417 -0.8314 -0.282 -0.943 0.175 142 128 89 0 0
-0.1506 -0.1523 -0.8770 -0.535 -0.841 0.073 190 189 187 0 0
-0.2038 -0.2015 -0.8717 -0.594 -0.800 -0.089 206 206 206 0 0
-0.0217 -0.0616 -0.1721 -0.634 -0.649 0.421 94 82 65 0 0
-0.0297 -0.0681 -0.1925 -0.683 -0.548 0.483 35 25 15 0 0
-0.0347 -0.0713 -0.2228 -0.872 -0.312 0.377 55 44 27 0 0
-0.0350 -0.0709 -0.2396 -0.774 -0.492 0.399 56 44 32 0 0
-0.0323 -0.0680 -0.2483 -0.829 -0.554 0.080 41 32 26 0 0
-0.0322 -0.0678 -0.2499 -0.717 -0.646 0.262 21 15 12 0 0
-0.0188 -0.0520 -0.3317 -0.951 -0.309 0.017 49 47 49 0 0
-0.0169 -0.0500 -0.3376 -0.313 -0.890 -0.333 68 67 65 0 0
-0.0156 -0.0487 -0.3399 -0.519 -0.767 -0.378 101 100 97 0 0
-0.0626 -0.0768 -0.6922 -0.102 -0.868 -0.487 9 8 9 0 0
-0.0592 -0.0734 -0.6975 -0.303 -0.784 -0.542 20 18 18 0 0
-0.0611 -0.0746 -0.7129 -0.445 -0.723 0.528 18 16 13 0 0
-0.1095 -0.1194 -0.7087 0.178 -0.647 0.741 56 50 44 0 0
-0.1208 -0.1297 -0.7113 -0.768 -0.547 0.332 160 142 99 0 0
-0.1225 -0.1312 -0.7137 -0.621 -0.529 0.578 177 156 114 0 0
-0.1293 -0.1372 -0.7168 -0.539 -0.755 0.373 159 141 96 0 0
-0.1133 -0.1204 -0.7641 -0.376 -0.828 -0.416 82 70 44 0 0
-0.1351 -0.1384 -0.8151 -0.650 -0.716 0.253 105 90 59 0 0
-0.2054 -0.2008 -0.8709 -0.898 -0.418 0.136 206 206 206 0 0
-0.0314 -0.0677 -0.1892 -0.801 -0.503 0.324 41 29 15 0 0
-0.0313 -0.0676 -0.1907 -0.714 -0.624 0.317 37 27 17 0 0
-0.0318 -0.0679 -0.1936 -0.638 -0.769 -0.023 38 27 17 0 0
-0.0348 -0.0687 -0.2384 -0.847 -0.530 0.041 61 49 32 0 0
-0.0348 -0.0687 -0.2400 -0.859 -0.501 0.110 58 46 29 0 0
-0.0293 -0.0606 -0.3075 -0.970 0.240 -0.026 5 3 4 0 0
-0.0181 -0.0492 -0.3307 -0.949 -0.315 0.018 30 28 29 0 0
-0.0175 -0.0483 -0.3378 -0.380 -0.912 -0.154 52 51 48 0 0
-0.0174 -0.0482 -0.3395 -0.173 -0.947 -0.270 61 60 56 0 0
-0.0774 -0.0887 -0.6791 -0.218 -0.684 -0.697 8 8 8 0 0
-0.0689 -0.0793 -0.7150 -0.836 -0.508 0.208 25 22 21 0 0
-0.0713 -0.0815 -0.7147 -0.988 -0.152 0.036 22 19 17 0 0
-0.0717 -0.0818 -0.7165 -0.617 -0.126 0.777 17 16 14 0 0
-0.0751 -0.0850 -0.7153 -0.001 -0.261 0.965 17 16 14 0 0
-0.1212 -0.1279 -0.7100 -0.565 -0.448 0.693 145 130 95 0 0
-0.1153 -0.1201 -0.7631 -0.356 -0.876 -0.324 74 62 35 0 0
-0.1146 -0.1193 -0.7661 -0.420 -0.807 -0.415 93 82 54 0 0
-0.1437 -0.1427 -0.8459 -0.911 -0.385 0.149 122 107 81 0 0
-0.1429 -0.1418 -0.8492 -0.958 -0.115 0.261 123 108 70 0 0
-0.1434 -0.1421 -0.8509 -0.969 -0.022 0.247 161 144 100 0 0
-0.1493 -0.1477 -0.8499 -0.758 -0.091 0.646 134 120 84 0 0
-0.1664 -0.1629 -0.8631 -0.544 -0.791 0.282 191 191 189 0 0
-0.2062 -0.1993 -0.8714 -0.898 -0.418 0.136 206 206 206 0 0
-0.0219 -0.0578 -0.1680 -0.649 -0.740 0.178 165 147 124 0 0
-0.0311 -0.0656 -0.1865 -0.715 -0.527 0.460 123 107 74 0 0
-0.0326 -0.0668 -0.1906 -0.826 -0.332 0.456 42 31 15 0 0
-0.0341 -0.0666 -0.2250 -0.612 -0.516 0.599 55 42 30 0 0
-0.0349 -0.0672 -0.2263 -0.612 -0.516 0.599 59 46 34 0 0
-0.0345 -0.0661 -0.2435 -0.815 -0.484 0.319 66 54 36 0 0
-0.0352 -0.0667 -0.2448 -0.853 -0.279 0.441 59 46 32 0 0
-0.0278 -0.0570 -0.3086 -0.113 -0.911 -0.396 6 4 5 0 0
-0.0188 -0.0477 -0.3308 -0.938 -0.341 0.054 15 13 14 0 0
-0.0181 -0.0468 -0.3362 -0.886 -0.461 -0.058 28 28 28 0 0
-0.0192 -0.0477 -0.3375 -0.380 -0.912 -0.154 37 36 33 0 0
-0.0185 -0.0469 -0.3395 -0.477 -0.860 -0.180 41 40 35 0 0
-0.0278 -0.0542 -0.3712 0.388 -0.921 -0.029 78 76 65 0 0
-0.0276 -0.0539 -0.3730 0.374 -0.923 -0.088 86 82 73 0 0
-0.0270 -0.0533 -0.3750 0.328 -0.927 -0.179 95 92 84 0 0
-0.0260 -0.0523 -0.3773 0.306 -0.930 -0.205 85 83 76 0 0
-0.0251 -0.0513 -0.3795 0.287 -0.914 -0.285 95 94 88 0 0
-0.0187 -0.0447 -0.3934 0.048 -0.964 -0.261 183 184 187 0 0
-0.0189 -0.0449 -0.3950 0.146 -0.935 -0.324 182 185 189 0 0
-0.0601 -0.0729 -0.6216 0.645 -0.448 0.619 112 110 105 0 0
-0.0607 -0.0700 -0.7004 -0.657 -0.655 -0.373 10 9 9 0 0
-0.0600 -0.0691 -0.7033 -0.684 -0.653 -0.325 18 17 17 0 0
-0.0709 -0.0787 -0.7163 -0.724 -0.685 0.080 17 16 14 0 0
-0.0722 -0.0798 -0.7171 -0.464 -0.461 0.757 15 14 12 0 0
-0.0804 -0.0876 -0.7132 -0.006 0.042 0.999 16 15 13 0 0
-0.0859 -0.0929 -0.7098 0.210 -0.702 0.681 19 18 16 0 0
-0.1315 -0.1342 -0.7313 -0.303 -0.927 -0.221 124 105 72 0 0
-0.1311 -0.1337 -0.7339 -0.303 -0.927 -0.221 128 109 76 0 0
-0.1165 -0.1187 -0.7652 -0.420 -0.807 -0.415 79 68 40 0 0
-0.1159 -0.1181 -0.7680 -0.283 -0.913 -0.294 98 87 60 0 0
-0.1312 -0.1307 -0.8027 -0.760 -0.606 0.235 75 59 34 0 0
-0.1387 -0.1368 -0.8223 -0.711 -0.606 0.355 132 118 82 0 0
-0.1454 -0.1421 -0.8429 -0.379 -0.884 0.275 99 90 59 0 0
-0.1480 -0.1443 -0.8463 0.013 -0.668 0.744 179 161 113 0 0
-0.1449 -0.1411 -0.8549 -0.583 -0.655 0.480 145 132 88 0 0
-0.1500 -0.1460 -0.8505 -0.149 -0.864 0.482 146 132 94 0 0
-0.1635 -0.1579 -0.8640 -0.472 -0.643 0.603 185 185 184 0 0
-0.0107 -0.0461 -0.1528 -0.395 -0.736 0.551 182 161 112 0 0
-0.0324 -0.0646 -0.1879 -0.795 -0.394 0.461 96 82 52 0 0
-0.0336 -0.0656 -0.1906 -0.921 -0.225 0.317 75 63 39 0 0
-0.0343 -0.0651 -0.2160 -0.848 -0.444 0.291 55 42 25 0 0
-0.0361 -0.0660 -0.2339 -0.577 -0.769 0.274 63 47 30 0 0
-0.0366 -0.0664 -0.2353 -0.424 -0.817 0.390 71 56 34 0 0
-0.0343 -0.0636 -0.2485 -0.457 -0.886 0.076 34 25 14 0 0
-0.0357 -0.0649 -0.2496 -0.608 -0.791 0.068 31 25 15 0 0
-0.0356 -0.0647 -0.2512 -0.439 -0.596 0.673 35 28 19 0 0
-0.0362 -0.0652 -0.2526 -0.809 -0.378 0.450 26 19 13 0 0
-0.0359 -0.0648 -0.2542 -0.747 -0.137 0.651 22 16 11 0 0
-0.0353 -0.0642 -0.2576 -0.895 0.187 0.406 18 14 10 0 0
-0.0350 -0.0626 -0.2848 -0.920 0.333 0.204 21 20 16 0 0
-0.0284 -0.0554 -0.3087 -0.374 -0.816 -0.441 6 4 5 0 0
-0.0200 -0.0465 -0.3341 -0.854 -0.520 0.007 15 14 17 0 0
-0.0209 -0.0471 -0.3371 -0.639 -0.762 -0.105 25 24 21 0 0
-0.0186 -0.0447 -0.3433 -0.764 -0.644 -0.032 31 29 30 0 0
-0.0186 -0.0446 -0.3450 -0.764 -0.644 -0.032 37 35 38 0 0
-0.0259 -0.0507 -0.3605 0.302 -0.939 0.164 73 71 67 0 0
-0.0316 -0.0554 -0.3732 0.290 -0.947 -0.142 65 59 49 0 0
-0.0311 -0.0548 -0.3752 0.268 -0.942 -0.201 70 66 56 0 0
-0.0219 -0.0456 -0.3922 0.118 -0.946 -0.302 148 148 146 0 0
-0.0213 -0.0448 -0.3961 0.120 -0.882 -0.456 184 185 188 0 0
-0.0612 -0.0678 -0.7032 -0.941 -0.314 -0.127 6 6 6 0 0
-0.0736 -0.0789 -0.7147 -0.118 -0.875 0.470 15 14 12 0 0
-0.0754 -0.0805 -0.7151 0.005 -0.456 0.890 13 12 10 0 0
-0.1346 -0.1355 -0.7166 -0.279 -0.939 0.202 191 172 128 0 0
-0.1331 -0.1333 -0.7329 -0.303 -0.927 -0.221 124 105 72 0 0
-0.1463 -0.1406 -0.8432 -0.550 -0.801 0.237 102 92 58 0 0
-0.1464 -0.1401 -0.8544 -0.838 -0.511 0.192 146 132 91 0 0
-0.1516 -0.1452 -0.8498 -0.186 -0.879 0.440 147 133 94 0 0
-0.1645 -0.1565 -0.8642 -0.269 -0.523 0.809 184 183 182 0 0
-0.1651 -0.1570 -0.8657 -0.491 -0.302 0.817 185 185 183 0 0
-0.0216 -0.0539 -0.1580 -0.480 -0.277 0.833 248 244 211 0 0
-0.0361 -0.0649 -0.2142 -0.928 -0.297 0.225 58 43 24 0 0
-0.0357 -0.0639 -0.2251 -0.867 -0.334 0.370 58 45 28 0 0
-0.0260 -0.0512 -0.3051 -0.501 -0.642 0.580 7 5 6 0 0
-0.0275 -0.0523 -0.3095 -0.999 -0.029 0.032 7 5 6 0 0
-0.0263 -0.0512 -0.3116 -0.886 -0.346 -0.308 4 2 3 0 0
-0.0212 -0.0454 -0.3323 -0.841 -0.529 0.116 11 9 10 0 0
-0.0213 -0.0454 -0.3340 -0.902 -0.430 0.032 12 10 11 0 0
-0.0213 -0.0454 -0.3357 -0.956 -0.286 0.059 14 12 13 0 0
-0.0198 -0.0437 -0.3415 -0.791 -0.611 0.007 24 22 24 0 0
-0.0198 -0.0437 -0.3432 -0.791 -0.611 0.007 24 22 23 0 0
-0.0197 -0.0434 -0.3450 -0.756 -0.652 0.052 21 19 20 0 0
-0.0298 -0.0522 -0.3591 0.307 -0.932 0.193 56 48 48 0 0
-0.0236 -0.0447 -0.3972 -0.033 -0.890 -0.454 185 186 189 0 0
-0.0666 -0.0703 -0.7077 -0.424 -0.297 0.856 7 6 4 0 0
-0.0775 -0.0803 -0.7120 -0.345 -0.861 0.374 15 14 12 0 0
-0.0791 -0.0817 -0.7125 -0.499 -0.824 0.268 13 12 10 0 0
-0.0980 -0.0995 -0.7083 -0.306 -0.923 -0.234 18 17 15 0 0
-0.0999 -0.1013 -0.7085 -0.601 -0.753 0.268 22 21 19 0 0
-0.1197 -0.1197 -0.7088 -0.629 -0.776 -0.035 76 69 53 0 0
-0.1247 -0.1244 -0.7097 -0.288 -0.639 0.714 94 84 64 0 0
-0.1268 -0.1261 -0.7117 -0.081 -0.777 0.624 119 107 76 0 0
-0.1421 -0.1354 -0.8187 -0.243 -0.919 0.312 107 92 57 0 0
-0.1434 -0.1365 -0.8236 -0.228 -0.846 0.482 119 104 71 0 0
-0.1518 -0.1430 -0.8511 -0.855 -0.397 0.333 145 131 91 0 0
-0.1653 -0.1550 -0.8646 -0.607 -0.410 0.681 183 182 183 0 0
-0.1679 -0.1572 -0.8679 -0.672 -0.111 0.732 191 190 188 0 0
-0.0136 -0.0446 -0.1525 -0.267 -0.864 0.426 188 173 123 0 0
-0.0320 -0.0604 -0.1824 -0.545 -0.496 0.676 119 107 81 0 0
-0.0362 -0.0629 -0.2129 -0.874 -0.233 0.425 54 40 22 0 0
-0.0363 -0.0629 -0.2144 -0.953 -0.259 0.156 47 35 18 0 0
-0.0365 -0.0626 -0.2251 -0.771 -0.528 0.356 59 46 28 0 0
-0.0277 -0.0525 -0.2657 -0.591 -0.571 0.571 25 20 15 0 0
-0.0261 -0.0489 -0.3088 -0.929 0.285 0.234 9 7 8 0 0
-0.0228 -0.0449 -0.3286 -0.992 -0.109 0.060 8 6 7 0 0
-0.0207 -0.0422 -0.3432 -0.587 -0.748 0.311 14 13 12 0 0
-0.0211 -0.0425 -0.3447 -0.587 -0.748 0.311 13 12 11 0 0
-0.0393 -0.0586 -0.3635 0.180 -0.982 -0.061 80 75 68 0 0
-0.0311 -0.0498 -0.3885 0.113 -0.955 -0.273 85 82 76 0 0
-0.0264 -0.0450 -0.3962 -0.033 -0.890 -0.454 153 153 153 0 0
-0.0775 -0.0790 -0.6875 -0.161 -0.768 -0.620 7 6 4 0 0
-0.0687 -0.0701 -0.7004 0.203 -0.979 -0.030 6 5 3 0 0
-0.0685 -0.0697 -0.7070 -0.309 -0.288 0.906 5 4 2 0 0
-0.0973 -0.0964 -0.7102 -0.405 -0.895 -0.187 15 14 12 0 0
-0.1006 -0.0996 -0.7089 -0.639 -0.215 0.739 19 18 16 0 0
-0.1163 -0.1144 -0.7073 -0.114 -0.189 0.975 48 44 38 0 0
-0.1202 -0.1178 -0.7095 -0.484 -0.864 0.140 77 70 55 0 0
-0.1204 -0.1180 -0.7113 -0.484 -0.864 0.140 89 82 64 0 0
-0.1278 -0.1250 -0.7097 -0.048 -0.769 0.638 83 76 54 0 0
-0.1284 -0.1255 -0.7111 -0.277 -0.805 0.525 116 101 73 0 0
-0.1292 -0.1261 -0.7124 -0.184 -0.856 0.484 142 122 87 0 0
-0.1299 -0.1267 -0.7137 -0.326 -0.832 0.449 153 134 93 0 0
-0.1303 -0.1270 -0.7154 -0.733 -0.512 0.449 157 138 99 0 0
-0.1213 -0.1161 -0.7679 -0.591 -0.801 -0.092 92 81 53 0 0
-0.1233 -0.1172 -0.7831 -0.591 -0.702 0.398 112 98 70 0 0
-0.1243 -0.1181 -0.7863 -0.591 -0.702 0.398 109 95 64 0 0
-0.1250 -0.1186 -0.7877 -0.642 -0.596 0.483 94 80 55 0 0
-0.1257 -0.1193 -0.7890 -0.655 -0.522 0.547 77 63 43 0 0
-0.1265 -0.1199 -0.7903 -0.699 -0.481 0.528 63 51 34 0 0
-0.1363 -0.1285 -0.8028 -0.634 -0.663 0.398 98 84 54 0 0
-0.1368 -0.1289 -0.8043 -0.621 -0.656 0.428 90 76 46 0 0
-0.1372 -0.1292 -0.8061 -0.575 -0.739 0.350 87 72 46 0 0
-0.1389 -0.1302 -0.8173 -0.323 -0.937 0.134 111 96 65 0 0
-0.1450 -0.1356 -0.8253 -0.537 -0.586 0.607 128 112 80 0 0
-0.1455 -0.1358 -0.8292 -0.810 -0.502 0.303 143 127 84 0 0
-0.0229 -0.0510 -0.1581 -0.686 -0.258 0.681 169 152 131 0 0
-0.0273 -0.0546 -0.1674 -0.634 -0.732 0.248 96 77 40 0 0
-0.0273 -0.0547 -0.1689 -0.620 -0.784 0.028 134 114 79 0 0
-0.0390 -0.0637 -0.2093 -0.919 -0.313 0.240 69 55 33 0 0
-0.0362 -0.0609 -0.2117 -0.830 -0.335 0.446 60 45 24 0 0
-0.0356 -0.0602 -0.2134 -0.533 -0.678 0.507 52 40 24 0 0
-0.0374 -0.0613 -0.2251 -0.771 -0.528 0.356 57 44 27 0 0
-0.0253 -0.0446 -0.3365 -0.477 -0.501 0.722 9 7 8 0 0
-0.0256 -0.0448 -0.3397 0.057 -0.900 0.431 9 8 8 0 0
-0.0280 -0.0442 -0.3977 0.020 -0.837 -0.547 145 145 144 0 0
-0.0262 -0.0424 -0.4004 -0.048 -0.824 -0.564 185 186 188 0 0
-0.0843 -0.0831 -0.6862 0.437 -0.899 -0.035 6 5 3 0 0
-0.0822 -0.0797 -0.7160 0.256 -0.074 0.964 14 12 10 0 0
-0.1182 -0.1138 -0.7065 0.003 -0.575 0.818 51 47 41 0 0
-0.1219 -0.1172 -0.7088 -0.261 -0.930 0.259 65 58 45 0 0
-0.1286 -0.1235 -0.7079 -0.093 -0.835 0.543 94 86 67 0 0
-0.1302 -0.1249 -0.7104 -0.165 -0.833 0.529 110 96 71 0 0
-0.1310 -0.1255 -0.7137 -0.389 -0.582 0.715 159 139 101 0 0
-0.1312 -0.1256 -0.7155 -0.789 -0.558 0.257 140 122 85 0 0
-0.1230 -0.1148 -0.7803 -0.536 -0.783 0.316 103 89 63 0 0
-0.1241 -0.1157 -0.7813 -0.647 -0.730 0.219 100 87 61 0 0
-0.1374 -0.1272 -0.8028 -0.552 -0.693 0.464 102 88 58 0 0
-0.1378 -0.1275 -0.8045 -0.502 -0.706 0.500 90 74 43 0 0
-0.1394 -0.1284 -0.8159 -0.357 -0.918 0.174 98 81 51 0 0
-0.1567 -0.1430 -0.8498 -0.488 -0.699 0.522 132 117 80 0 0
-0.1704 -0.1552 -0.8630 -0.545 -0.797 0.260 185 185 187 0 0
-0.0383 -0.0608 -0.2098 -0.772 -0.155 0.616 64 51 29 0 0
-0.0361 -0.0587 -0.2119 -0.472 -0.600 0.646 57 43 24 0 0
-0.0364 -0.0589 -0.2134 -0.280 -0.780 0.559 51 39 25 0 0
-0.0342 -0.0548 -0.2561 -0.907 -0.271 -0.321 30 22 18 0 0
-0.0327 -0.0532 -0.2582 -0.852 -0.263 -0.452 19 15 12 0 0
-0.0259 -0.0435 -0.3264 0.037 -0.877 0.479 5 5 5 0 0
-0.0458 -0.0603 -0.3646 -0.016 -0.978 -0.209 63 59 55 0 0
-0.0342 -0.0481 -0.3914 -0.088 -0.900 -0.428 82 79 71 0 0
-0.0293 -0.0431 -0.3993 -0.029 -0.824 -0.566 149 149 147 0 0
-0.0270 -0.0408 -0.4024 -0.087 -0.759 -0.646 185 187 187 0 0
-0.0790 -0.0746 -0.7075 -0.219 -0.974 -0.065 6 5 3 0 0
-0.1198 -0.1131 -0.7059 0.003 -0.575 0.818 58 52 47 0 0
-0.1277 -0.1203 -0.7080 -0.546 -0.309 0.779 80 71 54 0 0
-0.1286 -0.1212 -0.7091 -0.545 -0.304 0.781 92 81 62 0 0
-0.1316 -0.1239 -0.7121 -0.401 -0.430 0.809 119 103 76 0 0
-0.1325 -0.1246 -0.7132 -0.424 -0.483 0.766 128 111 78 0 0
-0.1331 -0.1252 -0.7146 -0.759 -0.512 0.401 141 125 90 0 0
-0.1410 -0.1328 -0.7082 -0.843 -0.528 0.105 155 136 95 0 0
-0.1416 -0.1327 -0.7240 -0.393 -0.897 -0.200 116 99 65 0 0
-0.1405 -0.1276 -0.8070 -0.601 -0.780 0.177 162 142 103 0 0
-0.1469 -0.1327 -0.8235 -0.880 -0.381 0.283 123 109 74 0 0
-0.0175 -0.0422 -0.1492 -0.903 -0.425 -0.059 176 167 142 0 0
-0.0175 -0.0422 -0.1507 -0.913 -0.405 -0.048 215 206 174 0 0
-0.0237 -0.0471 -0.1686 -0.720 -0.481 0.500 106 92 61 0 0
-0.0292 -0.0517 -0.1808 -0.732 -0.613 0.297 46 33 17 0 0
-0.0296 -0.0520 -0.1822 -0.756 -0.634 0.163 48 35 19 0 0
-0.0371 -0.0577 -0.2088 -0.831 0.047 0.554 76 63 39 0 0
-0.0354 -0.0538 -0.2544 -0.812 -0.426 -0.399 30 23 16 0 0
-0.0347 -0.0531 -0.2562 -0.838 -0.368 -0.402 22 17 13 0 0
-0.0330 -0.0514 -0.2584 -0.904 -0.218 -0.368 15 11 8 0 0
-0.0273 -0.0450 -0.2798 -0.994 -0.037 -0.106 9 8 6 0 0
-0.0274 -0.0450 -0.2814 -0.964 0.187 0.187 9 8 6 0 0
-0.0471 -0.0597 -0.3577 0.008 -0.861 0.509 45 42 40 0 0
-0.0346 -0.0461 -0.3953 -0.084 -0.818 -0.568 95 95 87 0 0
-0.0327 -0.0442 -0.3980 -0.089 -0.795 -0.600 107 107 101 0 0
-0.0299 -0.0413 -0.4013 -0.087 -0.759 -0.646 158 159 156 0 0
-0.0914 -0.0837 -0.7132 0.375 -0.191 0.907 14 10 9 0 0
-0.1207 -0.1116 -0.7061 -0.491 -0.364 0.791 53 46 40 0 0
-0.1298 -0.1200 -0.7090 -0.737 -0.125 0.664 88 77 59 0 0
-0.1317 -0.1217 -0.7111 -0.580 -0.285 0.763 106 95 72 0 0
-0.1330 -0.1229 -0.7118 -0.556 -0.171 0.813 109 96 70 0 0
-0.1426 -0.1312 -0.7262 -0.318 -0.943 -0.096 111 94 62 0 0
-0.1368 -0.1246 -0.7496 -0.271 -0.906 -0.324 120 105 71 0 0
-0.1601 -0.1416 -0.8483 -0.297 -0.636 0.712 141 128 89 0 0
-0.1625 -0.1435 -0.8563 -0.703 -0.678 0.215 84 78 55 0 0
-0.1630 -0.1434 -0.8671 -0.503 -0.767 0.398 147 141 141 0 0
-0.1637 -0.1440 -0.8684 -0.534 -0.671 0.514 163 159 162 0 0
-0.1643 -0.1445 -0.8698 -0.534 -0.671 0.514 172 170 172 0 0
-0.1675 -0.1475 -0.8701 -0.164 -0.406 0.899 183 181 182 0 0
-0.0265 -0.0476 -0.1711 -0.944 -0.004 0.329 186 170 130 0 0
-0.0275 -0.0483 -0.1754 -0.961 -0.192 0.198 144 124 77 0 0
-0.0279 -0.0485 -0.1768 -0.766 -0.181 0.617 113 95 56 0 0
-0.0296 -0.0499 -0.1809 -0.947 -0.311 0.079 61 46 25 0 0
-0.0351 -0.0513 -0.2580 -0.753 -0.484 -0.446 13 11 8 0 0
-0.0265 -0.0420 -0.2805 -0.901 -0.180 -0.394 11 9 7 0 0
-0.0269 -0.0423 -0.2820 -0.960 0.268 0.075 11 10 8 0 0
-0.0297 -0.0388 -0.4020 -0.147 -0.615 -0.774 119 119 113 0 0
-0.1178 -0.1104 -0.6308 -0.119 -0.993 0.011 63 53 41 0 0
-0.0863 -0.0765 -0.7131 -0.126 -0.282 0.951 13 9 8 0 0
-0.0920 -0.0819 -0.7138 -0.263 0.208 0.942 14 10 9 0 0
-0.0925 -0.0822 -0.7154 0.165 -0.653 0.739 15 11 10 0 0
-0.1214 -0.1099 -0.7066 -0.585 -0.115 0.803 54 47 39 0 0
-0.1292 -0.1172 -0.7087 -0.694 -0.003 0.720 87 77 61 0 0
-0.1443 -0.1306 -0.7255 -0.284 -0.950 0.130 134 115 83 0 0
-0.1448 -0.1310 -0.7271 -0.344 -0.938 0.044 139 121 87 0 0
-0.1524 -0.1330 -0.8283 -0.858 -0.467 0.212 127 111 77 0 0
-0.1598 -0.1390 -0.8479 -0.071 -0.889 0.453 146 134 93 0 0
-0.1638 -0.1423 -0.8562 -0.493 -0.776 0.394 85 79 56 0 0
-0.0268 -0.0458 -0.1698 -0.793 -0.598 0.115 167 153 117 0 0
-0.0367 -0.0538 -0.1958 -0.766 -0.608 0.210 63 43 27 0 0
-0.0354 -0.0521 -0.2068 -0.974 -0.207 0.091 70 53 28 0 0
-0.0351 -0.0492 -0.2567 -0.679 -0.495 -0.542 16 12 9 0 0
-0.0327 -0.0468 -0.2591 -0.511 -0.860 -0.016 17 15 12 0 0
-0.0267 -0.0400 -0.2807 -0.918 -0.261 -0.300 20 17 15 0 0
-0.0338 -0.0443 -0.3276 0.387 -0.907 0.163 10 10 12 0 0
-0.0359 -0.0426 -0.3992 -0.258 -0.649 -0.716 102 101 94 0 0
-0.0863 -0.0743 -0.7100 -0.269 -0.778 0.568 9 8 6 0 0
-0.0925 -0.0798 -0.7145 -0.291 -0.227 0.929 15 11 10 0 0
-0.0938 -0.0810 -0.7153 -0.222 -0.195 0.955 15 11 10 0 0
-0.1318 -0.1174 -0.7091 -0.230 -0.216 0.949 84 73 56 0 0
-0.1659 -0.1420 -0.8571 -0.398 -0.722 0.567 77 71 56 0 0
-0.0366 -0.0518 -0.1930 -0.919 -0.197 0.343 62 49 27 0 0
-0.0372 -0.0523 -0.1943 -0.837 -0.431 0.337 69 54 32 0 0
-0.0374 -0.0525 -0.1958 -0.583 -0.800 0.143 76 59 39 0 0
-0.0380 -0.0528 -0.1987 -0.597 -0.776 0.204 57 40 21 0 0
-0.0353 -0.0497 -0.2086 -0.695 -0.343 0.632 73 59 31 0 0
-0.0407 -0.0540 -0.2254 -0.601 -0.726 0.334 70 55 34 0 0
-0.0372 -0.0491 -0.2547 -0.581 -0.590 -0.561 21 16 13 0 0
-0.0338 -0.0457 -0.2591 -0.644 -0.570 -0.510 13 12 10 0 0
-0.0244 -0.0349 -0.2952 -0.805 -0.497 -0.324 13 12 10 0 0
-0.0243 -0.0347 -0.2969 -0.702 -0.667 -0.249 13 12 10 0 0
-0.0219 -0.0320 -0.3045 -0.836 -0.500 0.228 19 18 16 0 0
-0.0224 -0.0324 -0.3060 -0.765 -0.501 0.404 18 17 15 0 0
-0.0222 -0.0321 -0.3078 -0.907 -0.340 0.248 25 22 20 0 0
-0.0384 -0.0464 -0.3277 0.215 -0.952 0.218 26 24 25 0 0
-0.0409 -0.0453 -0.3952 -0.243 -0.780 -0.576 80 77 67 0 0
-0.0386 -0.0429 -0.3983 -0.212 -0.721 -0.659 95 93 84 0 0
-0.1152 -0.1093 -0.5190 -0.919 0.337 0.205 216 217 218 0 0
-0.1156 -0.1096 -0.5204 -0.919 0.337 0.205 216 218 217 0 0
-0.1363 -0.1166 -0.7626 -0.380 -0.822 -0.423 96 85 55 0 0
-0.1354 -0.1155 -0.7659 -0.583 -0.716 -0.383 91 81 55 0 0
-0.1370 -0.1158 -0.7880 -0.318 -0.880 0.353 113 97 65 0 0
-0.1672 -0.1409 -0.8568 -0.398 -0.722 0.567 80 77 57 0 0
-0.0319 -0.0455 -0.1884 -0.903 -0.187 0.386 135 119 86 0 0
-0.0366 -0.0498 -0.1932 -0.762 -0.231 0.605 108 93 64 0 0
-0.0380 -0.0510 -0.1943 -0.753 -0.234 0.615 90 76 49 0 0
-0.0419 -0.0530 -0.2268 -0.743 -0.489 0.456 72 56 35 0 0
-0.0425 -0.0535 -0.2281 -0.523 -0.659 0.541 72 57 37 0 0
-0.0273 -0.0363 -0.2780 -0.931 -0.117 -0.345 18 14 12 0 0
-0.0271 -0.0361 -0.2796 -0.999 0.035 0.040 14 9 9 0 0
-0.0279 -0.0360 -0.2942 -0.810 -0.569 0.144 12 11 9 0 0
-0.0270 -0.0348 -0.3012 -0.833 -0.477 -0.279 11 10 9 0 0
-0.0266 -0.0344 -0.3030 -0.860 -0.411 -0.303 8 7 5 0 0
-0.0285 -0.0358 -0.3105 -0.044 -0.413 0.910 4 2 3 0 0
-0.0265 -0.0337 -0.3131 -0.185 -0.809 0.559 5 3 4 0 0
-0.0409 -0.0429 -0.3976 -0.158 -0.758 -0.632 86 82 73 0 0
-0.1008 -0.0994 -0.4067 -0.116 -0.909 0.400 107 102 94 0 0
-0.1121 -0.1044 -0.5148 -0.177 -0.290 0.940 188 188 188 0 0
-0.1124 -0.1046 -0.5164 -0.869 0.321 0.376 186 186 186 0 0
-0.1131 -0.1052 -0.5177 -0.417 -0.600 0.683 173 173 173 0 0
-0.1141 -0.1060 -0.5205 -0.934 -0.079 0.349 157 158 157 0 0
-0.1192 -0.1106 -0.5257 0.183 -0.737 0.651 165 166 166 0 0
-0.1205 -0.1117 -0.5265 -0.489 -0.168 0.856 182 182 183 0 0
-0.1383 -0.1162 -0.7616 -0.380 -0.822 -0.423 110 96 68 0 0
-0.1368 -0.1145 -0.7655 -0.583 -0.716 -0.383 97 85 59 0 0
-0.1438 -0.1197 -0.7943 -0.588 -0.716 0.378 115 102 67 0 0
-0.1446 -0.1203 -0.7957 -0.618 -0.591 0.518 128 112 71 0 0
-0.1501 -0.1244 -0.8176 -0.784 -0.616 0.069 92 79 46 0 0
-0.1503 -0.1244 -0.8197 -0.637 -0.770 0.033 104 91 59 0 0
-0.1634 -0.1363 -0.8317 -0.847 -0.325 0.421 98 88 57 0 0
-0.1682 -0.1398 -0.8524 -0.598 -0.670 0.441 122 109 72 0 0
-0.1698 -0.1411 -0.8570 -0.549 -0.613 0.568 78 73 56 0 0
-0.0264 -0.0393 -0.1674 -0.902 -0.359 0.240 72 58 37 0 0
-0.0313 -0.0429 -0.1873 -0.954 -0.293 -0.068 148 132 92 0 0
-0.0398 -0.0494 -0.2169 -0.518 -0.553 0.652 142 132 101 0 0
-0.0265 -0.0321 -0.3018 -0.310 -0.934 -0.179 4 2 3 0 0
-0.0274 -0.0329 -0.3030 -0.833 -0.477 -0.279 5 3 4 0 0
-0.0269 -0.0323 -0.3049 -0.786 -0.453 -0.421 7 6 7 0 0
-0.0246 -0.0300 -0.3075 -0.969 -0.245 0.026 7 7 7 0 0
-0.0222 -0.0276 -0.3102 -0.896 -0.058 -0.439 3 3 3 0 0
-0.0271 -0.0321 -0.3115 0.344 -0.831 0.437 4 2 3 0 0
-0.1029 -0.0997 -0.3993 0.012 -0.967 -0.255 106 99 91 0 0
-0.1025 -0.0992 -0.4012 -0.021 -0.958 -0.288 105 98 89 0 0
-0.1028 -0.0993 -0.4044 -0.094 -0.990 0.102 102 93 81 0 0
-0.1249 -0.1136 -0.5311 -0.339 -0.753 0.565 147 147 145 0 0
-0.1258 -0.1143 -0.5323 -0.749 0.156 0.644 167 169 168 0 0
-0.0876 -0.0742 -0.6003 0.396 -0.878 0.268 61 60 56 0 0
-0.1404 -0.1159 -0.7604 -0.371 -0.824 -0.427 111 96 67 0 0
-0.1382 -0.1136 -0.7652 -0.729 -0.569 -0.381 102 88 61 0 0
-0.1347 -0.1095 -0.7781 -0.603 -0.797 -0.038 84 72 46 0 0
-0.1354 -0.1101 -0.7794 -0.577 -0.805 0.137 85 72 46 0 0
-0.1442 -0.1178 -0.7930 -0.578 -0.720 0.384 96 83 48 0 0
-0.1451 -0.1185 -0.7942 -0.680 -0.576 0.453 92 80 45 0 0
-0.1513 -0.1228 -0.8243 -0.398 -0.894 -0.205 121 108 74 0 0
-0.1625 -0.1332 -0.8299 -0.574 -0.721 0.387 123 108 76 0 0
-0.1654 -0.1357 -0.8351 -0.775 -0.525 0.351 120 105 72 0 0
-0.0049 -0.0175 -0.1513 -0.863 -0.481 -0.154 180 179 177 0 0
-0.0313 -0.0407 -0.1890 -0.949 -0.139 0.282 150 136 99 0 0
-0.0320 -0.0413 -0.1904 -0.852 -0.130 0.507 106 92 61 0 0
-0.0321 -0.0413 -0.1918 -0.877 -0.057 0.478 112 99 68 0 0
-0.0272 -0.0310 -0.2935 -0.034 -0.786 0.617 6 5 3 0 0
-0.0282 -0.0319 -0.2948 -0.018 -0.567 0.824 5 4 3 0 0
-0.0299 -0.0333 -0.2991 0.464 -0.793 0.396 4 2 3 0 0
-0.0287 -0.0315 -0.3113 0.188 -0.832 0.523 4 2 3 0 0
-0.1065 -0.0976 -0.4629 0.088 -0.966 -0.243 135 134 130 0 0
-0.1064 -0.0973 -0.4648 -0.219 -0.938 -0.270 153 153 154 0 0
-0.1281 -0.1142 -0.5349 -0.304 -0.805 0.509 108 104 98 0 0
-0.1289 -0.1149 -0.5361 -0.506 -0.742 0.439 140 137 133 0 0
-0.1206 -0.1005 -0.6533 -0.627 -0.636 -0.451 30 24 20 0 0
-0.0986 -0.0767 -0.7022 -0.400 -0.854 -0.333 8 7 5 0 0
-0.0989 -0.0765 -0.7125 0.319 -0.876 0.362 15 11 10 0 0
-0.1520 -0.1262 -0.7334 -0.310 -0.912 -0.269 134 117 82 0 0
-0.1515 -0.1255 -0.7361 -0.359 -0.893 -0.271 136 119 83 0 0
-0.1510 -0.1249 -0.7388 -0.359 -0.893 -0.271 129 111 78 0 0
-0.1466 -0.1175 -0.7959 -0.736 -0.627 0.255 116 100 66 0 0
-0.1476 -0.1183 -0.7991 -0.587 -0.554 0.590 111 92 61 0 0
-0.1530 -0.1231 -0.8057 -0.725 -0.474 0.500 80 65 37 0 0
-0.1521 -0.1211 -0.8269 -0.634 -0.717 -0.289 91 80 52 0 0
-0.1632 -0.1316 -0.8283 -0.740 -0.605 0.294 124 110 77 0 0
-0.1651 -0.1333 -0.8303 -0.592 -0.789 0.160 112 98 67 0 0
-0.1667 -0.1347 -0.8348 -0.551 -0.745 0.376 117 102 70 0 0
-0.0389 -0.0448 -0.2085 -0.756 -0.201 0.623 65 51 31 0 0
-0.0291 -0.0305 -0.2948 -0.486 -0.278 0.828 5 3 3 0 0
-0.0295 -0.0309 -0.2963 0.166 -0.818 0.551 4 2 2 0 0
-0.0307 -0.0319 -0.2975 0.166 -0.818 0.551 3 2 2 0 0
-0.0558 -0.0539 -0.3348 0.125 -0.903 0.410 54 51 47 0 0
-0.1075 -0.1010 -0.3794 -0.667 -0.269 0.695 151 148 139 0 0
-0.1253 -0.1032 -0.6457 -0.551 -0.771 -0.318 47 39 29 0 0
-0.1233 -0.1010 -0.6496 -0.605 -0.666 -0.437 32 26 20 0 0
-0.1381 -0.1119 -0.7083 -0.597 -0.600 0.533 59 55 44 0 0
-0.1387 -0.1125 -0.7096 -0.597 -0.600 0.533 66 59 46 0 0
-0.1484 -0.1168 -0.7973 -0.651 -0.568 0.503 84 70 43 0 0
-0.1565 -0.1237 -0.8137 -0.745 -0.666 0.050 110 95 62 0 0
-0.1591 -0.1262 -0.8127 -0.211 -0.612 0.762 121 106 73 0 0
-0.1743 -0.1373 -0.8739 -0.567 -0.613 0.550 178 176 177 0 0
-0.0282 -0.0274 -0.2955 0.570 -0.741 0.355 11 10 7 0 0
-0.1079 -0.0993 -0.3797 -0.277 -0.457 0.845 111 99 74 0 0
-0.1162 -0.1069 -0.3865 -0.498 -0.836 0.232 75 62 45 0 0
-0.1051 -0.0909 -0.4795 0.207 -0.890 -0.406 120 118 112 0 0
-0.1012 -0.0866 -0.4895 0.258 -0.956 -0.142 99 97 90 0 0
-0.1027 -0.0880 -0.4902 0.495 -0.838 0.230 94 91 82 0 0
-0.1291 -0.1076 -0.5921 -0.134 -0.949 0.285 93 83 70 0 0
-0.1296 -0.1080 -0.5935 -0.134 -0.949 0.285 101 90 74 0 0
-0.1212 -0.0963 -0.6569 -0.645 -0.670 -0.368 25 20 17 0 0
-0.1199 -0.0948 -0.6602 -0.639 -0.666 -0.385 24 19 16 0 0
-0.1191 -0.0939 -0.6630 -0.639 -0.666 -0.385 20 15 13 0 0
-0.1179 -0.0926 -0.6662 -0.505 -0.789 -0.349 14 13 11 0 0
-0.1134 -0.0875 -0.6790 -0.128 -0.941 -0.313 8 7 5 0 0
-0.1036 -0.0769 -0.6994 -0.035 -0.994 -0.100 10 9 7 0 0
-0.1379 -0.1095 -0.7075 -0.566 -0.206 0.798 57 52 46 0 0
-0.1479 -0.1142 -0.7948 -0.646 -0.630 0.431 96 84 56 0 0
-0.1486 -0.1147 -0.7962 -0.597 -0.688 0.412 73 63 35 0 0
-0.1652 -0.1295 -0.8174 -0.609 -0.665 0.433 73 57 32 0 0
-0.1751 -0.1358 -0.8743 -0.409 -0.825 0.389 176 174 175 0 0
-0.0439 -0.0436 -0.2400 -0.988 -0.152 0.030 70 55 33 0 0
-0.0293 -0.0277 -0.2708 -0.885 0.188 0.426 13 9 8 0 0
-0.0249 -0.0228 -0.2823 -0.920 0.387 -0.069 17 16 15 0 0
-0.1176 -0.1064 -0.3829 -0.788 -0.530 0.313 68 53 35 0 0
-0.1177 -0.1064 -0.3845 -0.776 -0.351 0.523 75 60 41 0 0
-0.1149 -0.1035 -0.3878 -0.399 -0.642 0.655 82 68 49 0 0
-0.1156 -0.1041 -0.3890 -0.043 -0.994 0.101 70 57 38 0 0
