ply
format ascii 1.0
element vertex 669
property float x
property float y
property float z
property uchar diffuse_red
property uchar diffuse_green
property uchar diffuse_blue
end_header
-0.181248464180387 -0.10723377552809099 -0.5602215169726419 70 56 30
-0.18138682921561405 -0.1072106376611573 -0.5619826629784995 87 73 50
-0.18160969660548054 -0.10736110800643905 -0.5636298930399939 93 79 56
-0.18144231738463015 -0.10670752554890639 -0.565817777972411 70 54 30
-0.18113387039029546 -0.10576243771332366 -0.5682065079844637 78 64 43
-0.18098487099933022 -0.10514495232016219 -0.5703801575601137 79 67 49
-0.18029934173957063 -0.10342034121932403 -0.5733077388325698 56 44 29
-0.18032479355855588 -0.1031606596399828 -0.5752500304362587 63 53 38
-0.18049429769168696 -0.10319766756443566 -0.5769934570636294 43 35 16
-0.18042533480377607 -0.10274208064271548 -0.5790752707725882 44 33 16
-0.18023591280800258 -0.10203704127675664 -0.5813319665260451 54 41 25
-0.1807803038193609 -0.10284698655121155 -0.5825526517426375 70 56 34
-0.1808407881847206 -0.10265715652128107 -0.5844611615667055 83 69 43
-0.18086374421455625 -0.1023892316713534 -0.5864265584373006 77 63 38
-0.18116019470511563 -0.10268633118316692 -0.5880033932814988 88 74 48
-0.18088436778105496 -0.10179934661448886 -0.5904046261290743 88 75 49
-0.1811547815885945 -0.10204181134356213 -0.5920238023414146 135 119 92
-0.18148931421984305 -0.10241682632874449 -0.593551348669207 119 104 72
-0.18163041043526104 -0.10239111492709435 -0.5953606696575312 116 101 69
-0.1818216805222011 -0.10246895990201663 -0.5970993410066123 119 104 73
-0.1814535285743966 -0.10138699821583051 -0.5996585988855875 123 109 73
-0.18134264555331614 -0.10083727563567559 -0.601847684970267 114 99 59
-0.18123470107159156 -0.10029285557780003 -0.6040374642388326 117 100 62
-0.18113145828847454 -0.09975740109201947 -0.6062253020804536 107 88 52
-0.18084364883166704 -0.09883804644985743 -0.6086918051910146 102 83 50
-0.18088770573358848 -0.09860674774034288 -0.6106713657498277 96 79 47
-0.18081632207890222 -0.09813508271302288 -0.6128268003905382 95 79 48
-0.18062397875114256 -0.09741130932726957 -0.6151681035435996 103 89 56
-0.18117535346689295 -0.09823270342580828 -0.6163977420255957 101 87 54
-0.18180073757368892 -0.0992082444774925 -0.617514328090111 113 98 65
-0.18186219394335743 -0.09901090840419166 -0.6194817370742363 122 106 73
-0.1819734176216226 -0.09891661059991132 -0.6213770349800095 111 96 66
-0.18194661035549553 -0.09853446500875544 -0.6234854400858362 97 84 57
-0.18171018680524958 -0.0977150423643598 -0.6259183999793477 82 72 44
-0.1815582733495159 -0.09707068934941136 -0.6282282749401029 80 70 45
-0.18115221451114102 -0.09589570569683241 -0.6309345785822033 68 58 35
-0.18108700760081684 -0.09543017728193146 -0.6331232075798654 64 53 34
-0.18072869007949938 -0.09435246371797039 -0.6357703055946278 55 44 27
-0.18055311402773275 -0.09365487278929613 -0.6381413742359492 50 39 23
-0.18048212329691343 -0.09317468053160302 -0.6403554209623105 49 38 22
-0.17969965914067307 -0.09120786609281707 -0.6436864534638314 47 35 20
-0.17915029799402343 -0.08972613814698102 -0.6466640792388997 47 37 24
-0.17880965658819953 -0.08867909318157735 -0.6493231243043742 40 31 20
-0.1777945365185098 -0.08622061045332653 -0.6530544817870784 35 26 16
-0.17680238594615186 -0.08380786187981003 -0.6567641005903888 33 24 15
-0.17620782700394183 -0.08222477663081086 -0.6598565076616815 33 24 16
-0.175403127032575 -0.08020016983546728 -0.6632942388188597 37 28 23
-0.17422959068072624 -0.07740120203465041 -0.6673343332364368 38 30 27
-0.1735632598031146 -0.07566218326504312 -0.6705772204578379 25 19 16
-0.17333965420659112 -0.07484921766194787 -0.6731188391930498 19 14 11
-0.17291227289823718 -0.07360797576273966 -0.6759961376046405 31 25 22
-0.17265929950640788 -0.07273113841138433 -0.6785997516809901 32 25 22
-0.1725848150439202 -0.07222769448910307 -0.6809203496795094 27 21 18
-0.17253081300567474 -0.07176642585368088 -0.68321273635357 21 16 15
-0.17249084439257573 -0.0713338389991724 -0.6854871525583245 15 12 11
-0.17239597302029605 -0.07078515517211909 -0.6878564933395835 10 9 7
-0.17178717220634404 -0.06915559764876933 -0.6910771562547874 11 10 8
-0.17230735093857663 -0.06989779705189872 -0.6924445411042625 14 12 10
-0.17239700144035908 -0.06973469107423619 -0.6945240642690921 20 16 13
-0.1724569406198398 -0.06950851470256492 -0.6966564969905296 21 17 14
-0.17240813601905514 -0.0690528427650125 -0.6989740715367192 22 17 13
-0.1728982655898736 -0.0697311872079397 -0.7003953946641281 21 16 10
-0.1734127285270273 -0.07046089827853984 -0.7017752073334815 29 24 16
-0.17360688116533535 -0.07051575763624934 -0.7036931476305114 44 38 30
-0.17430201682006383 -0.07162638917123375 -0.7047677362424971 45 39 29
-0.17555769683995004 -0.07391967689055602 -0.7048900636456987 51 48 37
-0.17624727520473615 -0.07501996929200588 -0.7059653126587134 38 34 23
-0.1770225441875969 -0.07630157983779222 -0.7068916624044643 28 25 13
-0.17808326343976477 -0.07818653399674763 -0.7073261749942268 36 32 21
-0.17954718506532094 -0.08092430408335485 -0.707062255114604 41 35 25
-0.18026741561487825 -0.0820922292328366 -0.7080666669314123 40 33 23
-0.18114964711334286 -0.08360315419336185 -0.7087882374490087 44 37 27
-0.18272573103865378 -0.08658235267354143 -0.7083034611587258 50 43 35
-0.1834614031983414 -0.08778535662643831 -0.7092658037777403 53 45 36
-0.18460021605091492 -0.08984223082389434 -0.7095223142111421 54 46 33
-0.1860158095100712 -0.09248644383732164 -0.7092872270904221 66 59 42
-0.18712002454330953 -0.09447274594905543 -0.709587157229895 79 72 52
-0.18830785242342246 -0.09663743514648596 -0.7097325138043438 106 96 74
-0.1894614093973863 -0.09873080053947182 -0.7099298675241718 112 100 77
-0.19033972958823295 -0.10024166220738485 -0.7106061989482569 106 93 67
-0.19109570862232733 -0.10149373388766865 -0.7114946124062346 105 89 57
-0.19194704883118918 -0.10294882947782523 -0.712209445772508 151 132 96
-0.1926861874466919 -0.10416641182047476 -0.7131198713099068 145 125 92
-0.19355604320615105 -0.10566227370860747 -0.7137924695030998 126 104 66
-0.19442396071916196 -0.1071548158828329 -0.7144634839360955 148 126 84
-0.19538336507387338 -0.10884268317894624 -0.714964487894143 156 137 98
-0.19577741192172926 -0.10932890905309357 -0.7164818770648674 105 89 60
-0.196230594921348 -0.10994094602397855 -0.717892192977115 81 67 35
-0.1962925217598896 -0.10972009954205453 -0.7200140498937632 115 97 59
-0.1964376582644527 -0.10967585181316782 -0.7219879592116033 130 107 65
-0.19730602789071425 -0.11117212107642091 -0.7226406350120971 143 121 79
-0.19689653473517504 -0.10994531983905922 -0.7256351722678455 138 119 80
-0.19718368792945476 -0.11020263768725651 -0.727355569387512 116 100 66
-0.19681501535557766 -0.10906060503952734 -0.7302893520983932 108 92 60
-0.19672777376985429 -0.10851782070243401 -0.7327103448050527 129 112 77
-0.19653295946911886 -0.10774444868431735 -0.7353370636792874 133 115 82
-0.1962797632607934 -0.10684527084679481 -0.7380796234690224 105 92 61
-0.19450204935386797 -0.10268703244174268 -0.7436818343114183 103 89 58
-0.19347725040269348 -0.10013446806933408 -0.7478963373340478 88 73 46
-0.19277669812738712 -0.09827278233844143 -0.751517101336717 80 68 44
-0.19181742719834652 -0.09585548454588574 -0.7556392078836464 92 80 55
-0.1906070034578316 -0.09289805791796621 -0.7602528417470066 91 79 52
-0.1896257081135443 -0.0904283353087562 -0.7644501058595227 87 73 45
-0.18910069317605238 -0.08893359093141669 -0.7677942916811602 86 71 41
-0.1881650080913006 -0.08655690031489204 -0.7719343352601308 89 74 42
-0.18749531437761813 -0.08474806373569235 -0.7755803367025148 108 94 60
-0.18760633625331152 -0.0846119801607485 -0.7777380277041275 88 74 47
-0.18835971589851502 -0.08585387095570299 -0.7786606139620921 70 55 33
-0.18901447584710054 -0.08688462009043482 -0.7797701901588278 57 42 19
-0.1895127303239518 -0.08757962045698228 -0.78118079161827 55 40 19
-0.189760768940628 -0.08773706674781762 -0.7830775401923603 56 41 20
-0.18974951996385553 -0.08733675979284941 -0.7854825586866401 64 48 26
-0.1902817550538666 -0.08810451961742255 -0.7868286795730449 66 51 27
-0.19095961680004592 -0.08918580939661783 -0.7878876077290711 71 57 30
-0.19149952637889064 -0.08997060705243848 -0.7892153314329164 73 58 30
-0.19203916092472725 -0.0907550188134274 -0.7905422908101335 80 66 36
-0.1926631166500816 -0.09172130480486196 -0.791700848000244 90 75 43
-0.19326222560920472 -0.09263440158847566 -0.7929064724817427 106 90 57
-0.1937607006287715 -0.09333081592592607 -0.7943106887101025 98 81 49
-0.19439968936190274 -0.09433049169042984 -0.7954331102430647 99 82 52
-0.19511541350769174 -0.09549617903044198 -0.7963991163198512 97 80 50
-0.1956862804137323 -0.09634963556315419 -0.7976530620744364 112 95 64
-0.19628046318128872 -0.09725372851607961 -0.7988582508289386 98 81 51
-0.19694164426526817 -0.09830292757745183 -0.7999258579562009 95 80 51
-0.19780460952256762 -0.09978884016104507 -0.8005810897251723 76 62 35
-0.19842106504507784 -0.10074238185585739 -0.8017328746583885 63 50 26
-0.19903707326288184 -0.10169531811966738 -0.8028832760137332 64 50 26
-0.19963474503400236 -0.10260892005595532 -0.8040689297294499 74 59 34
-0.2000954423343011 -0.10322617828992695 -0.8055338471259821 76 62 36
-0.2005576928375766 -0.1038468674175767 -0.8069951508862716 75 61 34
-0.20095016610668281 -0.10431636002483724 -0.8086001976173932 73 57 31
-0.20181892644212196 -0.10581875638888572 -0.8092186121898622 77 60 35
-0.20235131679249482 -0.10659216624892662 -0.810530747061517 81 65 37
-0.20255660590849356 -0.10665572990734173 -0.8125234871900209 87 68 39
-0.20190493727186481 -0.10485779108677075 -0.8163107724739792 89 69 41
-0.20218361121186387 -0.10507909584033084 -0.8181604003606612 90 71 41
-0.2027864066093504 -0.1060046438955086 -0.8193301517604893 117 101 67
-0.2032762736441802 -0.10668495501696275 -0.8207359508618559 117 101 71
-0.20393357952443822 -0.10772967592228798 -0.8217867120436014 94 79 54
-0.20511496298455928 -0.10991557312652046 -0.8217224997361051 108 91 67
-0.205456811549398 -0.11027477458105432 -0.8234356058998241 105 87 62
-0.20588505967995196 -0.11082203925361969 -0.8249653496398326 84 66 43
-0.20623860461277532 -0.11120648398799336 -0.8266550005642848 74 56 35
-0.2066737250025451 -0.11176866664610287 -0.8281704170971602 64 46 26
-0.20701903301508542 -0.11213493196402775 -0.8298791352263465 58 41 19
-0.20728878027315145 -0.11233611618387375 -0.8317520802603179 79 60 29
-0.2076292731518359 -0.1126914657809835 -0.8334737719946219 115 93 55
-0.2080564200910074 -0.11323594639289573 -0.8350083055557714 130 107 68
-0.20809613465120091 -0.11293365243841048 -0.8373870107603241 134 113 73
-0.20846887202618214 -0.1133587701730126 -0.8390429161154939 131 114 77
-0.20903350627840456 -0.1142035759856149 -0.840278944098679 111 101 67
-0.20894659085478542 -0.11362265261015057 -0.8429453854879367 87 75 45
-0.20903139581545788 -0.11341669338099986 -0.8452398784693573 84 71 39
-0.2089466111144468 -0.1128385207170679 -0.8479137546836739 106 93 58
-0.20888311329405787 -0.11230595596223264 -0.8505470580419603 95 81 46
-0.2091292376725653 -0.11245129760001357 -0.8524981629555813 94 80 46
-0.21104137383682658 -0.11625105660989368 -0.8507357604545398 101 85 50
-0.21184659098958103 -0.11762443318819771 -0.8514301534388885 107 93 57
-0.2122847608772615 -0.11819262622977453 -0.8529430730103208 90 80 54
-0.21144252709778324 -0.11594801940089838 -0.8573367158263582 64 58 42
-0.21160674884663966 -0.11591283412770902 -0.8594759080039923 55 49 36
-0.21244449789527137 -0.11735811528166885 -0.8600943320790981 66 63 49
-0.09446904700085793 0.007971475071885656 -0.25683967269058317 154 147 138
-0.09537382001874616 0.006483787170604806 -0.2579925906840551 135 125 115
-0.09624724039782453 0.005056139693059181 -0.25915880301105754 138 129 120
-0.09691014830562754 0.004034793304030296 -0.2604341560322669 131 123 109
-0.09758834077887207 0.00298362268843011 -0.2616995514443949 122 111 97
-0.10079939918707286 -0.002965062961347187 -0.261595702622403 145 135 118
-0.10106065757696342 -0.0032118057775127468 -0.26307550973304156 147 136 118
-0.10273738770912877 -0.006196665595914391 -0.263782722897693 140 128 107
-0.10454367266651587 -0.009433568555100691 -0.26441025420025865 143 133 111
-0.10605526166828298 -0.01210155609429063 -0.2651914206683287 151 139 117
-0.10743033476453763 -0.014506417626624302 -0.26604112169366956 140 125 101
-0.10848066660180887 -0.01628341850719215 -0.26706603227096265 134 121 93
-0.10941302883654602 -0.017832594266246247 -0.26815296418200363 137 123 97
-0.11021516947801602 -0.019130018830163853 -0.26931001981928354 110 99 77
-0.11076089016134967 -0.019930887547207572 -0.2706103714704169 64 57 39
-0.11054796784671524 -0.019261112628891852 -0.2723443107597996 37 30 16
-0.11081643998339288 -0.01952425501014337 -0.2738048424727399 40 31 21
-0.11138265429668226 -0.02036483273960013 -0.2750935960082038 43 32 23
-0.11162105493290182 -0.02056953165215028 -0.2765722510523042 46 34 22
-0.11248938667821141 -0.02199668803119542 -0.27768257454503237 59 50 34
-0.11151661135473995 -0.019850018189131277 -0.27987529254664656 90 79 61
-0.11217421206893537 -0.0208679905707495 -0.28111030794265573 130 118 94
-0.11451673421914751 -0.02515918142762058 -0.2813386379688975 213 205 175
-0.11545441554627692 -0.02672284175097422 -0.28239635082594133 238 231 198
-0.1163445075055217 -0.02819460346506943 -0.283479040185689 216 200 166
-0.11714242996458624 -0.029487722841022745 -0.2846142192879217 206 192 156
-0.11815126225128472 -0.031191431390263567 -0.2856179640416409 187 173 138
-0.11805037199950122 -0.03073720573119293 -0.28729807940295504 143 128 99
-0.11883930680778576 -0.03201380554006643 -0.288432729845833 127 112 88
-0.11905126753574112 -0.03216789982553733 -0.289922421093841 99 86 63
-0.11941720685639798 -0.03262157311849885 -0.29131728011068186 94 80 55
-0.11981556680464402 -0.03313836030975198 -0.2926919417700963 74 60 34
-0.12014419792067589 -0.033519337579861086 -0.2941104656535205 79 64 43
-0.12077062757492843 -0.034480497761153556 -0.29534062952454593 78 65 49
-0.12105646988268355 -0.03477812006585909 -0.29678616821055886 124 112 95
-0.12159483589593549 -0.03556793948932259 -0.2980706008645582 140 129 109
-0.12198575428448924 -0.03607039144925909 -0.2994489487194529 114 101 83
-0.1223278649374793 -0.03647764401201116 -0.3008588593384353 79 62 46
-0.12318803599197906 -0.037895685086904524 -0.3019317917229814 56 38 19
-0.12339819268513758 -0.0380455895276426 -0.30342685915158746 72 58 32
-0.12375761500926946 -0.03848671231626846 -0.30482492334531497 71 56 32
-0.12408647522307559 -0.03886812424545612 -0.3062433755783311 53 37 14
-0.12471179992487262 -0.039828589849608645 -0.3074650917165439 91 75 52
-0.12552860466902416 -0.041163467602698546 -0.30855714439974 157 142 118
-0.12576288929601134 -0.04136028117600837 -0.31003756459691273 106 95 73
-0.12599741890872912 -0.04155740694934734 -0.31151886542462376 67 56 38
-0.12629838593551282 -0.04188429301367461 -0.31295610983895045 54 43 27
-0.12649227651615952 -0.042001623970185614 -0.3144670058709278 47 37 24
-0.12660769125126445 -0.04196518394840627 -0.3160330662975611 47 38 24
-0.1268606218828251 -0.04219760384532185 -0.3175062126982991 65 57 40
-0.12704862883740936 -0.042302763321435455 -0.31902527614247367 105 97 78
-0.1273571192328555 -0.042643660753083866 -0.3204618139428132 95 83 66
-0.12787782198077627 -0.043400196511774555 -0.321750339193718 75 67 52
-0.12875454177477436 -0.044854524831057674 -0.3227874224214786 43 38 28
-0.12942349919743154 -0.04590216794010824 -0.32396792528355095 25 22 16
-0.12969994695845669 -0.04618054020237944 -0.3254253478056746 23 18 15
-0.1296868629335616 -0.04589094116819388 -0.3270903279260607 20 15 12
-0.12942674130344078 -0.045116243311813506 -0.3289354631453426 29 24 20
-0.1298891040939978 -0.04575861797786131 -0.33026403080512157 49 45 37
-0.13002416455443347 -0.04575859448930115 -0.3318293203530711 41 34 26
-0.1301373800446148 -0.04571539174540725 -0.33341231629207335 46 38 25
-0.13044361233755514 -0.046050985538973244 -0.33485595495896486 95 85 68
-0.13126223067323955 -0.04739316917159295 -0.33592319587156555 126 118 99
-0.13253278157239787 -0.04962401786753251 -0.3366531979046156 103 94 77
-0.13262617961939155 -0.049541789434099565 -0.3382513415558099 43 34 24
-0.13321681133389576 -0.05043699454216205 -0.33948038714107454 32 23 17
-0.13420757793221103 -0.05211950040159765 -0.34040777920031196 23 15 9
-0.13424244294971988 -0.051921901566444766 -0.34205131363557734 24 17 11
-0.13437168540793243 -0.05190964751986028 -0.3436259016582562 36 29 22
-0.13452791717207194 -0.05195023232057457 -0.34518180527750836 28 21 14
-0.13474972811085995 -0.05211969776528564 -0.34668922468436414 28 20 15
-0.13483454971567832 -0.052019119143157266 -0.34830308811621974 35 26 20
-0.1348717493097224 -0.051824352693059836 -0.3499559096361219 36 27 19
-0.13472098493510043 -0.05125869157220579 -0.35175707595490896 36 27 17
-0.13470031113219538 -0.0509488958586506 -0.3534607924812517 41 33 21
-0.1346362527387367 -0.05055305940720011 -0.3552014669915623 43 35 24
-0.13444581539877798 -0.049907371849604185 -0.3570448766474488 43 35 24
-0.13422419571150965 -0.04919947055501641 -0.3589171868639535 47 39 29
-0.1340672397689523 -0.04861849843393455 -0.3607426456793747 56 48 38
-0.13406670071794344 -0.04834574244951932 -0.36244734919156935 54 44 34
-0.13352363761924585 -0.04700094716440716 -0.36458975046546055 45 35 25
-0.13280305334807563 -0.04530430900843281 -0.3668820038355104 46 37 28
-0.13189920139272648 -0.04324415232281672 -0.36933075545586763 42 33 23
-0.13168751177049062 -0.04255083203780645 -0.3712266756878593 56 46 35
-0.1314993177018331 -0.04190325824017139 -0.37310791344636224 56 46 33
-0.13198236009171088 -0.04258279614304758 -0.3744430072904312 58 50 36
-0.13219954152765828 -0.04273637251241562 -0.37599644728004933 67 55 44
-0.13209374534776408 -0.04225045758532111 -0.3778184917096522 43 31 22
-0.13275205107225602 -0.04327682047028592 -0.3790090449358506 45 36 28
-0.13292238182963795 -0.043337049260614595 -0.3806051108292693 28 20 14
-0.1331234777384807 -0.043457961188025515 -0.3821770426901412 25 15 12
-0.13320678151608345 -0.043345209150128496 -0.38384967854244734 28 19 15
-0.13263521745401152 -0.041933911051177886 -0.38607895810093157 28 20 15
-0.132292773499029 -0.04097578092132798 -0.3881207430421938 28 19 14
-0.13223465668203246 -0.04058073764133045 -0.38992529582522334 34 23 16
-0.13253314226828675 -0.039485000288819995 -0.4002576504659346 47 32 24
-0.13266836340827637 -0.039470803931704664 -0.40191370595164116 56 40 31
-0.13280378382031582 -0.03945668313639673 -0.4035715967068194 53 37 26
-0.13318695389867075 -0.03993502603318807 -0.4050113855191547 57 41 30
-0.13349069493602295 -0.04025531505790124 -0.40652215850132756 61 45 34
-0.13313300871119474 -0.039259066298753136 -0.40862642052069104 62 46 34
-0.1329554211593629 -0.03862044242963857 -0.4105744301068653 52 38 26
-0.13309457366165112 -0.03861189822071725 -0.412240589080984 60 45 33
-0.13301686545602298 -0.038171017701263514 -0.4141056368531868 59 42 31
-0.13361736441853841 -0.039081044855960353 -0.41535605251861824 60 44 31
-0.1333225930187321 -0.03820671374941209 -0.4174246322465072 64 49 35
-0.13424139581467845 -0.03975138209066607 -0.4183827054356972 64 50 35
-0.1339748222321255 -0.038932321822642106 -0.420431350087648 70 56 41
-0.1338713828797403 -0.03843792250725601 -0.42233392758360433 65 50 37
-0.13378686462192796 -0.037980657403900296 -0.42422283497633456 69 54 42
-0.13358669363503997 -0.03729188387979089 -0.4262237173768492 62 46 34
-0.13345938701257265 -0.036747875108238334 -0.42816090144921937 63 47 35
-0.13341856631601592 -0.0363759792849407 -0.4300206896420278 56 41 29
-0.13325991077186128 -0.03576804608738593 -0.43199557478621853 69 54 41
-0.13352607123699298 -0.03600862048812824 -0.4335708827645052 62 48 37
-0.13370304326970717 -0.03607067682422685 -0.4352324469122141 58 45 36
-0.13323836304820832 -0.03484895927610489 -0.4375111397321002 51 39 30
-0.13363538920009693 -0.035350346952023756 -0.4389669432002099 43 34 26
-0.13382779586955507 -0.0354421690240207 -0.4406206557352249 44 36 29
-0.13364392256477653 -0.034780336650622995 -0.44264140601203034 39 33 27
-0.13355677455774184 -0.034311479026878644 -0.4445725565114451 35 29 24
-0.13851904634788315 -0.03801461786247408 -0.47884848689633147 35 30 23
-0.13938710688247247 -0.039462870201878206 -0.4798233362294223 34 27 24
-0.1401476698042577 -0.04069482300334036 -0.480909263131815 51 44 41
-0.14064088993225776 -0.04138761642118283 -0.48227915173447405 56 47 42
-0.14184805820018276 -0.04352210219031204 -0.4828791146104186 63 52 48
-0.14301354284795667 -0.04557346407692048 -0.483517450170711 47 36 32
-0.14376631416900196 -0.04679195559948145 -0.4845975246836177 39 30 24
-0.14440314031000842 -0.0477765681290936 -0.4858010553313032 31 23 17
-0.14481073765592567 -0.048298027466137594 -0.4872534566193654 38 33 29
-0.14536067251084203 -0.049107370411185625 -0.4885494866719448 50 45 39
-0.14598790877861068 -0.050073304541716004 -0.48975905180495877 71 66 57
-0.14787633424982047 -0.05359201794589223 -0.4895707175223894 72 65 55
-0.14884223345445904 -0.055245045735563145 -0.49039484562625724 71 62 53
-0.1497754719050229 -0.05683269141147802 -0.4912506165086985 82 73 65
-0.15063531022722404 -0.05827235654670064 -0.49218404911534114 88 79 72
-0.15141103655952476 -0.059542184776254295 -0.49320811064011477 81 71 62
-0.15215964469011262 -0.06075754716209758 -0.4942595687272794 73 63 54
-0.15266163293228535 -0.061473251885071384 -0.49558734765121487 69 59 50
-0.15330524165836595 -0.06247639026250029 -0.49675326860533253 53 44 34
-0.15385422788638725 -0.06328784223044018 -0.498025076007461 53 43 33
-0.1546511931390671 -0.06460289583359669 -0.4990115730190901 55 46 37
-0.1556136662787762 -0.06625459008603668 -0.49980436336446343 57 47 40
-0.1562235913545728 -0.06719090010561368 -0.5009991453440544 60 51 43
-0.15640645283974586 -0.06725967684152653 -0.5026868032675313 55 48 40
-0.15723582687953697 -0.06864236017028102 -0.503624638719037 46 41 36
-0.15785710530011518 -0.06960248568366806 -0.5048015980347351 37 33 28
-0.15825860100531172 -0.0701158482449481 -0.5062340803767544 31 27 22
-0.15902878029266512 -0.0713794281016493 -0.5072330551581067 27 23 19
-0.15972549149233864 -0.07249397754734091 -0.5083154897718092 32 28 23
-0.15963608878346172 -0.07200822575453855 -0.5103264859069198 34 32 28
-0.1600782049023884 -0.07260446326225087 -0.511709836175988 24 22 18
-0.1604976660896747 -0.07315459847734318 -0.5131198423325929 23 21 17
-0.16190806910514427 -0.07572464152170463 -0.5133428080230725 24 23 18
-0.16256849713931076 -0.07676687362427892 -0.5144584107327896 27 27 21
-0.16224954034308178 -0.07581177450537302 -0.516753362582597 33 29 23
-0.16350380138225756 -0.07806574615756867 -0.517149544054751 63 55 48
-0.16459485172708005 -0.07998778843639592 -0.5177365001049391 77 68 62
-0.16546419817208233 -0.08145812212694722 -0.5185877387252215 75 66 59
-0.16634739346890687 -0.08295741369366127 -0.5194178164958838 77 67 57
-0.16690852596805705 -0.08379932851711774 -0.5206392922962867 92 82 68
-0.1670682016514842 -0.08382089832267443 -0.522354383340506 99 87 69
-0.1680920248851101 -0.08560907009596011 -0.5230020270860287 105 93 73
-0.1696008277908695 -0.08839013364576817 -0.5230416010914508 112 97 76
-0.17023399265358205 -0.08938110442911212 -0.5241628189700697 117 99 76
-0.17086532879459504 -0.09036867446737237 -0.5252841770629941 127 109 85
-0.17155417573959048 -0.09147434366925096 -0.5263311813134645 110 94 68
-0.1722973292678544 -0.09269167405442703 -0.5273070840679721 86 72 46
-0.173176888144357 -0.09418900725033469 -0.5281073058569613 87 75 51
-0.17374036624971034 -0.0950391556671116 -0.5293043157300695 112 100 76
-0.17399931075661793 -0.095265111509931 -0.5308877015344639 121 109 83
-0.17470981028553378 -0.09641710406581142 -0.531895047555772 94 80 54
-0.17495988670011797 -0.09662480184722246 -0.5334901954676519 93 77 50
-0.17557918890999485 -0.0975901864350705 -0.5346112643040958 120 106 75
-0.1755507389868879 -0.09722581415828202 -0.5365672167781981 157 144 112
-0.1764732806337506 -0.09881427724001735 -0.5372939007783564 193 186 151
-0.17732553166293802 -0.1002590791823372 -0.53810718608669 190 181 142
-0.17818358639087784 -0.10171648589648219 -0.5389086597878465 166 151 117
-0.17888555096461964 -0.10285360607767809 -0.5399103906449629 112 93 62
-0.1789493850650265 -0.10267851097593397 -0.5417484700651977 152 135 101
-0.1796869853484898 -0.10388940670487917 -0.5427003827524004 112 96 67
-0.17982653245807187 -0.10386969915007183 -0.5444411403196234 100 86 59
-0.18031863031824577 -0.10457561840931895 -0.5457156874781277 133 118 90
-0.180840554143888 -0.10534312885842476 -0.5469495208332631 181 166 132
-0.18112541774364124 -0.10562230786056531 -0.5484994093953152 194 180 144
-0.18151753768824497 -0.10612243797282281 -0.5499062459714837 85 71 40
-0.18182018192222665 -0.10643804703652504 -0.5514336652676926 106 95 67
-0.18178054503045687 -0.10604739555101134 -0.5534248228980386 188 178 149
-0.18129542836891893 -0.10473673693889869 -0.5560246005704007 104 91 64
-0.18138662664239966 -0.1046145659585987 -0.5578478048089571 84 68 43
-0.18135845430770747 -0.10424541001244711 -0.5598369812201182 106 90 66
-0.1816826889762742 -0.10460369557886062 -0.5613468981285697 68 53 29
-0.18200430944078205 -0.10495647344114312 -0.5628610693067836 99 86 63
-0.18215334391533988 -0.10495231682642861 -0.5646142224759478 93 81 56
-0.18295721987842656 -0.10630218533619176 -0.5654624161701234 112 97 69
-0.18277416714434305 -0.10561068119312636 -0.5676788013828064 82 67 43
-0.18255732346343878 -0.10484835889507552 -0.5699478315149172 85 71 52
-0.18217975766212524 -0.10375231952846689 -0.5724476888520738 90 77 59
-0.18171302258675487 -0.10247040147499761 -0.5750801962620603 82 71 52
-0.1816202108698903 -0.10196196765419546 -0.5771939676272372 57 46 25
-0.1817138027865479 -0.10183917235696607 -0.5790488267247302 56 44 24
-0.18162309330976156 -0.10133373863550516 -0.581168140711532 104 93 74
-0.18189078404567183 -0.10157101870573064 -0.5827818469209445 118 105 83
-0.1820571941055011 -0.1015979239694689 -0.584541510599996 121 106 82
-0.18220023841207736 -0.1015759659195744 -0.5863369122404063 104 89 65
-0.18245764849332827 -0.10179111857799247 -0.5879702828947617 93 79 53
-0.18245119886046693 -0.1014578864483661 -0.5899858481032 93 79 51
-0.18278476303260288 -0.10183066554644324 -0.5915129641805793 101 88 57
-0.1830363432087674 -0.10203289462467802 -0.5931598425798769 89 75 42
-0.18328271608490976 -0.10222406384095145 -0.5948157529791689 102 86 52
-0.18333349026309254 -0.1020080299950078 -0.5967592896013726 109 90 58
-0.1832958191478128 -0.10160736116271299 -0.5988360645993108 111 93 57
-0.18321068171978883 -0.10110717305927606 -0.6009870451896836 110 96 54
-0.1831042944888197 -0.10056195977296843 -0.6031742084198363 123 108 67
-0.1829933837931374 -0.10000652240059489 -0.6053730855703169 130 115 76
-0.18266250168219825 -0.09899173753324689 -0.6079042396292501 128 112 75
-0.18289799566520876 -0.09915687743391932 -0.6095973577689502 132 115 80
-0.18278613197720855 -0.09859712175012875 -0.6118122792172807 140 121 88
-0.1827187839570074 -0.09812945047324566 -0.6139654392486403 139 123 86
-0.18320911300737372 -0.09882530247698335 -0.6152826387542716 140 126 86
-0.18371219813984874 -0.09954793489166637 -0.61657967275254 131 117 80
-0.18378112098137392 -0.09936362701542908 -0.6185345129383266 124 109 73
-0.18413436113058895 -0.09977303958087806 -0.6200598479183217 111 96 66
-0.18436772233872217 -0.09993171552524735 -0.6217687977502521 107 93 64
-0.1841047399283862 -0.09905190802006025 -0.6242401152698709 88 76 48
-0.18395413257822946 -0.09840617486505943 -0.6265453790361012 82 70 43
-0.18327498237122894 -0.09665313283867319 -0.6296716007884633 92 81 55
-0.18312442778562193 -0.09600529065780408 -0.6319907055624094 73 61 40
-0.1829684060838631 -0.09534509424999814 -0.6343239507922173 64 53 33
-0.18278947630789422 -0.09463597559933108 -0.6366986074295308 62 51 32
-0.1827528555402746 -0.09422426554034755 -0.6388568140067518 58 47 28
-0.18248602568633726 -0.0933289947607669 -0.6413805439938376 47 35 18
-0.18159906238874896 -0.09113145714558173 -0.6448867754723054 54 45 28
-0.1810783296296435 -0.08970052581405712 -0.647828267162808 57 48 32
-0.18082926134968394 -0.08883852127383522 -0.6503491531049737 41 31 20
-0.17990791293676295 -0.08656320060689832 -0.6539448335786777 36 26 17
-0.17919151069309483 -0.0847163779674464 -0.6572276310207342 36 27 18
-0.17840173353771477 -0.08271343700238294 -0.6606394293014677 38 30 22
-0.17714216961183102 -0.0797204829417041 -0.6648173021363025 45 38 32
-0.17634914723286527 -0.07770634244502646 -0.668261745976709 34 26 23
-0.1760504064052945 -0.076730554937457 -0.6709207443112153 22 17 14
-0.17539198238761294 -0.07499621941340569 -0.6741698080008299 22 17 13
-0.17463478496360113 -0.07305202850928952 -0.6775906262748467 31 24 21
-0.17425246016596427 -0.0718958388838568 -0.6804126461785817 30 23 20
-0.17463374361247636 -0.0723480883320058 -0.6819942514512417 25 19 17
-0.17244983768044525 -0.06739038006493253 -0.687784984893627 19 14 13
-0.17270685973257205 -0.06757817382506376 -0.6895854764429142 13 10 9
-0.17303959983385575 -0.06792550002964892 -0.6912627043322352 13 9 8
-0.17324117649797663 -0.06799572179588975 -0.6931581778633082 14 10 9
-0.1734702376315288 -0.068123623253799 -0.6950103394067872 19 15 13
-0.17454939635166447 -0.0700476003677982 -0.6954473530065881 26 22 18
-0.17443363368756398 -0.0694465929773964 -0.6978758560364406 27 23 15
-0.1746684634287639 -0.06958612689925717 -0.6997218984371704 23 19 11
-0.1749887807060325 -0.06990620547103454 -0.7014260845811271 21 17 10
-0.17547438754754607 -0.07057595380722234 -0.7028523046889679 25 22 14
-0.17579174568852038 -0.07088954995940726 -0.7045628620891666 38 34 26
-0.17662502575847816 -0.07229583411342574 -0.7053979185767614 49 45 34
-0.1773145660158375 -0.07339821269361418 -0.706473598737746 57 49 40
-0.17809321795251173 -0.07468996421488487 -0.7073940425500742 38 32 22
-0.17916932735534158 -0.07661319493329537 -0.7078004012784792 33 27 17
-0.181193686009146 -0.08054948454923416 -0.7065679406298867 34 28 18
-0.18206899435234153 -0.08204957095529444 -0.7073016348978235 36 29 19
-0.1829772419289455 -0.08362038906897405 -0.7079733564720079 39 33 23
-0.18459632400855755 -0.0867021041544671 -0.7074049616714275 46 42 33
-0.1851379366840377 -0.08749606099458633 -0.7087010648414971 51 45 39
-0.18619175335764251 -0.08937921653169652 -0.7091004698157588 54 46 36
-0.1872870346464525 -0.09135167430786735 -0.7094202084333924 61 52 37
-0.18833536352049934 -0.09322541040998193 -0.709815104741492 80 71 51
-0.18991707752337222 -0.09623567320473606 -0.709261879269499 94 83 61
-0.190868656344924 -0.0979060568238168 -0.7098111861805034 105 94 71
-0.19158847343904778 -0.09908362309114312 -0.7107660890060674 98 85 59
-0.19230104472948523 -0.10024628303113547 -0.7117305289217762 110 96 63
-0.19302656041019753 -0.10143706932618268 -0.7126685426605339 155 136 98
-0.19391715442198493 -0.10298053843713359 -0.7133072421551968 151 133 94
-0.19482481778650285 -0.10456127932974085 -0.7139099497676484 131 113 76
-0.1957814172490726 -0.10624737262140849 -0.7144188941453763 132 112 75
-0.19674836421705555 -0.1079565347529722 -0.7149030433624872 141 120 87
-0.19744540857736714 -0.10908998919569234 -0.7158707510747992 95 79 51
-0.19818955667726962 -0.110324641451207 -0.7167495223352911 76 63 36
-0.19842098171349393 -0.11046343988021448 -0.7185607230792966 103 86 52
-0.1979739570973321 -0.10915044955072951 -0.7216165551975895 137 115 77
-0.1984723367068306 -0.1098593436329607 -0.7229452375910226 127 105 69
-0.19857888365456688 -0.10972940418597295 -0.7249950394906115 122 104 70
-0.1988319860150625 -0.10991284502478017 -0.726777412975031 100 86 53
-0.19905322314279508 -0.11002770770263501 -0.7286206963432834 121 105 68
-0.19907698122942352 -0.10971884318746546 -0.7308334686246395 152 131 91
-0.19923611202016056 -0.10969961821012371 -0.7327981436965053 149 130 96
-0.1983052255467834 -0.1073410393422826 -0.7368055568155032 116 101 72
-0.19606411358593895 -0.10216740288221864 -0.7432878402558742 107 95 68
-0.19536574023306286 -0.10030202808734436 -0.7468959391118115 84 72 46
-0.19475162892925468 -0.09861563623070493 -0.7503577765512364 76 64 39
-0.19336439280110967 -0.09526558053085758 -0.7552961614100703 94 81 55
-0.19243549103111734 -0.09289775764255268 -0.7593845602902769 90 76 48
-0.19134812384762978 -0.09018653541251347 -0.7637906733198072 83 69 41
-0.19026264763069395 -0.0874765813065019 -0.7682107450132765 83 69 39
-0.1895684126286567 -0.08560620542672903 -0.7718981718912858 87 73 41
-0.18782642842301073 -0.08147684802877286 -0.7776139966326413 103 88 55
-0.1885620532416042 -0.08268262191921591 -0.7785751451234475 92 77 51
-0.189190716453753 -0.08365836602814383 -0.7797397100708962 78 62 42
-0.19103481271458328 -0.08725598039989414 -0.7785427368007622 61 46 25
-0.19166655301703306 -0.0882402480991388 -0.7796894934921128 53 38 19
-0.19226353124620818 -0.08914985569365497 -0.7809017411211702 53 38 18
-0.19136358458753444 -0.08682692358008182 -0.7850440931075469 59 44 23
-0.19172828077604376 -0.08723388189424064 -0.786717580981641 63 49 24
-0.1924631527481434 -0.08844087265408712 -0.7876623719363693 71 57 29
-0.19300042148469576 -0.08922112383194378 -0.7889941087681117 78 64 35
-0.1934755846770871 -0.08986721701194714 -0.7904476877382983 82 67 36
-0.19394816500717654 -0.0905078067519961 -0.7919058574323918 91 75 42
-0.19459695277532363 -0.09153003187106831 -0.7930120677170436 99 83 50
-0.19506135972630725 -0.09215324886448309 -0.7944844967484542 93 77 44
-0.1957233081776185 -0.0932046608567737 -0.7955601349130212 94 77 45
-0.1963909824468827 -0.09426893513777564 -0.7966214435940909 86 69 37
-0.19696066308126076 -0.09512110118619256 -0.7978776749539878 102 84 52
-0.19755250179903935 -0.09602162616071394 -0.7990873372577155 104 84 52
-0.1982170698566954 -0.09708037224342955 -0.8001473271569215 105 87 55
-0.1988086020091349 -0.09798093466140786 -0.8013532019654802 93 78 45
-0.19973327730905466 -0.09960575973109541 -0.8018765193601204 69 54 26
-0.20037989249449456 -0.100627035699386 -0.8029635066213672 67 52 27
-0.20098578762641572 -0.1015601723273272 -0.8041314939006852 82 68 42
-0.2016741512880613 -0.10267311016016846 -0.8051273028006609 80 68 40
-0.20212621772527406 -0.10327214556371073 -0.8066084111876906 72 58 30
-0.20275518942107762 -0.10425652406491079 -0.8077223889614694 74 57 32
-0.20319709300683508 -0.10483368920986298 -0.8092229138738233 64 48 26
-0.20382771186845666 -0.10582227170727491 -0.8103296088280014 69 52 28
-0.20325236554733417 -0.10418114192133776 -0.8139567515624103 82 61 33
-0.20410917074418233 -0.10566285742676466 -0.8145912603584411 92 70 40
-0.2035996981816608 -0.10416297099706412 -0.8180957835357769 92 70 38
-0.2040475541341017 -0.10475193142812954 -0.8195912974341278 97 77 46
-0.20465311225968946 -0.10568549482481962 -0.8207527022851225 91 74 47
-0.20526411235257672 -0.10663130904674047 -0.8219003238645873 81 65 43
-0.2057841246374737 -0.10737850957486968 -0.823239405973267 101 84 60
-0.20671605958317985 -0.10902714206185435 -0.8236975117157163 102 83 58
-0.20705521932116525 -0.10937925992689272 -0.825419076040121 84 67 44
-0.20752542337850782 -0.11001817714712413 -0.826860199824378 85 67 43
-0.2080298629176616 -0.11073218937666236 -0.8282270022090337 80 62 39
-0.20837557360913456 -0.11109843510921702 -0.8299358603437277 69 52 28
-0.20898769934098 -0.11204875198003036 -0.8310682820168068 79 63 32
-0.20929029431520302 -0.11232034481293096 -0.832871236536773 108 89 53
-0.20975181589194059 -0.1129405269777816 -0.8343292654809853 124 101 63
-0.20976701851634552 -0.11258065932988219 -0.8367628268387731 131 110 74
-0.20978626623518476 -0.11222883638578339 -0.8391928015846334 123 107 71
-0.21046788595563598 -0.11333210971415511 -0.84017108235399 107 96 63
-0.21003820703500012 -0.11199206182007819 -0.8435976516424983 86 75 46
-0.21016264129901274 -0.11186936229756612 -0.8458093251485062 84 70 38
-0.21033325345782733 -0.11184767967041738 -0.8479224679542614 112 97 63
-0.21051589991901953 -0.11185196467647578 -0.8500121793516597 103 88 55
-0.2111574663656035 -0.11286684241014669 -0.8510807945242068 90 76 41
-0.21146454523172548 -0.11314486286590637 -0.8528953910814897 105 90 55
-0.21309633422348756 -0.11634402105840068 -0.8517375498352702 98 86 53
-0.21482725184608575 -0.11976440432590059 -0.8503407504130904 84 75 50
-0.21282240215323683 -0.11494119167130751 -0.8573628019078677 62 57 42
-0.21296974532384494 -0.11486588136263162 -0.8595426900736708 53 50 36
-0.21335593700914798 -0.11531771416750179 -0.8611837877857403 69 65 51
-0.21520679586526203 -0.11900717981045097 -0.8594890156967251 101 94 86
-0.09647973477012708 0.00824461469588477 -0.26129629441849633 167 161 150
-0.09750839809400551 0.006512617604448892 -0.2623785344499545 144 132 117
-0.1000004191408367 0.0019406521845244107 -0.2626647238995018 155 140 125
-0.10133715505433445 -0.00039136754418760134 -0.26356608572071755 153 139 121
-0.10323596612026549 -0.003815558866371846 -0.2641533572687968 151 136 114
-0.10539832261347105 -0.007753119403761707 -0.2645854550662487 168 153 127
-0.10696164994140919 -0.010529019240350573 -0.26533790624771514 198 183 153
-0.1083937854433943 -0.013051275482091312 -0.2661557429382463 190 172 141
-0.10937465852741589 -0.014697637509379323 -0.26721980667425543 136 122 94
-0.11027110412197577 -0.01618050741595313 -0.2683275743459821 121 109 82
-0.11138682998176133 -0.01809031915059127 -0.26930748433546675 112 101 78
-0.11118016908005125 -0.017428784739506396 -0.2710375825998736 87 80 60
-0.11141779840282943 -0.0176310240245384 -0.2725164859548259 58 52 38
-0.11167503989454318 -0.01787126990667643 -0.27398506297336694 50 41 31
-0.11193478986365497 -0.018116258310425397 -0.2754530562990325 38 27 18
-0.11258802463082312 -0.019127310532082296 -0.2766919693609126 45 34 21
-0.11307251141345318 -0.01980996904346563 -0.27802827561355337 55 45 27
-0.1140611330239868 -0.021474941153808776 -0.2790659371512729 105 93 71
-0.11496068409413916 -0.022966981197250616 -0.280152493322067 170 156 125
-0.11558540898359701 -0.02392383478694495 -0.2813998906212058 228 218 186
-0.11651976683800547 -0.025484712652515177 -0.2824595154090365 241 236 207
-0.11741788231927923 -0.02697549842700802 -0.28353733882459403 218 204 177
-0.11833753678618046 -0.028508867263221802 -0.2845985890026767 199 184 151
-0.11872124278119592 -0.02899687622609726 -0.28598389449514144 171 156 121
-0.11923495427255071 -0.02973867063874759 -0.2872892795421802 126 111 82
-0.12011642211633188 -0.031198714774888118 -0.2883664282300272 86 71 47
-0.12018067853061994 -0.031063107554481852 -0.2899482039050981 117 102 78
-0.12040762998651519 -0.031245016880709218 -0.29143047633667357 127 112 85
-0.12069093193888251 -0.03153687919446723 -0.2928784153084043 138 122 95
-0.12103636420422756 -0.03195008638024949 -0.29428779054867554 111 95 70
-0.12162360791268712 -0.032836096024608505 -0.2955437981660966 109 95 74
-0.1222103117505895 -0.03372127388245126 -0.2967987582439524 99 86 68
-0.12298276109483344 -0.034970095233983964 -0.29793302777335096 117 102 86
-0.12339700304989158 -0.03551829996699392 -0.29929592114164916 119 105 87
-0.12384265807318437 -0.03612803391734716 -0.30063821562150583 69 53 33
-0.12453144729292928 -0.03721394560555251 -0.30182140346876046 65 49 28
-0.12485227093662911 -0.037579435633221026 -0.30324390903552345 73 58 33
-0.12528897462398494 -0.03817190262910109 -0.30459042027547406 79 63 40
-0.12554640638553338 -0.038413074019472006 -0.30605543906523214 64 48 25
-0.1262278296672222 -0.0394853208884115 -0.3072387185874227 75 59 36
-0.12653862533053165 -0.03983109345109683 -0.30866826896028976 133 118 95
-0.12702839153652096 -0.040527849447193925 -0.30997778188072256 105 94 72
-0.12728006131217567 -0.04075754382790827 -0.31144776485370385 84 73 54
-0.12745037340829482 -0.04082740648622894 -0.31297404946882545 106 94 78
-0.12774215131088296 -0.04113549855076277 -0.31441874211895 55 43 28
-0.12771337498062596 -0.04081396520209434 -0.31608451302054213 57 46 29
-0.12818659889637046 -0.04147810065155682 -0.3174062331535611 102 92 73
-0.12829218250353025 -0.041419928195647736 -0.31898272965548985 110 100 79
-0.12871351170176937 -0.04198205372774137 -0.32034073391516826 125 112 95
-0.12916299883411306 -0.04259958305492323 -0.32167871830162514 94 85 71
-0.12972946812597033 -0.04344725535652236 -0.32293372969878775 47 42 32
-0.1306229555160004 -0.04493847034631031 -0.323955620935716 43 40 34
-0.13085694325293082 -0.045132474013717436 -0.3254437614190141 35 30 27
-0.1310383486930816 -0.0452228006564556 -0.32697062643677555 33 28 25
-0.1310039727593832 -0.04488802002249548 -0.3286542252093118 34 29 26
-0.1309679651730024 -0.04454954235879576 -0.3303420060710307 35 30 23
-0.1315321428668424 -0.04539303611529023 -0.3315965945803962 32 24 16
-0.13153745643038256 -0.04513536474571116 -0.33325808693689496 54 44 31
-0.13189296345059165 -0.04556759406951993 -0.3346652742288836 99 88 70
-0.13311208470934283 -0.04770274469642659 -0.33543567318030515 133 123 104
-0.13432682967849743 -0.0498302332975538 -0.3362032908367371 115 106 89
-0.13414785479729702 -0.04920879804604078 -0.33800299130861305 51 42 30
-0.1350321308397396 -0.05068518282597852 -0.3390109726842506 44 35 28
-0.13533118272698183 -0.05100678657877485 -0.34045546639437335 39 30 24
-0.13555949988164054 -0.051188602884651005 -0.3419540348884255 46 39 33
-0.1356426992271568 -0.05108357069681636 -0.34356393742972846 48 41 33
-0.13583492281255266 -0.051193615179762064 -0.34509284961205605 37 30 22
-0.13594909071935612 -0.051149150305503474 -0.34668301142838936 38 29 24
-0.13607465885093215 -0.051126906564132046 -0.34826637241395997 35 27 19
-0.13605137564486727 -0.050809964833035376 -0.3499668482620117 56 47 36
-0.13595733867514023 -0.05035256431587693 -0.3517253493885383 56 49 34
-0.13595559116257455 -0.05007723082110175 -0.3534152685212201 61 53 37
-0.13576153965122292 -0.049420764839592256 -0.35525901411748734 52 45 28
-0.1356999325199614 -0.049025865727796894 -0.35700258070991303 52 43 28
-0.13562808842094273 -0.048610155992866944 -0.35875757614460185 53 45 31
-0.1355578833361781 -0.04819714608966614 -0.36051466758065964 60 52 38
-0.13532881424066923 -0.04746873365944861 -0.36240222533767924 64 54 43
-0.13483026394820274 -0.04620533154525894 -0.3645109195371381 58 48 38
-0.1339756272547526 -0.0442347048566322 -0.3669136892851493 44 35 26
-0.13315350408534044 -0.04232708166078855 -0.36929936931995777 45 36 27
-0.13291984755882583 -0.04158570523809676 -0.37121464495142 69 59 47
-0.1327177078587067 -0.04090613405504716 -0.37310880157578574 59 49 34
-0.13193217040963287 -0.03906749468002614 -0.3754871179006943 57 46 30
-0.13166632937386968 -0.03825961557842545 -0.37744500262507447 68 55 39
-0.13173704267366415 -0.03811958261517432 -0.37912858024927376 57 44 32
-0.13197746813423186 -0.03831643382056562 -0.3806731294954348 29 18 11
-0.13218223582869817 -0.03844221237021055 -0.3822486958867235 24 14 12
-0.13234494440736214 -0.03848412318510439 -0.3838610711508638 24 15 12
-0.1325848946003117 -0.038679398098385075 -0.3854099403467269 31 20 14
-0.13282299838507663 -0.03887081015387497 -0.3869615498500697 45 32 21
-0.13326445703997564 -0.038900475586997066 -0.39185821658301734 66 49 34
-0.13323775571347318 -0.03856339621424479 -0.3936444221919373 66 49 34
-0.13343973517901866 -0.038681523340593583 -0.39523541901946024 69 51 35
-0.13362012950309646 -0.03818563103434611 -0.40039151543591533 69 51 35
-0.13382226228011626 -0.038302839107627835 -0.4019899848057276 81 63 48
-0.13400365678915652 -0.03837841262325291 -0.4036083522333552 83 66 49
-0.13425585708268686 -0.03859508640637822 -0.4051653090184583 81 64 46
-0.13442669454048284 -0.038649081904649996 -0.4067961874343985 78 61 43
-0.13434271130554043 -0.0381937086872542 -0.4086578096481829 76 60 41
-0.13441024162240975 -0.03804052429471618 -0.4103864335881469 64 49 30
-0.1340940545424118 -0.03711984685550445 -0.4124654310491613 69 54 36
-0.1345625796904103 -0.03776746124961883 -0.4138356797257949 66 49 32
-0.13432008948210983 -0.036992898486610915 -0.4158553978228535 72 55 37
-0.13455808500099925 -0.03717895992957264 -0.41743899265628315 74 58 39
-0.13556173313476483 -0.03889734088646439 -0.4183178901892537 71 53 36
-0.13527648355900912 -0.0380358251110595 -0.420385519639998 85 67 50
-0.1353842406237357 -0.037960578430673714 -0.4220930752858071 85 67 50
-0.1353010572559377 -0.03750241391036763 -0.423981239597128 84 66 50
-0.13515506977624453 -0.03691776789357222 -0.4259321150101615 81 65 49
-0.1350184510874935 -0.03635120841332021 -0.42787848807552353 69 53 38
-0.13482710362484765 -0.035674210206490975 -0.4298808764203862 73 56 41
-0.13491429118208476 -0.03555520732812169 -0.43162344946281667 80 64 47
-0.1347471068656286 -0.03492535858328022 -0.43361110616633036 76 61 44
-0.1341428838265382 -0.03341750229929809 -0.43602182107840665 68 54 40
-0.13375574564965592 -0.03234425134437317 -0.43823181438733855 67 54 42
-0.13361695058637096 -0.03176880700500834 -0.4402083205297819 53 42 33
-0.13341776510908543 -0.03107132316124775 -0.44224772974702253 50 40 32
-0.13400559441453314 -0.03195487958280249 -0.44352571361066095 44 36 29
-0.1337644758060873 -0.031172034888087716 -0.44561265510016945 41 34 27
-0.13926399256843092 -0.035919154916110904 -0.47942538666044865 30 24 18
-0.14012404810536805 -0.037354428511982146 -0.48040993717660824 30 24 21
-0.14050365746298857 -0.03781704934847306 -0.4819057726579752 46 41 37
-0.14160458653984667 -0.039741329618799975 -0.48262552028187916 56 47 42
-0.14262828693669638 -0.04150999747023357 -0.4834228866319957 54 43 40
-0.14366905782064132 -0.04331411593691929 -0.4841965480895528 46 36 34
-0.1443015192192873 -0.04429085846866129 -0.48540946218461967 36 26 24
-0.1447452943847786 -0.044885039373857544 -0.4868267170059592 26 19 17
-0.14519751902625247 -0.04549642287142125 -0.4882343787123725 27 22 19
-0.1460192614120684 -0.046858174575727926 -0.48923459619069487 39 34 30
-0.14718472468603772 -0.048918654489549726 -0.4898511877700096 72 68 60
-0.14812481448375922 -0.050522246936638496 -0.4907114933545377 69 63 54
-0.14942433236952035 -0.052857130513385 -0.49116671236669973 66 58 49
-0.15010493023973376 -0.05393483232712251 -0.492306612535713 68 59 50
-0.1508425769383035 -0.05512894919007849 -0.4933800822532412 76 67 58
-0.15157909635675598 -0.0563212340504131 -0.4944519558243412 84 74 66
-0.15249575994981335 -0.05788062932296395 -0.49531713881775646 90 80 72
-0.1531211633585059 -0.05884773034754552 -0.4965087010269888 92 82 73
-0.1537166873229267 -0.059754285913859076 -0.4977324032756578 85 74 62
-0.15472825024237716 -0.061508744473055654 -0.4984783254745362 70 58 44
-0.15532767854671942 -0.06242408619585489 -0.49969239546115546 55 43 33
-0.15592660387224694 -0.06333867909476153 -0.5009053272475478 37 24 18
-0.15654654571184934 -0.06429641151338099 -0.5020922164467392 37 27 21
-0.15691485325356264 -0.06474107079030793 -0.5035695301699732 40 33 28
-0.15712230917216516 -0.06485740527003193 -0.5052346912405892 28 23 20
-0.15783311904717956 -0.06600110924040876 -0.506312388656297 19 15 13
-0.15817976279536597 -0.06640151653645814 -0.5078152044228208 17 13 13
-0.15868346611690803 -0.06712271999841321 -0.5091332872986184 23 19 20
-0.15921057720485887 -0.06789190775957857 -0.5104227596076867 21 17 17
-0.15931430892684492 -0.06779571366842897 -0.5122140855535462 20 16 14
-0.1598553359690825 -0.06859342014411535 -0.5134865986923776 17 13 11
-0.16037914254993776 -0.06935609602074314 -0.5147784819916489 17 13 11
-0.1612862455533844 -0.07090337955831329 -0.5156088517562204 15 12 10
-0.1620513876381819 -0.07216075561293094 -0.5166058880608185 18 15 15
