ply
format ascii 1.0
element vertex 653
property float x
property float y
property float z
property uchar diffuse_red
property uchar diffuse_green
property uchar diffuse_blue
end_header
-0.014902763187631868 0.0037482256935127967 -0.6595112203072505 70 62 42
-0.014707520938204974 0.0029667158428280938 -0.6611468204019287 79 70 49
-0.01449430306136723 0.002135828404478596 -0.6627504498078526 86 74 51
-0.014432822599966769 0.0017219789944430686 -0.6646221117450385 94 80 57
-0.014197162729997978 0.000829446891501967 -0.6661858132949147 118 103 76
-0.01414407755316012 0.0004384893484915553 -0.6680737758067457 140 124 91
-0.014185743590356542 0.00030757933000660764 -0.6701320893447438 146 128 95
-0.014194115806473173 8.498829324865564e-05 -0.6721330122701248 118 100 73
-0.013971652314590507 -0.0007714393010488374 -0.6737213558721618 100 87 63
-0.014167965860177434 -0.00047859701874305993 -0.6760632249266922 96 84 59
-0.014201004477347304 -0.0006341806685029872 -0.6781140772099749 108 94 66
-0.01420881376627639 -0.000859229425213992 -0.6801213693019339 125 109 83
-0.014337782506710348 -0.0007522605925338044 -0.6823506003227564 114 100 73
-0.015273526888063285 0.0015661733329841443 -0.6860525910062597 96 83 59
-0.016499323199521188 0.004678187963181757 -0.690296077834238 74 63 45
-0.01766986874786164 0.007636983576230133 -0.6944530211433225 68 60 45
-0.01944195150323294 0.012242033645645495 -0.6997293192290933 47 40 29
-0.018990680200387355 0.010754790809749504 -0.700929304773743 34 27 22
-0.01805799493021948 0.007949631568803267 -0.7012367690291883 31 27 23
-0.0179657116942145 0.007446226163874803 -0.7030936218384743 33 29 23
-0.01774345772394667 0.006586979917254071 -0.7047097862965339 46 41 32
-0.01742657488093076 0.005468856422113005 -0.7061490711782881 53 46 36
-0.017324843176562618 0.004939517335760257 -0.7079889536166114 65 57 46
-0.016272215110201563 0.0018093067191396472 -0.7080473349050492 84 77 63
-0.01524388611196796 -0.0012533078909374717 -0.7081420722959934 96 86 70
-0.014370789151816901 -0.0038904320731014685 -0.7085203335496505 105 93 77
-0.013627836991621803 -0.006170936131487004 -0.7091371574937212 104 92 74
-0.01286708147161307 -0.008499337252343503 -0.7097141711214956 111 98 79
-0.014881590894761251 -0.003245495085790334 -0.715560200642285 114 102 80
-0.013933234767548347 -0.006086536315914798 -0.7157818547010459 117 103 84
-0.012629570753623573 -0.009896718160896073 -0.7153160873282777 118 103 84
-0.01215477638183575 -0.01144273968848139 -0.7164270308177235 120 105 85
-0.011277414969694824 -0.014087033096718882 -0.7167609539002173 120 105 83
-0.010400866730139166 -0.016728175618874103 -0.7170889062928361 120 105 82
-0.010928158073122543 -0.015538930603116757 -0.7201226778153624 125 110 87
-0.008372805270133649 -0.02275754205217881 -0.7171892553864199 120 106 83
-0.009090791902924292 -0.02104816994473685 -0.7205920894450731 118 104 80
-0.008399157511292901 -0.023182401107534445 -0.7212572669878903 132 117 91
-0.007400543849889724 -0.026152519128728957 -0.7213169432216406 128 113 84
-0.006356648136326776 -0.029244909619923126 -0.7212789900339249 147 132 101
-0.005624147633871937 -0.031487939716871666 -0.7218435291060041 176 158 123
-0.005093814223813262 -0.03317967926193213 -0.7228003534390799 180 159 121
-0.0051074805677486235 -0.03338987947520006 -0.7248280928086778 158 139 104
-0.004432858115213725 -0.03547375512464371 -0.7254942115440998 146 127 94
-0.0038056972520642274 -0.037427803972202384 -0.7262491614982454 167 145 110
-0.0033027597566549216 -0.03904328706189497 -0.7272466072080532 161 140 103
-0.0024572951425113065 -0.041589951564507815 -0.7275563034887166 148 129 91
-0.002142630024634787 -0.04269236189255604 -0.7289217273633153 155 135 100
-0.0007840170314150352 -0.046632578211778325 -0.7281891677847059 151 132 99
-0.0007600815378534104 -0.04694373483883668 -0.730131165366833 156 135 103
-0.0006217966532263836 -0.04756579295025898 -0.7318438515416411 140 121 88
-0.0006530459511270431 -0.047727348068630354 -0.7339000639611064 144 126 91
-0.0006843200487427759 -0.04788910313163941 -0.735958488301164 145 129 94
-0.0024929370015382007 -0.04322533321348215 -0.7416364723929736 149 130 97
-0.0008413072918279779 -0.04795706195612959 -0.7402745585356881 144 125 92
-0.00014100035524725052 -0.050105068457883484 -0.7408430596512201 150 132 96
-7.986105860519066e-05 -0.050518198489699295 -0.7427170894656449 154 136 99
-2.4292617379170767e-05 -0.050916361749601124 -0.7446037438526206 152 135 99
6.506575515610735e-05 -0.05140630836165716 -0.7464219323113158 141 125 90
3.000413997739093e-05 -0.05155904308258344 -0.7484982823845039 137 120 87
-1.6879017447957168e-05 -0.051680010949046395 -0.7506013667334426 138 118 87
-9.645114881828842e-05 -0.05171269039464607 -0.7527747652865651 131 110 79
-7.958176357993063e-05 -0.05200697485154945 -0.7547498535247972 145 124 92
-0.0001558995353298509 -0.05204907536375106 -0.7569213586659621 151 131 98
-5.0904941128165904e-05 -0.05258245419630311 -0.7587156252678688 153 133 99
0.00030299469071631835 -0.05378971914479075 -0.7599876596323482 157 137 102
0.000380483918791516 -0.054248661537253495 -0.7618398917479515 158 138 102
0.0005952240879417425 -0.055079086868000254 -0.7634032607389915 157 137 100
0.0007737228916372407 -0.055811415770689154 -0.765042858725624 160 140 103
0.0009389559189540847 -0.056507855921203776 -0.7667105085789995 163 143 106
0.0008634988257634896 -0.05655355931622344 -0.7688904998438779 163 143 106
0.0008591304362185193 -0.05679174634614845 -0.7709214833658643 156 136 99
0.000799614518723249 -0.056881145999686855 -0.7730723714249699 153 133 96
0.001044033361591784 -0.05779196660503794 -0.7745738200703746 160 141 100
0.0005964043073958952 -0.056833525141045615 -0.7775627692649243 164 145 103
0.0005353444254396628 -0.05691975232995336 -0.7797250455776992 166 147 105
0.0005393739880742848 -0.0571820068018401 -0.7817491711842951 163 144 102
0.00038121763198330216 -0.05700677297143203 -0.7841266362470012 164 145 103
0.0005121990479710625 -0.057612129707736826 -0.7858794891082892 164 145 103
0.0005651315424274883 -0.05800700448695942 -0.7878027928160567 165 146 104
0.0005976399373672225 -0.058346960398540176 -0.7897720005874623 174 155 113
0.0005431570424361265 -0.05845256862831194 -0.7919332102175839 176 157 112
0.00042632425524291584 -0.05839042813784276 -0.7942337893784306 176 158 112
-3.7577736463775824e-05 -0.057393432438912984 -0.7973013841525255 176 158 112
0.0009188484940451103 -0.06022370462975915 -0.7972423298554796 175 157 113
-0.0003142591137245271 -0.05715575820713251 -0.8020176037922762 174 157 113
-0.00043106854460757404 -0.057095538040122046 -0.8043331518876576 174 157 113
-0.0005026147897890243 -0.05715756199274796 -0.8065512939487821 175 158 114
-0.0005742071659293468 -0.05721979784825612 -0.8087722564222292 174 157 113
-0.000742491269702994 -0.057022216365602174 -0.8112119889608042 170 153 109
-0.000847153516475671 -0.05699624000266107 -0.8135130204963091 169 152 108
-0.00133460477864826 -0.055941267205810996 -0.8166767683065875 171 154 110
-0.0014095045100121217 -0.05599634084543273 -0.8189191626002436 171 154 110
-0.0014631247808787051 -0.056108952073329915 -0.821116307793928 169 152 108
-0.00028487605238071423 -0.05953198931722967 -0.82052878481974 165 148 104
-0.0009565399548162601 -0.057984077046526916 -0.8241259222405264 159 141 101
-0.0015353717704674752 -0.05668665985692581 -0.8275215042076993 149 132 97
-0.0023065487119939554 -0.05487385328433042 -0.8313640452179419 139 123 89
-0.0025462867327103733 -0.054488891412121376 -0.8340028168617155 136 121 88
-0.0028772205784822896 -0.05385977774263734 -0.8368551831141946 133 121 87
-0.003287131379017788 -0.05301948674563725 -0.8398946426156539 135 123 91
-0.0035504020288666532 -0.052573326719358465 -0.8426031199320447 134 120 92
-0.0040160207408931475 -0.05158519324520394 -0.8457835701414543 126 114 90
-0.004696650935101174 -0.05002156721312173 -0.8494687560071992 107 99 78
-0.005340076281844672 -0.04855885580252517 -0.8530773868592569 71 68 53
-0.006060217070221155 -0.04689175077368124 -0.8568737104793266 41 42 32
-0.006779016198291313 -0.0452295026667337 -0.8606771215074395 30 31 23
-0.007586235605953687 -0.04333173450170075 -0.864697338481448 38 38 33
-0.008417262000862027 -0.041371619693278405 -0.8687845560102717 67 66 59
-0.006182360867602335 -0.04761891966121923 -0.8656847155789266 94 93 87
-0.006096709627764055 -0.04811233277466198 -0.8676198799889127 113 113 108
-0.005848809416350756 -0.04903990365867944 -0.8691732587467965 131 130 128
-0.006469559994523699 -0.0476442664593415 -0.8727802846644609 144 144 142
-0.006043040635974495 -0.04904981653454582 -0.8739134939946048 153 153 151
0.06976312645115698 -0.2731844925954737 -0.8676787595850758 213 213 213
0.07047981414672007 -0.2752801745919616 -0.8674311083002876 210 210 210
0.07098596808286636 -0.2768276134478518 -0.8678011224973634 208 208 208
0.07195683170770882 -0.27958228871855495 -0.8667843419594884 211 211 211
0.0725856913673068 -0.2814470561557866 -0.8667765311147453 214 214 214
0.07319339120590165 -0.2832561031144607 -0.8668257935697435 214 214 214
0.011902722158635701 -0.018360625633858207 -0.15693499610746356 179 176 173
0.012246425316982874 -0.019536796334800183 -0.15822215257133804 158 153 140
0.012489504205183456 -0.020421505519144907 -0.1595556892215045 129 123 103
0.012603107542710454 -0.020931413074568424 -0.16095073365290774 128 119 95
0.01296600295829759 -0.022162660228666115 -0.16222492582637618 130 118 90
0.013953419541635398 -0.025200375441800336 -0.16319142802129177 125 111 81
0.014407841775368288 -0.02669557939621421 -0.16441420029092405 130 116 84
0.015107219820993837 -0.02889884916880428 -0.16551240751310337 120 106 73
0.015819599011598504 -0.03113913534753778 -0.1665994853729288 124 109 77
0.015986077031471334 -0.031800699509630895 -0.16795818042822275 126 111 77
0.016160459396616852 -0.03248508202872148 -0.16931261720768706 122 108 81
0.016452468220808328 -0.033509350829147404 -0.17060625329022172 113 100 75
0.016660169094010503 -0.034289868458977774 -0.1719423471591377 129 114 81
0.016999230337119718 -0.03544979135501328 -0.17320921525096816 134 118 81
0.017119128864841925 -0.03597650008949477 -0.1745898890006175 131 115 79
0.017039268887539667 -0.03592636917118451 -0.17607678167787577 127 111 75
0.017269818807920383 -0.03677270078181048 -0.17739939034966246 140 124 85
0.017170305269345074 -0.036666127196896894 -0.17889921959632324 142 125 86
0.01742505700314867 -0.0375822923990756 -0.18020853010983834 140 123 86
0.017154560971943122 -0.03698262309330154 -0.18180446211110068 142 125 89
0.017241816030545747 -0.03741556034514153 -0.18320643581288884 138 120 84
0.017485598548410745 -0.038300082644023556 -0.184521841070897 118 99 66
0.01777355065730245 -0.03931188844103009 -0.18581164390569926 142 120 83
0.01791318402594908 -0.039895842236009116 -0.187183881198991 144 124 83
0.018139360647419653 -0.04072930989291484 -0.18850693259291537 150 131 90
0.018296882987582287 -0.041364784410205566 -0.18986856126497037 141 124 84
0.017777086092661695 -0.040048154823338934 -0.19162060214198315 139 122 83
0.01785506218091288 -0.04045472745363427 -0.19303095220419267 145 127 85
0.018513254373536167 -0.04253298530218753 -0.19410239830830078 146 127 89
0.018298592371079073 -0.04209643641135026 -0.19568376209229635 127 108 74
0.018021741767046455 -0.04148115514356693 -0.19730498637634103 127 108 75
0.017945612448963207 -0.04144427902436077 -0.19880975810499282 132 113 80
0.018093416019540343 -0.04205231812758159 -0.2001815913213666 132 113 79
0.01815231031631457 -0.04240443077480853 -0.2016072277488005 122 103 71
0.01825715521601643 -0.04288886895906144 -0.20300550669195508 125 106 73
0.0183079208959792 -0.043217737926605215 -0.20443729980071182 129 110 74
0.01844700463724922 -0.0438007773772701 -0.20581521400896682 120 101 67
0.018369206677721808 -0.043759997161919105 -0.20732819133280184 121 102 70
0.01827104818991654 -0.043660893197246024 -0.20885576499514794 127 109 77
0.01813661028519967 -0.04345772691911889 -0.21040824179144627 121 105 72
0.01826287055784867 -0.04400428833410384 -0.21179739334474335 122 107 73
0.018170063749036937 -0.043921219616823194 -0.21332677349998647 114 99 67
0.017923482107939516 -0.0433964967641968 -0.2149571224611999 105 90 60
0.017783435937557525 -0.043178275140069396 -0.2165217015872911 95 79 52
0.01802064605007314 -0.04404406556156975 -0.21784257972031343 113 98 71
0.01806316425799315 -0.044350579758542216 -0.2192904537551843 114 100 72
0.018002243356547445 -0.0443601652956577 -0.2208075032638068 112 98 71
0.017946521820439182 -0.044384891730905054 -0.2223228026425199 86 72 45
0.01797487698727253 -0.04465116891163631 -0.2237835009434271 86 74 46
0.01800215214671628 -0.0449144655763922 -0.2252458796190217 100 86 58
0.01794746188846377 -0.04494268744033709 -0.22676477171042442 113 94 67
0.017884391647611523 -0.044947075532847804 -0.22829104077665846 116 98 69
0.017944744644997658 -0.04530570523998798 -0.2297343474527948 99 84 55
0.017813863567107523 -0.04511599038092469 -0.2313103867696885 96 81 54
0.017814382293555087 -0.04530332971711701 -0.23279745169637395 98 83 55
0.01792278871688252 -0.04580010928291774 -0.23421029817501332 112 97 68
0.017837858892014 -0.045742774032179946 -0.23575939738536641 96 81 51
0.01801367631690077 -0.046432907098966233 -0.23712592873593807 86 71 42
0.01809449528871985 -0.04685081546256399 -0.23855978843158715 104 89 61
0.018224674789249627 -0.047410188644464446 -0.2399588150562079 103 87 61
0.01821230935152796 -0.047561309367042184 -0.24146062856097897 100 85 59
0.01814582662408051 -0.04755762580729296 -0.24300297829154924 96 82 54
0.01813388718592972 -0.04771032440506791 -0.2445073481977378 107 93 65
0.01805654594604873 -0.0476759748569275 -0.24606099386727626 103 89 62
0.018244715104341967 -0.04840174092940498 -0.24742067794969394 104 90 64
0.01830593201028612 -0.04876419244022244 -0.24887414646845665 108 94 68
0.018156615652006058 -0.04852441850352166 -0.25048540856649204 103 89 63
0.01843774080689816 -0.049516170108416496 -0.25177611963628305 106 92 66
0.018038803346978247 -0.04856292223874745 -0.2535789641123965 108 93 67
0.01806861289686196 -0.04883616055516101 -0.25506098880312855 109 95 69
0.018098436087539548 -0.04910955867313098 -0.25654396992531947 102 88 61
0.01795882174485543 -0.04889879321490073 -0.25815801326196425 97 83 56
0.017868991054574526 -0.04883059626197342 -0.2597360528619529 98 84 57
0.017743260860201074 -0.048660081396842754 -0.26134397436644047 95 81 54
0.017581173172682766 -0.048385998982775714 -0.2629826046753672 95 81 54
0.017460990258986658 -0.048231927372854366 -0.26459097352392374 98 84 57
0.017169831008072196 -0.04758992080360404 -0.26633660261205133 100 86 59
0.017171619819333152 -0.047784733534018034 -0.26785345098213015 95 81 54
0.017040723995098057 -0.04760096488877774 -0.26947742815166986 98 84 57
0.017063687509106928 -0.04785658528177387 -0.2709803103627635 108 94 67
0.017107515493445406 -0.048171868724590915 -0.27246740048719426 106 92 66
0.017054950624922332 -0.048212274069755964 -0.27403355045725936 107 93 66
0.017257547573010897 -0.048980669170503206 -0.2753932948430251 110 96 69
0.017184495027162548 -0.048962937407479576 -0.27697854103777964 113 99 72
0.017364912560166753 -0.04966811627168711 -0.2783567291915327 103 89 60
0.01734351653421766 -0.04979796876962866 -0.27990183452341105 113 98 67
0.01732210129221621 -0.049927946227111525 -0.2814483942604912 114 99 69
0.017223485265706325 -0.049838121249399875 -0.28306104769041224 108 94 65
0.01736842235887727 -0.05044242834483548 -0.284470783833378 112 98 69
0.016946005257909243 -0.04943068865719678 -0.28636062375331134 112 98 69
0.0169126711876211 -0.04952761554040806 -0.28792446363815855 117 102 71
0.016819724942807437 -0.049455003368613706 -0.28954082708813234 120 105 74
0.0167392412905925 -0.049418128820091625 -0.29114855954452656 116 101 69
0.017001784099157324 -0.05035781926677587 -0.2924619472195058 126 111 80
0.01683541155518853 -0.05007684027147205 -0.2941466877813179 128 113 82
0.016678598698874468 -0.04982340100720976 -0.2958258198008894 129 115 82
0.01666377016600855 -0.04997417286690341 -0.2973830754450959 125 111 77
0.016484742879842324 -0.04965814104009068 -0.29908647051290377 123 109 75
0.016475176517183197 -0.04982431670510988 -0.3006425952710352 125 109 77
0.01612687374413829 -0.04902767524104046 -0.30250166450472843 122 106 79
0.015571019287037535 -0.04764164895898827 -0.3045508018956064 114 101 77
0.015108294484148136 -0.04652105140814168 -0.306522404305795 128 115 91
0.014938314379421756 -0.04623287870961333 -0.30823486408048084 123 110 83
0.012529691228575408 -0.03958582238520508 -0.3119829386626426 139 123 98
0.011457332304817318 -0.03673673711117577 -0.31453435966820825 132 116 91
0.010674314983212498 -0.034710606548665465 -0.3168313041896947 131 117 93
0.009192697062951852 -0.03070218444304465 -0.3197802110225742 141 131 114
0.0078589308311975 -0.02711524312100118 -0.32260673511470955 147 141 132
0.006988008333969717 -0.024843448646950747 -0.32501587727730663 175 172 168
-0.004061001923304837 0.00297690874673065 -0.36359007597073206 102 91 80
-0.004246946685717082 0.0032931931724961144 -0.3654549971413716 103 91 77
-0.004225830824318932 0.0028137189832434517 -0.36879312725643354 99 87 68
-0.004030084293772329 0.0020503794117403273 -0.3702743731049869 97 85 67
-0.003990280844600846 0.0017277058847764148 -0.3719157589597535 96 85 65
-0.0037245574040914928 0.0007666904171335087 -0.3733246180473273 97 86 65
-0.0034685427048767523 -0.00016677756599312032 -0.3747425476524093 89 77 56
-0.003487740759040188 -0.0003229818654366945 -0.3764465878512159 93 82 61
-0.003958140828993921 0.0007944676764332359 -0.37862484858976597 89 78 57
-0.003512218609328814 -0.0006752703445684904 -0.3798447730525917 94 83 63
-0.00349349107484085 -0.0009390902435585935 -0.38151342813564443 102 91 70
-0.003538923557433654 -0.0010220358749509773 -0.3832514111287366 108 96 74
-0.0035559771703497223 -0.0011852657128160193 -0.38496097832080056 111 97 75
-0.002908729588039463 -0.0032222785201822257 -0.3859610888358137 112 98 75
-0.002742703133472281 -0.003901773465028735 -0.38747396516882515 111 97 73
-0.0033505744219735067 -0.0026113884561277945 -0.3915183640136314 113 99 75
-0.0038265075486451014 -0.0014822793967413928 -0.39373412670389263 98 83 61
-0.02657309892471267 0.06012751238029865 -0.43844429195086876 97 83 54
-0.026588014407349495 0.059941724389332346 -0.4402838471964874 99 85 57
-0.026706299064534186 0.06004625626128507 -0.4422438165159777 91 79 51
-0.026637502242257916 0.05962475632514208 -0.4439906564830907 89 77 50
-0.026568287865268395 0.05920197061450344 -0.4457379147472724 91 78 52
-0.02690998091225761 0.05993325227392948 -0.4479638050647851 89 76 50
-0.02693997522021338 0.059788607912841935 -0.44983058029394296 86 74 48
-0.027054107856051585 0.05987996972147949 -0.4517977883679351 84 71 43
-0.027180738805948387 0.0600060889880735 -0.453782316523475 97 83 56
-0.026750136358617047 0.05856797648571785 -0.4551113337062858 96 82 56
-0.026912671732785387 0.0587944829629877 -0.4571413120359586 84 69 46
-0.026895337208484325 0.058516005710345015 -0.45896020851593533 87 72 49
-0.02738278040534811 0.0596531413689779 -0.4613838610733791 91 76 53
-0.02788728303457435 0.06083734957070333 -0.4638341097380922 77 61 40
-0.028203421858858956 0.061492674174399936 -0.4660637351020676 70 58 36
-0.028505451150529375 0.062107883053554164 -0.46828083055271935 71 59 37
-0.027910096797568187 0.06020768625841466 -0.46941285967913615 72 60 38
-0.02665654383244241 0.056463822635505784 -0.4697386856962918 75 63 41
-0.026250561464500048 0.055095497378030045 -0.471091260893879 80 68 44
-0.025983069054428334 0.05411531769735595 -0.4726116733361488 75 63 40
-0.025773050442229585 0.05329618777186765 -0.4742019946112763 73 61 38
-0.02572823504271412 0.05293959355525127 -0.4759963612450216 81 69 45
-0.0261619099574006 0.05392210216195892 -0.47838631062835946 83 71 47
-0.026303762647094636 0.05408729311503305 -0.4804180199911701 79 67 43
-0.02745960883500266 0.057088988381855915 -0.48372192383435986 78 66 43
-0.027054792142452905 0.05572374550509532 -0.4850773895764252 78 66 43
-0.027166463447318788 0.05580316074852393 -0.48708201687058067 79 67 44
-0.02692905074867112 0.054906225815196275 -0.488647363547015 80 68 44
-0.027202189926027957 0.055436545571594636 -0.4908608104306544 80 69 46
-0.026971801440384177 0.05455910412696399 -0.49243621654086916 80 71 48
-0.02746290985787163 0.055697718265048574 -0.49493469207689733 77 67 47
-0.02662708390740505 0.05312866427997187 -0.49573437743213955 82 72 52
-0.026660758114617017 0.052988897590849016 -0.4976491179954397 83 74 55
-0.026806707921789116 0.05316240727944141 -0.4997111170596672 81 73 55
-0.02675082880125393 0.052772080004066274 -0.5015138826926498 81 73 58
-0.026229065736992505 0.051081248794123124 -0.5027101963583576 86 79 63
-0.026199282872625546 0.050763755834322216 -0.5045470342335157 90 84 68
-0.026537890420485717 0.05147390530808421 -0.5068691018442599 90 83 69
-0.02688679979664252 0.05221218503738881 -0.5092095980633762 94 87 74
-0.027435734867398406 0.05350767752328664 -0.5118197098196614 92 84 73
-0.02780354571383377 0.05429730029644744 -0.5141961748612035 89 81 70
-0.02813575757373675 0.05498704420138109 -0.5165303426907983 80 74 64
-0.028470953027751378 0.055684502172021366 -0.5188733128791924 61 55 44
-0.028716530869620976 0.05613164395520662 -0.5211008322895873 52 48 35
-0.028863438196676215 0.056303410719951597 -0.5231994188024836 47 42 34
-0.02925067758436182 0.05714416945913536 -0.5256259713419543 41 35 32
-0.02960420675889825 0.05789038841903965 -0.5280121521270441 29 27 20
-0.02977021292085956 0.05811391361530879 -0.5301480492289112 25 23 17
-0.029248049841407317 0.04422292063458838 -0.6289762064505245 90 83 75
-0.028042969042301497 0.04065716411463208 -0.6290226038233084 99 92 81
-0.02682064968186698 0.0370452797487357 -0.6290306093237431 103 95 81
-0.02603189860992762 0.03462732751056405 -0.6297339618088278 104 95 79
-0.024719550949724278 0.03077023732205217 -0.629575907095847 103 95 77
-0.024038947449586137 0.028651516187126136 -0.6304413286590057 99 90 72
-0.023608983407713488 0.027222392154214792 -0.6317135022314014 96 87 70
-0.023078221316084405 0.025516586829680776 -0.632816896733482 95 87 68
-0.02253760253780976 0.023784155205549273 -0.633900350392388 97 88 70
-0.022071414656726157 0.02225664460680929 -0.6351035102440495 106 96 76
-0.021483767537514062 0.02039595137182934 -0.6361016010608359 107 93 71
-0.021112904732343826 0.019130992512833622 -0.637457226926321 124 107 86
-0.020751233065066363 0.01789151710086606 -0.6388262048426196 125 108 86
-0.020450419660607733 0.016819299896946416 -0.6402954214540341 132 117 92
-0.02013601474264065 0.01570995704513864 -0.641740425097175 115 103 81
-0.019755513481252235 0.0144194908197752 -0.6430723145380334 92 81 62
-0.019431503236148645 0.013284214433723213 -0.6444977757575445 88 77 60
-0.019044983753979436 0.011977747000169847 -0.6458154404274921 85 73 56
-0.018557195780747965 0.010393964061206379 -0.646958279320795 74 62 46
-0.018020633168911476 0.008676920089708329 -0.6480144799711707 77 65 48
-0.017567905001503 0.00719004005770732 -0.6492106858448032 82 69 54
-0.01714530993271221 0.005786063407571901 -0.6504558202125406 88 74 61
-0.016590547787069088 0.0040204607156342775 -0.6514703639867936 89 76 65
-0.016351000812739186 0.003118391395893455 -0.6530263425802153 85 76 62
-0.01605147507978505 0.002052232057394965 -0.6544775204170745 83 74 58
-0.015745404079940545 0.0009683273947474758 -0.6559159713440293 80 72 52
-0.015670974769785795 0.0005183710806353492 -0.6577573885036234 71 64 44
-0.01556789620052236 -1.0074369186985344e-05 -0.6595496306770936 69 63 44
-0.015504843811814259 -0.0004291458830336936 -0.661412849144948 78 70 50
-0.015415491352029229 -0.0009202617029637206 -0.6632308539720915 85 76 52
-0.015337449360191657 -0.0013805655035602493 -0.6650696714543606 95 83 57
-0.0152288685410059 -0.0019244441064396878 -0.6668553414903782 116 101 71
-0.015045325363587353 -0.002673209083962569 -0.6685084628471918 133 117 84
-0.014999187093323083 -0.0030466379517890274 -0.6704062856763857 133 115 86
-0.014711761049339273 -0.0040791436657171 -0.6718741933135534 104 88 63
-0.014989780618162737 -0.0035677281805896466 -0.6743543219241381 94 81 57
-0.015024992729385442 -0.0037196457360282875 -0.676402669445647 95 83 56
-0.015086626331165504 -0.003799729611032837 -0.6785007869864651 112 98 72
-0.014880078646941783 -0.004611775641705479 -0.6801164759357677 120 106 79
-0.01570473872774049 -0.0026110757856121214 -0.6836014962048234 111 96 72
-0.016644745465313193 -0.000297132649988735 -0.6873066479025274 101 88 67
-0.01769188771048559 0.0023074402460462884 -0.6912187797098293 81 72 53
-0.018862088286608958 0.005245830440534449 -0.6953687080235194 67 59 43
-0.019559490342357197 0.006894105677876794 -0.6986655593144676 46 37 29
-0.01911437574624325 0.0054286727453413675 -0.6998701233427889 39 33 26
-0.01917041968058171 0.005328579083779567 -0.701996230036862 39 34 26
-0.018742730665943064 0.003910981180405976 -0.7032299445322651 46 39 31
-0.018881126656175168 0.004034794688124815 -0.7055110834810537 51 44 36
-0.018315027830231673 0.0022407863966861508 -0.7064849356199352 64 57 47
-0.01793616598993733 0.0009567721453673794 -0.7078039484301861 80 73 60
-0.017216505522782075 -0.0012540687693296526 -0.7084832186813289 94 85 70
-0.01626639263092758 -0.004090952708695389 -0.7087243716051521 99 87 72
-0.015513586759036788 -0.006390323214583438 -0.70932852247687 105 93 75
-0.014835999482830639 -0.008484453610546505 -0.7100684491273324 110 97 78
-0.014662971569117111 -0.00920665966878731 -0.7117576211217997 113 100 79
-0.014327089263099849 -0.010371350410171454 -0.7131378062244665 117 102 83
-0.013475475681662852 -0.012936759705607676 -0.7135350601001028 120 105 86
-0.013275590318941669 -0.01373134065948059 -0.7151684863426004 121 106 87
-0.012436009527594119 -0.016262708826193656 -0.7155777870453451 122 107 87
-0.011794451065546621 -0.018255674553789597 -0.7163598825700819 129 114 91
-0.011164128927173417 -0.020217522437748603 -0.7171585901828452 126 111 89
-0.010119449913183615 -0.023302946225550986 -0.717153079720829 122 108 87
-0.010976139954002151 -0.021229888524026824 -0.7208162742560433 120 106 82
-0.010242160708638384 -0.023471707846292267 -0.721404938966937 126 112 87
-0.008683682604231774 -0.027948067328662146 -0.7203838843664484 117 102 75
-0.0074350455199574395 -0.03158277395066969 -0.7199523210584945 122 107 79
-0.006791755322666557 -0.033575697195693865 -0.7206931337097574 159 143 110
-0.006683320051789468 -0.03411901786936783 -0.7224777796356107 181 162 126
-0.0060837019308004475 -0.035992748203953095 -0.7232971833575488 154 136 103
-0.005606531676002502 -0.037534343754946575 -0.7243534161950947 137 119 88
-0.004942748727408533 -0.03958070115347903 -0.7250373735998081 146 127 93
-0.004308600142241645 -0.04154619157343972 -0.7257747659629649 151 131 96
-0.003531614729623961 -0.04389753535466026 -0.7262232041653933 141 121 86
-0.002951042483316055 -0.04571675065754624 -0.7270566045134464 158 138 103
-0.0025337974142440045 -0.04709371020190345 -0.7282120018068752 160 140 106
-0.002482372294364557 -0.04748125973693601 -0.730097840949849 163 143 109
-0.0028077987111528036 -0.04685031951304011 -0.7327422049521961 141 122 89
-0.0033458976410761093 -0.045645324750381494 -0.7358203997735319 134 116 82
-0.0014166284901102472 -0.05110735845822137 -0.7339214747052885 142 126 90
-0.001071219147258981 -0.052288976862634756 -0.7352118918755977 151 133 97
-0.0011381875440868439 -0.05235679336401905 -0.737337959087487 150 132 94
-0.0010412989600425554 -0.05286728618462125 -0.7391328692372982 158 140 101
-0.000993724070426999 -0.053244777580672115 -0.7410292400730976 162 144 104
-0.0007801294306455098 -0.05407040435911453 -0.7425870105770432 157 139 101
-0.0007050886498831122 -0.05452220144849493 -0.744428703167135 151 134 98
-0.000781963895197163 -0.05456441406666934 -0.7465840798666888 150 132 98
-0.0008592708459108922 -0.054605795173659516 -0.74874300842553 148 128 96
-0.00093666409106824 -0.05464727719334492 -0.750904784849331 133 113 81
-0.001109426604357422 -0.05443208177380843 -0.7532670857769361 135 115 81
-0.0013306506634406384 -0.054086784556187484 -0.7557339068276462 143 123 90
-0.0014038904518475642 -0.05414062104882428 -0.7578963606717453 144 124 90
-0.0010075418376859907 -0.05545932415116053 -0.7590795637282116 147 127 92
-0.0007780750276186049 -0.056328439928504365 -0.760610128085344 155 135 98
-0.0006086858438116849 -0.0570357733647292 -0.762266299684031 158 138 101
-0.00029616364889055447 -0.058128248717506575 -0.763620820653837 151 132 94
-0.00018516115170821856 -0.05867841345044822 -0.7653995453699978 156 136 99
-7.854189899042519e-06 -0.05940697827615776 -0.7670384401629473 157 137 100
0.0002234573985769317 -0.06028073547583618 -0.7685625356012137 158 138 101
-0.00017494574164457488 -0.05946169367533771 -0.7714268359666565 155 135 98
-0.00018915722627806109 -0.059675898241485614 -0.7734771725933426 163 144 103
-0.0003544345510238939 -0.059484488095789184 -0.7758528637417543 170 151 109
-0.0005441198472179165 -0.05922797850519945 -0.7782846158755251 174 155 113
-0.0004936608007145987 -0.059616824358787984 -0.780203670387881 174 155 113
-0.0005413138974852683 -0.05974244042992338 -0.78233565810902 169 150 108
-0.0005885967682508347 -0.05986934955282805 -0.7844692413470937 168 149 107
-0.0005688136270050881 -0.0601765115801928 -0.7864598182051183 161 142 100
-0.0005489954015800991 -0.0604839745231211 -0.7884519738901615 164 145 103
-0.0005382222760631217 -0.06076738694710368 -0.7904654970192403 172 153 108
-0.0009001753938823048 -0.060051683832542 -0.7932950692855253 174 156 110
-0.0012254528900379341 -0.05943502608973891 -0.7960502190879477 176 158 112
-0.0010704320901003955 -0.06010614116985111 -0.79775623226676 176 158 114
-0.0013239401627477831 -0.05968280111939972 -0.8003617355505193 176 159 115
-0.0016057679527985147 -0.05918420002433411 -0.8030344578834887 178 161 117
-0.0016302282270751617 -0.059375374604487635 -0.8051427880234978 179 162 118
-0.0016547126819625863 -0.059566756061953496 -0.8072533455550013 179 162 118
-0.0016331366190598107 -0.059881680180680324 -0.8092636551126152 177 160 116
-0.0019219322547129741 -0.05936638905344904 -0.8119675410479155 175 158 114
-0.002273911625609276 -0.058682731858621245 -0.8148177795847124 173 156 112
-0.00259365102197516 -0.058086022085081235 -0.8176016429971554 172 155 111
-0.002767571724020132 -0.05787984286142009 -0.8200634857514605 170 153 109
-0.0025590649566444856 -0.05869628990580769 -0.8216680792533709 168 151 107
-0.0017048623186483036 -0.061238030077489986 -0.8218146902703274 166 149 108
-0.002235076266400085 -0.060080523288985416 -0.8250865224455346 159 142 104
-0.002798591604571826 -0.05883506633694002 -0.8284417992420758 148 132 96
-0.0031792769672978755 -0.05807879316112416 -0.831389558575991 140 125 91
-0.0035118175001289526 -0.05745180947976766 -0.8342337847088266 141 127 93
-0.0039325770624753925 -0.05659012070102895 -0.8372853352814347 141 128 94
-0.004311353429578196 -0.05584127391420421 -0.8402473962947318 140 126 95
-0.004901681918765499 -0.05452896789632464 -0.8437015962784093 135 121 94
-0.005352286768944475 -0.053590304734048244 -0.8468427221539565 126 116 91
-0.005973243562020988 -0.05219841410175191 -0.8503841196372716 100 94 76
-0.006746927532435443 -0.05040062973369602 -0.854287917011335 65 63 50
-0.007417149242420609 -0.04887984445995075 -0.8579624896808181 38 39 29
-0.00821943512982759 -0.04700849332965079 -0.8619537378753888 31 31 24
-0.009049565290673509 -0.04506438490811154 -0.8660210025838525 43 43 34
-0.01031622982699984 -0.04195957813497786 -0.8711197197312993 74 74 67
-0.0074191599282827925 -0.049938428020435355 -0.866482167492145 98 97 92
-0.007086456450513257 -0.05109027403204891 -0.867834708676091 120 119 115
-0.0073814807890876105 -0.050572119132924365 -0.8706629383162879 135 134 132
-0.007290599387758223 -0.05108088088619228 -0.8725860201890302 147 146 144
0.06930482067621797 -0.2763557885316503 -0.8646024941346273 213 213 213
0.06987463164801323 -0.27806248228328845 -0.8647897785319908 212 212 212
0.07044280776373424 -0.2797642836688081 -0.8649765603470975 211 211 211
0.07109725606907337 -0.2816883784482414 -0.8649027119196725 212 212 212
0.07151937283031076 -0.2830114279934362 -0.8655114725469423 214 214 214
0.07206871819348294 -0.2846626445157791 -0.8657386191590205 214 214 214
0.009186647806326179 -0.014947875999080804 -0.15601464146989893 180 177 174
0.010723028168612156 -0.01956002105888744 -0.1567505266301482 167 160 150
0.010970698635003641 -0.020456663676069756 -0.15808239374116542 134 123 107
0.011413229757441459 -0.02191468491140014 -0.1593207572726962 123 112 89
0.011830465609532504 -0.023299519851727367 -0.16056878258475646 128 117 90
0.012503096906140784 -0.02541972581466373 -0.16169105879757048 139 127 95
0.013407936838461485 -0.028208130760629342 -0.1626957601451128 137 121 90
0.013862600596576813 -0.029699495763805577 -0.16391555188121837 138 121 87
0.015155093563008417 -0.03360257274446239 -0.16471739106943373 135 119 84
0.01525934255322253 -0.03408422082361258 -0.16610375364140487 129 113 82
0.015236044129357924 -0.03419883863260975 -0.16755467903703236 116 101 73
0.015605394222700238 -0.03544341611386518 -0.16880744363098332 106 92 68
0.01579029166278533 -0.036157113436414166 -0.17015278790306204 116 102 75
0.015937343075868155 -0.03676190552026852 -0.17151729281076028 143 127 91
0.016177026477694076 -0.03763308075886469 -0.17283352595800588 142 124 83
0.01612499981432336 -0.03766540095400679 -0.1743019301576353 134 116 78
0.01615746940884246 -0.03794082656037216 -0.17572723938080742 134 116 78
0.016462249846481106 -0.0389990516870566 -0.17700835651303357 153 135 95
0.016716863510165762 -0.03991293851911902 -0.17831503810943955 146 127 88
0.01659815407586338 -0.039754070312873986 -0.17982272467753818 133 113 76
0.01607349987222033 -0.03842931888854011 -0.18155382208816778 150 132 95
0.016172701087030898 -0.038897074706512935 -0.18294775611093272 147 131 92
0.016398309183231007 -0.03972786751742147 -0.18427206981457478 147 126 91
0.016321381546497937 -0.03968995381875727 -0.18576433671272274 153 133 93
0.01674635987815625 -0.04109303554074395 -0.18697649347130232 150 131 89
0.016854956137398985 -0.041587778505853566 -0.18836529142637487 152 135 93
0.01667424594906163 -0.04125237429114684 -0.18991923388225826 141 125 84
0.01672796992953441 -0.04158990289028146 -0.19134124224155724 139 125 86
0.0167593927834453 -0.04186355041285554 -0.1927768572576404 143 128 87
0.017513700580994628 -0.044210527624299126 -0.19379234621013067 142 126 88
0.017277619738543908 -0.043716968412665105 -0.1953836608250211 134 116 80
0.017176327141616758 -0.04361023144739225 -0.19689847494284451 121 103 69
0.01696438707238132 -0.04318658789882311 -0.1984811205307504 128 109 76
0.017081878146303294 -0.043707421690832936 -0.19986933841784 119 100 67
0.01717450822536283 -0.04415704332693236 -0.20127273754467162 130 111 78
0.017267175704013746 -0.0446068215213005 -0.2026765054242227 127 108 75
0.017443872142209473 -0.0452973323836871 -0.20402927062386567 132 115 79
0.017592342835588706 -0.04590697216821088 -0.20539910625010768 117 100 66
0.017528515302200398 -0.04590874338149803 -0.20690049167451038 117 98 66
0.01725469032781085 -0.04530956951348344 -0.2085346606881738 123 106 74
0.017552464283435685 -0.04634684866159836 -0.20981311244283432 115 98 68
0.01744357434861392 -0.046220233333188025 -0.21134748743386764 114 99 68
0.017338106137797352 -0.046103671645914786 -0.21288177257828206 120 106 72
0.017089010219537404 -0.04557651153538455 -0.21451018521710197 116 101 68
0.017099170671268954 -0.04579125106248839 -0.21597459885954162 97 82 53
0.017109317469119596 -0.04600608965349421 -0.21744011546450387 107 92 64
0.01716669362019395 -0.04635609462191184 -0.21887585694925785 95 81 54
0.017166126058257784 -0.046540558296952465 -0.22035041511925169 98 83 58
0.017150851288107605 -0.046683139955527614 -0.22183589904767914 97 84 55
0.017169993530946184 -0.04692423025427944 -0.22329976513475552 92 78 48
0.017189154731384743 -0.04716550405826182 -0.22476464319818584 109 95 64
0.017109966175456796 -0.04712598902663454 -0.2262969097575509 107 91 60
0.01727478096985695 -0.0477835298423453 -0.2276653586062978 117 101 69
0.017036596124655884 -0.04729038007473859 -0.22930894580334496 118 102 71
0.016982778574611446 -0.047323951786708035 -0.2308289970875119 108 93 65
0.016935763938487836 -0.047377148660665294 -0.2323459938458956 86 71 43
0.01705464234785154 -0.047903946191959354 -0.2337491281785839 105 89 60
0.017035286947939283 -0.04803637171286172 -0.23524924425202295 118 101 72
0.017302097250146156 -0.04898527621799095 -0.23654912339291173 115 98 70
0.017357790174541 -0.04933193225348917 -0.2379975581513123 121 106 77
0.01739295028064472 -0.04962013072892595 -0.23946135863939438 110 94 67
0.017384279214741616 -0.04978348242988297 -0.24095749997706717 111 96 68
0.01737296081232233 -0.04993944934187697 -0.2424568286523334 107 93 65
0.017385381570166777 -0.050163234139074246 -0.24394022824240755 116 102 73
0.017147348073918604 -0.049673529899044354 -0.24560758427932244 113 100 70
0.01749215119591887 -0.050844616688751815 -0.2468501618197958 107 93 66
0.01747125959389972 -0.05097389214805519 -0.24836112056828427 110 96 70
0.017393888300670672 -0.050942505086515356 -0.24991543027597188 105 92 66
0.017519632125070954 -0.05148965807651181 -0.25131983909318245 108 96 70
0.01756359292831048 -0.05180402205486731 -0.25278584429397516 106 94 68
0.01711126753245393 -0.050706018702903116 -0.2546277973165477 105 91 65
0.017129366780926573 -0.05094727331769411 -0.2561172697084965 103 89 63
0.017137354047996184 -0.0511598935283123 -0.25761553506383766 106 92 66
0.01712643114182214 -0.05131886993517508 -0.2591294890106191 99 85 58
0.0169745253917333 -0.05107706980779687 -0.26075374759624326 95 81 54
0.016897357697645502 -0.05104809723528921 -0.26232244062339677 100 86 59
0.016735741505085156 -0.05077929151068225 -0.2639590387393745 104 90 63
0.016581618116436558 -0.050532113644915194 -0.26559237151731396 108 94 67
0.016427774072684184 -0.050286053070166245 -0.2672280460527196 103 89 62
0.01640995751500508 -0.050426794976177476 -0.2687581858578955 101 87 60
0.016385652904979685 -0.050549281834336234 -0.2702948971919764 100 86 59
0.016196366283797895 -0.05020338769524312 -0.27196559185787933 100 86 60
0.016420362268355543 -0.0510313896348402 -0.2733053626608795 98 84 58
0.016568255878418793 -0.05164324823054978 -0.27470622344270273 101 87 60
0.016340292677825448 -0.05118825270832931 -0.27641387898847075 119 105 76
0.016242409228963046 -0.05110281667905711 -0.27801799806654015 111 97 68
0.016278384947931778 -0.051397449648183866 -0.2795137670240537 122 108 77
0.016171499653192273 -0.0512869328058133 -0.2811289616765639 121 106 77
0.01620365722745388 -0.05157105036818853 -0.2826304000175204 115 101 72
0.016167574355130703 -0.05166178104628602 -0.28419000225793334 108 94 65
0.016220678159686596 -0.05200556601641835 -0.285676025740931 102 88 59
0.0159675424285729 -0.05148138692109838 -0.2874221927042674 107 92 62
0.015893205193774476 -0.05146436706895974 -0.2890196185692955 117 102 73
0.015751865994389894 -0.051257738753527106 -0.29067628124188166 110 95 65
0.015815641530714557 -0.05163250129643254 -0.29215903079156025 112 97 69
0.015769659026613477 -0.0516964758817869 -0.29373735777338866 113 99 71
0.015687956567757854 -0.05165950784821992 -0.29534838252811774 114 100 71
0.015621658979970532 -0.05166640499246909 -0.2969479348220369 109 95 65
0.015599523956772218 -0.051798546756685424 -0.2985105756810773 112 98 70
0.015359658887851214 -0.05131466240207426 -0.3002667177897444 126 111 81
0.015241146529601787 -0.051174584515780414 -0.3019186700107281 122 108 82
0.015055505619406991 -0.05084488899390628 -0.3036327362029229 88 76 56
0.014650043942840904 -0.04989380017082423 -0.3055465039325849 108 97 75
0.014298634175957066 -0.049096179129496584 -0.30741649740359933 137 125 98
0.012190837759818707 -0.04333315042320793 -0.31087877805342384 125 111 84
0.011679833715152129 -0.04208647339816117 -0.3129103000617547 142 126 101
0.009893265729727915 -0.03723545933739754 -0.3161121269022311 127 111 86
0.008739913036567355 -0.03417588106853693 -0.3187501919424434 135 123 102
0.007522353913631222 -0.030936365848033415 -0.32145896858857226 146 136 122
0.006608295283602773 -0.028555640029710325 -0.32389874660188533 151 144 135
0.005538899291410777 -0.02573742926967787 -0.3264925220294844 173 169 165
-0.007235760874619773 0.00759859268379251 -0.3600865839560688 94 87 78
-0.005119687838961967 0.0014274985361179549 -0.3596641549659476 98 89 78
-0.005003003468913379 0.0008880146137833084 -0.36121891869614275 94 83 68
-0.004779263383556609 4.712820775608362e-05 -0.36266672416723594 85 73 56
-0.004568450710505469 -0.0007572957132037927 -0.3641269152064925 87 74 55
-0.004454830913934456 -0.0012881689872386026 -0.365684877689212 84 71 49
-0.004680705196134748 -0.000863997020718793 -0.3675880418812323 80 66 42
-0.004969849509322277 -0.00026229782740883056 -0.3695591870472958 76 63 41
-0.005291144307178204 0.0004293073502910083 -0.3715672845906812 75 63 40
-0.004477439081794772 -0.002070758395206318 -0.37241142986349157 92 80 56
-0.004413554378355604 -0.00246232898584009 -0.3740247899005103 98 86 62
-0.0036384107636892524 -0.004852941442945458 -0.37490042915746935 95 83 61
-0.0038250035976869975 -0.004540507045102171 -0.37677342141671666 97 85 63
-0.00411800786084017 -0.003929523427415482 -0.378760962058749 94 82 60
-0.003821851388287452 -0.0049738311012149095 -0.3801327859413957 102 90 68
-0.003822578939672895 -0.005184286652226228 -0.381816981518505 110 98 75
-0.003993237710635748 -0.004917828533513219 -0.38368289398903116 109 95 71
-0.003806353364186617 -0.005655361124770386 -0.3851707624286138 114 99 75
-0.0029883214694700552 -0.008164113427464176 -0.38598290006462116 114 99 73
-0.0031003272897015197 -0.008062572470956597 -0.3877885242920743 111 96 71
-0.0029313494816583657 -0.008749569027459464 -0.3892933138580097 112 97 72
-0.003047740315110223 -0.008636181167381296 -0.39110726883621794 106 93 69
-0.003631249491210471 -0.007213258238480735 -0.3934321252978816 89 76 52
-0.027409399095134755 0.05740832135714846 -0.4355910946226412 93 79 51
-0.027310799593616125 0.056903144031377306 -0.4372955056480661 98 84 54
-0.027405341728381473 0.05693824573099146 -0.43922051471007356 107 93 66
-0.027461274982216288 0.05686505017431265 -0.4411037701078495 85 72 47
-0.027642489794456354 0.05714195329554034 -0.44313292088060485 84 73 48
-0.027588317106810853 0.05676031479615337 -0.4448939144627417 89 79 54
-0.027738531579889508 0.05694988739374454 -0.446892511395505 89 79 53
-0.02789813695806359 0.05716533626833345 -0.44890494831900524 87 76 51
-0.028075351776091086 0.05742960883364007 -0.45094094846440347 97 83 57
-0.027959574584497937 0.056874967710829255 -0.4526369281640336 101 87 62
-0.02778446901733231 0.056154560823941796 -0.45426360307477615 90 75 53
-0.027609371068601965 0.05543418582855353 -0.45589020286922405 88 72 52
-0.027437156641497103 0.054721871874890776 -0.4575201364361649 102 86 64
-0.02770645517155662 0.05524195277738286 -0.4596754063625517 110 94 68
-0.02806196415345895 0.05600210847456305 -0.46193772533860544 88 71 48
-0.02843445311114226 0.056809025673578206 -0.46422527611074427 77 64 42
-0.028536831768998315 0.05686183050791577 -0.46619265199817217 74 62 40
-0.02936870608352929 0.05894882787040684 -0.46904424836774034 77 65 43
-0.029051837382627024 0.05783156421770197 -0.470511383137503 77 65 43
-0.02848574140402281 0.056019695159535005 -0.47167355604270983 78 66 43
-0.027127271718319412 0.05199983015263035 -0.47186316147750534 75 63 40
-0.027311363048090898 0.05227981801789261 -0.47393490534122784 72 60 37
-0.02760699406566776 0.05287013682253172 -0.4761473643545339 84 72 48
-0.027417269677411933 0.052108009622332224 -0.4777638921431281 80 68 44
-0.027536702924755338 0.05220684682959234 -0.4797640147309033 76 64 40
-0.027603222396570967 0.05215802206261838 -0.48170089069700706 78 66 42
-0.028166218965060226 0.05349091137684775 -0.4842609998161779 78 66 42
-0.030895604064564736 0.06085199365606367 -0.4895480965972653 77 65 41
-0.03091652122483146 0.0604367336440404 -0.4933252379306077 77 65 41
-0.029616392400304045 0.056583759990032845 -0.4935522194210188 77 65 41
-0.027657654686699888 0.0509007980779132 -0.4929291147618978 73 61 37
-0.027565314641956447 0.05040859678059062 -0.49467659113513635 76 65 41
-0.027451995077307903 0.049857994705202 -0.4963978425952549 81 70 47
-0.02795547109406664 0.0510212935273843 -0.49891446842992054 82 71 50
-0.028125896861836586 0.0512585003883228 -0.5010066815392717 81 71 52
-0.028125891346588452 0.05102190761125722 -0.502880855379071 83 73 55
-0.02838062750214234 0.05149253725317829 -0.5050885385751211 86 78 59
-0.026960507090009536 0.047312546567418956 -0.5051100410813206 84 75 58
-0.02729137458316342 0.047994493817676315 -0.5074177189450535 90 82 66
-0.027618421421632178 0.048665238199305905 -0.5097251150508508 96 87 72
-0.028056130666877142 0.04964243284416092 -0.5121835262432669 98 90 75
-0.02827121173523211 0.050001323032350664 -0.5143523456431913 95 88 74
-0.028647455407039266 0.050806721511608866 -0.5167394227766474 94 87 73
-0.028919328962373272 0.051322063827818204 -0.5189922371091189 101 94 80
-0.029142947095478988 0.05170309981525428 -0.5211845527871644 101 93 82
-0.029356878861103247 0.0520568143980627 -0.5233675917924983 93 85 76
-0.029669029373972866 0.05268222935373226 -0.5256869657820075 80 74 63
-0.029941484061766124 0.05319708823275329 -0.5279571518877415 65 60 49
-0.030698186212540425 0.05505267317241305 -0.5308902972702723 49 45 35
-0.028754201300232547 0.04942844763821244 -0.5301456595355941 31 27 19
-0.028718823180351426 0.04909049163882612 -0.5319985618433357 18 17 11
-0.030172821261587074 0.04130636565510276 -0.6275469598770245 95 88 78
-0.028730725259261916 0.03710634855552253 -0.6272150222986038 104 96 85
-0.027879546394943597 0.03452559803053559 -0.6278251203895904 106 98 85
-0.026753429165126033 0.031193228420722502 -0.6279827847227608 108 100 83
-0.026195923165437604 0.029417942717792883 -0.62905531175285 106 98 79
-0.0258853964554613 0.028318791346919114 -0.6305267454273789 103 93 75
-0.025249724759372275 0.026330545710606112 -0.6314648823389029 96 86 68
-0.024356878887851707 0.023639683818329066 -0.6319763356688239 88 77 58
-0.023836364599639295 0.02196759209603405 -0.6330933604109007 80 70 51
-0.02343832947344525 0.02063069147163943 -0.6344090758848271 85 75 56
-0.02268610087844926 0.018326265744478015 -0.6351359204227389 85 73 51
-0.022271181727570935 0.016944046747750074 -0.636417207460431 96 80 60
-0.02192297681350651 0.015744347458316987 -0.6378071840280379 110 94 73
-0.021387035765023654 0.01403225651021714 -0.6388815999250218 132 118 93
-0.02106039505259885 0.012891999549358352 -0.640303174841482 123 111 86
-0.02073396311712293 0.011752512401885212 -0.6417235163158014 108 97 76
-0.020407847048492953 0.01061408713600126 -0.6431428060494995 104 93 73
-0.01992384079852416 0.009045143483054685 -0.6442934213240675 100 89 70
-0.019517394130522003 0.007688132640554929 -0.6455724395456339 83 72 54
-0.019030552544206047 0.006112214902743052 -0.6467122329564087 69 57 40
-0.01851264062209844 0.0044520063295912515 -0.6477957608213857 71 58 42
-0.01802658543247286 0.0028790680828766624 -0.6489302756875538 74 60 47
-0.01754832809048172 0.001327784874384924 -0.650074948916929 67 55 45
-0.01740971088165119 0.0007021119226414407 -0.651801413047765 67 57 47
-0.017126806151652074 -0.00031656077626104895 -0.6532789564622141 82 73 59
-0.016744857686486175 -0.0016047633936656924 -0.6545837459763563 88 80 59
-0.01674295662649314 -0.0018581435891790177 -0.6565467394577932 100 93 66
-0.016639753314096714 -0.002387435738859134 -0.658334908367187 84 76 54
