ply
format ascii 1.0
element vertex 873
property float x
property float y
property float z
property float nx
property float ny
property float nz
property uchar diffuse_red
property uchar diffuse_green
property uchar diffuse_blue
property uchar class
property uchar detection
end_header
-0.0857 0.1062 -0.6433 0.166 0.312 0.936 67 60 44 0 0
-0.0847 0.1076 -0.6443 0.116 0.473 0.873 83 74 59 0 0
-0.0831 0.1098 -0.6446 -0.108 0.750 0.652 78 69 54 0 0
-0.0615 0.1396 -0.6831 0.446 0.777 0.444 98 82 53 0 0
-0.0611 0.1402 -0.6846 0.446 0.777 0.444 98 83 57 0 0
-0.0635 0.1371 -0.7857 -0.051 0.747 0.663 116 102 75 0 0
-0.0625 0.1385 -0.7864 -0.032 0.721 0.693 85 72 46 0 0
-0.0599 0.1421 -0.7981 0.376 0.771 0.515 88 75 55 0 0
-0.0593 0.1428 -0.7995 0.376 0.771 0.515 80 68 47 0 0
-0.0586 0.1439 -0.8007 0.525 0.831 0.184 63 49 30 0 0
-0.1436 0.0229 -0.3055 -0.292 0.810 0.508 164 161 158 0 0
-0.1425 0.0245 -0.3084 -0.396 0.725 0.564 127 114 95 0 0
-0.1146 0.0630 -0.4012 0.267 0.903 0.335 84 67 41 0 0
-0.1149 0.0627 -0.4209 0.562 0.823 0.079 77 62 42 0 0
-0.1146 0.0631 -0.4225 0.447 0.878 0.169 76 61 39 0 0
-0.1204 0.0552 -0.4463 0.627 0.600 -0.496 11 11 9 0 0
-0.1216 0.0534 -0.4490 0.162 0.963 -0.214 4 4 2 0 0
-0.1329 0.0379 -0.4909 -0.388 0.426 0.817 53 50 46 0 0
-0.1326 0.0383 -0.4926 -0.536 0.409 0.738 43 39 37 0 0
-0.0914 0.0952 -0.5278 -0.620 0.371 0.691 52 51 47 0 0
-0.0800 0.1110 -0.5273 -0.126 0.378 0.917 101 97 89 0 0
-0.0658 0.1308 -0.6654 0.514 0.796 0.318 77 65 46 0 0
-0.0600 0.1389 -0.6829 0.462 0.842 0.280 109 93 64 0 0
-0.0597 0.1393 -0.6846 0.553 0.772 0.314 100 83 55 0 0
-0.0478 0.1558 -0.7210 0.369 0.864 0.343 72 62 44 0 0
-0.0588 0.1406 -0.7965 0.308 0.852 0.424 105 92 72 0 0
-0.1416 0.0228 -0.3035 -0.343 0.820 0.458 163 160 157 0 0
-0.1419 0.0224 -0.3054 -0.356 0.762 0.541 135 126 113 0 0
-0.1410 0.0237 -0.3066 -0.357 0.761 0.541 135 123 100 0 0
-0.1186 0.0547 -0.4461 0.633 0.630 -0.450 28 27 25 0 0
-0.1203 0.0523 -0.4491 -0.071 0.928 -0.365 11 11 9 0 0
-0.1309 0.0377 -0.4734 0.948 -0.020 -0.317 50 44 38 0 0
-0.1322 0.0358 -0.4762 0.918 -0.174 -0.358 53 46 37 0 0
-0.1361 0.0304 -0.4867 0.002 0.228 0.974 28 24 21 0 0
-0.1343 0.0329 -0.4873 -0.015 0.235 0.972 44 40 37 0 0
-0.0710 0.1207 -0.5298 0.189 0.766 0.615 106 98 87 0 0
-0.1189 0.0543 -0.6290 0.563 0.779 0.276 88 75 58 0 0
-0.0811 0.1066 -0.6436 -0.062 0.879 0.472 71 62 47 0 0
-0.0790 0.1096 -0.6453 0.638 0.770 0.021 73 63 52 0 0
-0.0784 0.1104 -0.6467 0.470 0.739 0.482 76 66 53 0 0
-0.0642 0.1301 -0.6672 0.447 0.881 0.156 92 80 57 0 0
-0.0593 0.1369 -0.6797 0.547 0.786 0.289 76 59 33 0 0
-0.0586 0.1379 -0.6829 0.524 0.830 0.193 107 91 61 0 0
-0.0584 0.1382 -0.6847 0.524 0.830 0.193 119 102 73 0 0
-0.0601 0.1358 -0.7071 0.285 0.957 0.060 48 36 20 0 0
-0.0450 0.1567 -0.8227 0.670 0.633 0.389 74 62 37 0 0
-0.0418 0.1612 -0.8444 0.335 0.855 0.395 124 109 72 0 0
-0.1117 0.0614 -0.4206 0.547 0.828 0.122 87 73 47 0 0
-0.1116 0.0616 -0.4223 0.547 0.828 0.122 83 69 43 0 0
-0.1184 0.0521 -0.4469 -0.160 0.906 -0.392 30 27 26 0 0
-0.1188 0.0515 -0.4490 -0.055 0.965 -0.257 21 19 18 0 0
-0.1180 0.0526 -0.4503 0.254 0.923 -0.289 8 8 8 0 0
-0.0616 0.1310 -0.5613 0.360 0.923 -0.138 101 87 58 0 0
-0.0777 0.1085 -0.6454 0.562 0.827 0.012 83 73 60 0 0
-0.0688 0.1208 -0.6539 0.276 0.649 0.709 68 54 38 0 0
-0.0625 0.1295 -0.6689 0.318 0.919 0.234 97 85 63 0 0
-0.0584 0.1353 -0.7026 0.382 0.905 0.189 35 24 15 0 0
-0.0586 0.1349 -0.7091 0.231 0.896 0.380 88 75 54 0 0
-0.0573 0.1368 -0.7116 0.378 0.864 0.333 117 102 77 0 0
-0.0449 0.1540 -0.7189 0.455 0.825 0.334 174 157 124 0 0
-0.0446 0.1544 -0.7205 0.445 0.761 0.471 101 87 64 0 0
-0.0649 0.1262 -0.7803 0.169 0.909 0.381 31 22 16 0 0
-0.0553 0.1394 -0.7957 0.311 0.888 0.338 43 32 11 0 0
-0.0412 0.1590 -0.8412 0.166 0.887 0.430 98 82 53 0 0
-0.1085 0.0632 -0.3343 0.608 0.626 0.489 106 93 65 0 0
-0.1083 0.0634 -0.3359 0.645 0.757 0.104 95 81 58 0 0
-0.1131 0.0567 -0.3590 -0.285 0.879 -0.383 85 73 53 0 0
-0.1097 0.0615 -0.3795 0.259 0.966 -0.026 112 92 58 0 0
-0.1157 0.0530 -0.4459 -0.160 0.906 -0.392 29 27 26 0 0
-0.1165 0.0518 -0.4502 0.172 0.936 -0.308 17 16 16 0 0
-0.0598 0.1306 -0.5591 0.610 0.787 0.088 136 120 88 0 0
-0.0602 0.1301 -0.5613 0.358 0.923 -0.143 94 80 51 0 0
-0.0751 0.1091 -0.6442 0.592 0.797 0.121 69 60 47 0 0
-0.0749 0.1094 -0.6460 0.291 0.886 0.361 61 53 39 0 0
-0.0570 0.1343 -0.7026 0.529 0.847 0.057 38 26 16 0 0
-0.0570 0.1342 -0.7109 0.660 0.687 0.306 108 98 71 0 0
-0.0559 0.1357 -0.7117 0.248 0.927 0.283 96 83 57 0 0
-0.0608 0.1288 -0.7855 0.561 0.563 0.606 40 31 22 0 0
-0.0469 0.1482 -0.8077 0.247 0.840 0.482 87 72 49 0 0
-0.0435 0.1528 -0.8204 0.374 0.719 0.586 74 60 40 0 0
-0.0428 0.1538 -0.8216 0.423 0.756 0.500 81 69 45 0 0
-0.0394 0.1586 -0.8297 0.299 0.841 0.451 84 69 41 0 0
-0.0398 0.1581 -0.8325 0.405 0.877 0.258 88 73 45 0 0
-0.0363 0.1627 -0.8695 0.381 0.887 0.261 158 156 155 0 0
-0.1092 0.0593 -0.3575 -0.339 0.882 -0.328 98 86 64 0 0
-0.1100 0.0582 -0.3597 -0.339 0.882 -0.328 96 84 64 0 0
-0.1110 0.0568 -0.3620 -0.291 0.932 -0.217 93 81 59 0 0
-0.1072 0.0620 -0.4140 0.282 0.933 0.223 81 67 41 0 0
-0.1067 0.0627 -0.4155 0.081 0.905 0.417 83 69 43 0 0
-0.0593 0.1285 -0.5450 0.521 0.748 0.410 62 44 26 0 0
-0.0585 0.1296 -0.5610 0.486 0.862 -0.145 95 80 50 0 0
-0.0777 0.1026 -0.6404 0.296 0.141 0.945 65 58 43 0 0
-0.0760 0.1049 -0.6407 0.261 0.453 0.852 66 59 43 0 0
-0.0737 0.1081 -0.6442 0.510 0.743 0.434 72 64 52 0 0
-0.0658 0.1192 -0.6536 0.197 0.722 0.663 186 170 138 0 0
-0.0602 0.1270 -0.6634 0.315 0.650 0.691 94 83 64 0 0
-0.0560 0.1328 -0.6808 0.658 0.726 0.199 70 55 34 0 0
-0.0558 0.1330 -0.7111 0.660 0.687 0.306 124 110 82 0 0
-0.0594 0.1278 -0.7834 0.326 0.782 0.531 43 35 26 0 0
-0.0523 0.1376 -0.7934 0.204 0.884 0.420 153 139 111 0 0
-0.0519 0.1382 -0.7950 0.322 0.747 0.582 141 124 96 0 0
-0.0469 0.1452 -0.8032 0.218 0.555 0.803 100 85 63 0 0
-0.0458 0.1467 -0.8060 0.395 0.827 0.400 89 77 52 0 0
-0.0454 0.1473 -0.8076 0.395 0.827 0.400 87 74 50 0 0
-0.0438 0.1495 -0.8119 0.530 0.722 0.445 67 52 32 0 0
-0.0382 0.1573 -0.8279 0.299 0.841 0.451 67 53 28 0 0
-0.0377 0.1579 -0.8294 0.299 0.841 0.451 75 61 35 0 0
-0.0382 0.1573 -0.8323 0.591 0.792 0.154 88 73 46 0 0
-0.0377 0.1579 -0.8382 0.613 0.774 0.156 93 76 50 0 0
-0.0366 0.1595 -0.8387 0.307 0.810 0.500 92 77 49 0 0
-0.0358 0.1606 -0.8419 0.508 0.767 0.392 92 77 41 0 0
-0.1064 0.0604 -0.3791 0.323 0.920 0.222 100 82 51 0 0
-0.1057 0.0613 -0.3909 0.325 0.909 0.262 88 71 44 0 0
-0.0762 0.1022 -0.4967 -0.478 0.558 0.678 56 52 46 0 0
-0.0588 0.1265 -0.5402 0.619 0.716 0.322 133 118 85 0 0
-0.0576 0.1281 -0.5447 0.609 0.712 0.351 63 44 25 0 0
-0.1109 0.0531 -0.6373 0.467 0.833 0.297 41 32 25 0 0
-0.1106 0.0536 -0.6390 0.443 0.747 0.495 51 42 35 0 0
-0.0755 0.1027 -0.6396 0.178 0.399 0.899 79 72 60 0 0
-0.0744 0.1042 -0.6404 0.291 0.425 0.857 65 57 44 0 0
-0.0723 0.1072 -0.6442 0.617 0.596 0.514 60 51 42 0 0
-0.0717 0.1080 -0.6456 0.559 0.625 0.544 66 59 49 0 0
-0.0707 0.1094 -0.6465 0.425 0.580 0.695 68 61 48 0 0
-0.0638 0.1190 -0.6550 0.355 0.736 0.577 169 149 113 0 0
-0.0623 0.1211 -0.6573 0.353 0.780 0.517 71 57 35 0 0
-0.0617 0.1220 -0.6587 0.387 0.604 0.697 43 31 19 0 0
-0.0552 0.1310 -0.6754 0.447 0.826 0.344 82 71 49 0 0
-0.0542 0.1324 -0.6803 0.671 0.703 0.236 58 43 24 0 0
-0.0537 0.1331 -0.6837 0.769 0.598 0.225 83 68 49 0 0
-0.0534 0.1334 -0.6855 0.769 0.598 0.225 66 51 30 0 0
-0.0525 0.1347 -0.6864 0.514 0.808 0.289 79 62 38 0 0
-0.0541 0.1324 -0.7026 0.543 0.837 0.060 42 31 20 0 0
-0.0538 0.1328 -0.7043 0.599 0.798 0.064 47 35 23 0 0
-0.0536 0.1331 -0.7061 0.479 0.862 0.167 67 54 35 0 0
-0.0523 0.1349 -0.7107 0.348 0.788 0.508 126 108 81 0 0
-0.0585 0.1260 -0.7734 0.122 0.980 -0.159 36 27 21 0 0
-0.0591 0.1252 -0.7784 0.339 0.867 0.366 64 55 45 0 0
-0.0586 0.1259 -0.7800 0.219 0.849 0.480 58 50 39 0 0
-0.0587 0.1257 -0.7823 0.421 0.764 0.489 67 57 46 0 0
-0.0577 0.1271 -0.7831 0.527 0.741 0.417 82 72 60 0 0
-0.0489 0.1393 -0.7972 0.220 0.702 0.678 102 90 66 0 0
-0.0450 0.1448 -0.8048 0.560 0.599 0.572 71 59 36 0 0
-0.0429 0.1477 -0.8105 0.598 0.733 0.323 69 54 35 0 0
-0.0424 0.1485 -0.8119 0.530 0.722 0.445 64 49 30 0 0
-0.0419 0.1491 -0.8135 0.482 0.538 0.691 60 45 27 0 0
-0.0362 0.1570 -0.8403 0.613 0.774 0.156 87 73 45 0 0
-0.0350 0.1587 -0.8407 0.592 0.643 0.485 79 64 38 0 0
-0.1041 0.0607 -0.3907 0.325 0.909 0.262 90 74 46 0 0
-0.1033 0.0618 -0.4132 0.461 0.853 0.246 69 54 33 0 0
-0.1048 0.0597 -0.4231 0.349 0.925 0.153 82 67 44 0 0
-0.0736 0.1031 -0.4938 -0.545 0.719 0.432 78 74 63 0 0
-0.0728 0.1043 -0.4949 -0.567 0.602 0.562 81 76 65 0 0
-0.0718 0.1056 -0.4960 -0.590 0.644 0.487 78 72 62 0 0
-0.0558 0.1278 -0.5591 0.181 0.976 -0.119 144 128 92 0 0
-0.0719 0.1048 -0.6412 0.339 0.736 0.586 65 56 47 0 0
-0.0554 0.1278 -0.6672 0.227 0.868 0.442 77 62 41 0 0
-0.0539 0.1299 -0.6755 0.578 0.754 0.313 107 95 74 0 0
-0.0538 0.1300 -0.6774 0.434 0.865 0.254 81 69 44 0 0
-0.0525 0.1318 -0.6840 0.712 0.686 0.151 85 70 51 0 0
-0.0524 0.1320 -0.6859 0.712 0.686 0.151 77 61 41 0 0
-0.0517 0.1330 -0.6891 0.718 0.675 0.170 87 69 45 0 0
-0.0513 0.1335 -0.6907 0.659 0.736 -0.154 93 77 51 0 0
-0.0516 0.1331 -0.6931 0.723 0.661 -0.199 88 72 46 0 0
-0.0523 0.1321 -0.6960 0.629 0.763 -0.150 93 74 47 0 0
-0.0534 0.1305 -0.7117 0.678 0.704 0.212 126 109 82 0 0
-0.0394 0.1500 -0.7170 0.109 0.891 0.440 165 152 115 0 0
-0.0387 0.1511 -0.7181 0.045 0.754 0.655 152 138 104 0 0
-0.0571 0.1249 -0.7800 0.483 0.760 0.436 70 60 48 0 0
-0.0527 0.1311 -0.7870 0.523 0.766 0.374 94 81 66 0 0
-0.0470 0.1390 -0.7966 0.312 0.577 0.755 73 62 43 0 0
-0.0466 0.1396 -0.7982 0.204 0.579 0.789 56 45 26 0 0
-0.0430 0.1446 -0.8062 0.339 0.808 0.482 56 44 26 0 0
-0.0423 0.1456 -0.8074 0.511 0.781 0.358 51 37 21 0 0
-0.0362 0.1541 -0.8292 0.487 0.752 0.444 91 79 48 0 0
-0.0357 0.1547 -0.8307 0.487 0.752 0.444 123 107 76 0 0
-0.0319 0.1601 -0.8471 0.484 0.821 0.303 128 110 67 0 0
-0.1023 0.0604 -0.4116 0.664 0.682 0.308 74 62 38 0 0
-0.1032 0.0590 -0.4229 0.349 0.925 0.153 82 66 43 0 0
-0.0717 0.1021 -0.6406 0.554 0.663 0.503 62 54 45 0 0
-0.0706 0.1037 -0.6414 0.537 0.671 0.511 44 35 30 0 0
-0.0701 0.1043 -0.6429 0.624 0.553 0.552 45 39 33 0 0
-0.0692 0.1057 -0.6439 0.315 0.732 0.604 65 59 49 0 0
-0.0542 0.1266 -0.6654 0.617 0.451 0.644 66 52 39 0 0
-0.0505 0.1317 -0.6894 0.718 0.675 0.170 80 64 41 0 0
-0.0505 0.1317 -0.6914 0.634 0.758 -0.156 111 95 70 0 0
-0.0505 0.1317 -0.6934 0.723 0.661 -0.199 95 79 55 0 0
-0.0510 0.1310 -0.6961 0.625 0.759 -0.184 95 78 50 0 0
-0.0521 0.1294 -0.7097 0.453 0.883 0.125 119 104 78 0 0
-0.0517 0.1299 -0.7113 0.164 0.880 0.446 121 105 78 0 0
-0.0373 0.1501 -0.7160 -0.046 0.921 0.387 179 165 126 0 0
-0.0367 0.1509 -0.7173 0.127 0.883 0.452 224 212 173 0 0
-0.0354 0.1527 -0.7321 0.440 0.862 -0.252 135 118 77 0 0
-0.0523 0.1287 -0.7690 0.226 0.845 -0.484 39 30 23 0 0
-0.0510 0.1305 -0.7866 0.387 0.572 0.723 69 56 37 0 0
-0.0454 0.1383 -0.7964 0.200 0.722 0.662 46 35 17 0 0
-0.0450 0.1389 -0.7979 0.093 0.832 0.546 42 30 13 0 0
-0.0343 0.1538 -0.8307 0.487 0.752 0.444 124 105 68 0 0
-0.0331 0.1553 -0.8401 0.657 0.617 0.433 100 83 59 0 0
-0.0297 0.1600 -0.8483 0.476 0.838 0.267 138 122 82 0 0
-0.1315 0.0170 -0.2894 0.183 0.870 0.457 179 179 180 0 0
-0.1071 0.0513 -0.3150 -0.064 0.762 0.645 133 114 86 0 0
-0.1005 0.0601 -0.3867 0.606 0.793 -0.072 105 91 63 0 0
-0.0680 0.1054 -0.4770 0.575 0.393 0.718 59 55 45 0 0
-0.0668 0.1071 -0.4796 0.642 0.729 0.237 82 77 65 0 0
-0.0673 0.1065 -0.4835 0.213 0.970 -0.119 113 102 87 0 0
-0.0511 0.1280 -0.6735 0.607 0.760 0.232 66 51 31 0 0
-0.0509 0.1283 -0.6753 0.607 0.760 0.232 82 69 48 0 0
-0.0508 0.1284 -0.6772 0.458 0.860 0.223 99 87 64 0 0
-0.0506 0.1287 -0.6790 0.560 0.817 0.136 75 63 39 0 0
-0.0499 0.1296 -0.6863 0.511 0.826 0.240 67 51 34 0 0
-0.0497 0.1299 -0.6901 0.604 0.790 0.107 65 50 31 0 0
-0.0494 0.1303 -0.6938 0.534 0.830 -0.160 100 84 63 0 0
-0.0497 0.1298 -0.6963 0.466 0.856 -0.225 85 69 43 0 0
-0.0502 0.1291 -0.7009 0.567 0.823 -0.013 47 34 17 0 0
-0.0498 0.1296 -0.7046 0.531 0.847 0.018 44 34 20 0 0
-0.0492 0.1304 -0.7142 -0.120 0.807 0.579 111 98 73 0 0
-0.0529 0.1248 -0.7739 0.096 0.980 -0.174 37 28 19 0 0
-0.0458 0.1347 -0.7924 0.062 0.939 0.338 77 64 45 0 0
-0.0332 0.1522 -0.8291 0.413 0.777 0.475 85 73 47 0 0
-0.0298 0.1570 -0.8439 0.266 0.765 0.586 87 76 46 0 0
-0.1292 0.0174 -0.2890 0.064 0.968 0.241 178 178 176 0 0
-0.1290 0.0177 -0.2905 -0.369 0.835 0.409 172 171 166 0 0
-0.1012 0.0558 -0.4506 0.177 0.936 0.304 44 41 37 0 0
-0.0670 0.1027 -0.6426 0.251 0.936 0.247 41 32 28 0 0
-0.0505 0.1259 -0.6704 0.647 0.677 0.350 72 60 38 0 0
-0.0501 0.1264 -0.6720 0.647 0.677 0.350 85 73 48 0 0
-0.0492 0.1278 -0.6769 0.511 0.858 0.040 93 79 61 0 0
-0.0490 0.1280 -0.6808 0.451 0.883 0.131 90 77 53 0 0
-0.0482 0.1291 -0.6879 0.661 0.722 0.203 45 34 20 0 0
-0.0483 0.1289 -0.6901 0.604 0.790 0.107 49 36 21 0 0
-0.0326 0.1510 -0.7217 0.395 0.880 0.264 67 53 30 0 0
-0.0370 0.1445 -0.7420 0.382 0.739 -0.556 83 69 40 0 0
-0.0514 0.1238 -0.7782 0.518 0.740 0.428 50 40 31 0 0
-0.0509 0.1246 -0.7796 0.405 0.833 0.377 56 44 34 0 0
-0.0505 0.1252 -0.7812 0.405 0.833 0.377 47 34 22 0 0
-0.0501 0.1256 -0.7829 0.293 0.854 0.430 46 34 22 0 0
-0.0322 0.1507 -0.8276 0.468 0.852 0.233 63 49 28 0 0
-0.0989 0.0563 -0.4336 0.727 0.629 0.277 39 31 26 0 0
-0.0482 0.1272 -0.5495 0.611 0.777 0.150 120 103 71 0 0
-0.0475 0.1272 -0.6807 0.544 0.835 0.085 100 85 61 0 0
-0.0474 0.1273 -0.6826 0.544 0.835 0.085 94 80 60 0 0
-0.0471 0.1278 -0.6863 0.511 0.826 0.240 46 36 26 0 0
-0.0457 0.1295 -0.7112 0.041 0.621 0.783 130 113 90 0 0
-0.0441 0.1318 -0.7134 0.220 0.508 0.833 103 87 71 0 0
-0.0508 0.1217 -0.7771 0.520 0.659 0.544 44 35 25 0 0
-0.0500 0.1228 -0.7782 0.518 0.740 0.428 48 39 28 0 0
-0.0497 0.1233 -0.7799 0.517 0.616 0.595 52 43 32 0 0
-0.0441 0.1311 -0.7875 0.654 0.602 0.457 57 44 25 0 0
-0.0245 0.1584 -0.8470 0.396 0.810 0.432 123 108 72 0 0
-0.0225 0.1611 -0.8617 0.112 0.929 0.353 82 80 68 0 0
-0.0974 0.0556 -0.4317 0.581 0.535 0.613 76 66 53 0 0
-0.0972 0.0558 -0.4334 0.617 0.650 0.444 47 39 31 0 0
-0.0974 0.0555 -0.4353 0.492 0.820 0.291 47 40 32 0 0
-0.0480 0.1249 -0.5376 0.433 0.893 0.120 102 85 57 0 0
-0.0473 0.1258 -0.5462 0.612 0.753 0.241 122 103 72 0 0
-0.0471 0.1260 -0.5479 0.611 0.777 0.150 106 89 57 0 0
-0.0470 0.1262 -0.5496 0.611 0.777 0.150 135 119 87 0 0
-0.0468 0.1265 -0.5513 0.478 0.871 0.114 130 112 82 0 0
-0.0487 0.1226 -0.6736 0.730 0.635 0.251 60 48 32 0 0
-0.0457 0.1267 -0.6864 0.614 0.733 0.291 45 35 26 0 0
-0.0424 0.1311 -0.7131 -0.071 0.701 0.710 91 76 60 0 0
-0.0292 0.1499 -0.7251 0.562 0.779 0.276 96 78 49 0 0
-0.0292 0.1499 -0.7272 0.521 0.790 0.322 90 73 42 0 0
-0.0230 0.1576 -0.8468 0.303 0.795 0.525 131 115 78 0 0
-0.0234 0.1569 -0.8563 0.301 0.900 0.315 146 132 95 0 0
-0.0233 0.1569 -0.8585 0.149 0.961 0.235 107 98 73 0 0
-0.0207 0.1606 -0.8612 0.112 0.929 0.353 68 65 54 0 0
-0.1054 0.0426 -0.3083 0.474 0.681 0.558 131 113 84 0 0
-0.0948 0.0568 -0.3846 0.526 0.766 0.369 69 54 38 0 0
-0.0945 0.0573 -0.3862 0.481 0.831 0.280 89 77 57 0 0
-0.0945 0.0572 -0.3879 0.482 0.866 0.132 99 85 60 0 0
-0.0958 0.0550 -0.4315 0.421 0.840 0.343 83 73 60 0 0
-0.0595 0.1062 -0.4779 -0.271 0.725 0.633 135 119 93 0 0
-0.0464 0.1243 -0.5319 0.498 0.849 0.177 85 69 41 0 0
-0.0458 0.1250 -0.5479 0.611 0.777 0.150 118 101 71 0 0
-0.0457 0.1252 -0.5496 0.611 0.777 0.150 131 114 84 0 0
-0.0454 0.1257 -0.5512 0.478 0.871 0.114 134 116 87 0 0
-0.0513 0.1161 -0.6600 0.494 0.809 0.318 111 96 73 0 0
-0.0406 0.1308 -0.7126 -0.071 0.701 0.710 86 73 56 0 0
-0.0283 0.1483 -0.7216 0.381 0.864 0.330 74 62 43 0 0
-0.0276 0.1492 -0.7228 0.605 0.745 0.280 70 54 39 0 0
-0.0278 0.1489 -0.7252 0.562 0.779 0.276 85 69 41 0 0
-0.0274 0.1495 -0.7287 0.382 0.879 0.285 61 47 22 0 0
-0.0450 0.1238 -0.7819 0.184 0.898 0.400 70 58 41 0 0
-0.0276 0.1481 -0.8250 0.419 0.739 0.528 67 52 28 0 0
-0.0217 0.1562 -0.8560 0.301 0.900 0.315 123 110 77 0 0
-0.0214 0.1565 -0.8645 0.375 0.924 -0.076 61 57 46 0 0
-0.0212 0.1568 -0.8665 0.341 0.937 0.072 97 94 84 0 0
-0.1255 0.0113 -0.2794 -0.257 0.508 0.822 179 179 181 0 0
-0.0934 0.0560 -0.3863 0.337 0.925 0.175 83 70 52 0 0
-0.0931 0.0564 -0.3879 0.482 0.866 0.132 91 76 54 0 0
-0.0929 0.0566 -0.3895 0.482 0.866 0.132 110 95 72 0 0
-0.0451 0.1235 -0.5318 0.498 0.849 0.177 73 57 32 0 0
-0.0450 0.1235 -0.5336 0.515 0.854 0.068 79 62 35 0 0
-0.0450 0.1236 -0.5354 0.515 0.854 0.068 92 75 47 0 0
-0.0445 0.1242 -0.5479 0.599 0.799 0.054 113 96 67 0 0
-0.0442 0.1244 -0.5514 0.522 0.817 0.245 125 107 78 0 0
-0.0837 0.0669 -0.6380 -0.190 0.567 0.802 72 64 53 0 0
-0.0714 0.0846 -0.6392 0.539 0.270 0.798 74 67 58 0 0
-0.0444 0.1225 -0.6923 0.488 0.795 0.361 36 26 19 0 0
-0.0438 0.1233 -0.7100 0.462 0.583 0.668 103 93 76 0 0
-0.0277 0.1462 -0.7186 0.381 0.649 0.659 90 73 47 0 0
-0.0272 0.1469 -0.7200 0.431 0.671 0.603 85 68 41 0 0
-0.0267 0.1475 -0.7214 0.381 0.864 0.330 88 75 57 0 0
-0.0265 0.1479 -0.7252 0.382 0.879 0.285 90 75 53 0 0
-0.0258 0.1487 -0.7285 0.382 0.879 0.285 55 42 19 0 0
-0.0291 0.1431 -0.8096 0.446 0.803 0.395 90 76 50 0 0
-0.1286 0.0039 -0.2780 -0.283 0.817 0.503 180 179 182 0 0
-0.1278 0.0050 -0.2793 -0.240 0.944 0.227 179 179 181 0 0
-0.0914 0.0559 -0.3929 0.452 0.887 0.093 100 88 64 0 0
-0.0913 0.0560 -0.3946 0.452 0.887 0.093 95 82 57 0 0
-0.0469 0.1184 -0.4965 0.554 0.657 0.512 82 66 45 0 0
-0.0435 0.1229 -0.5353 0.425 0.904 0.043 90 73 47 0 0
-0.0429 0.1236 -0.5476 0.584 0.811 0.034 127 110 78 0 0
-0.0431 0.1233 -0.5497 0.567 0.813 0.133 121 104 73 0 0
-0.0429 0.1235 -0.5514 0.522 0.817 0.245 114 97 68 0 0
-0.0859 0.0607 -0.6336 0.518 0.621 0.588 59 52 42 0 0
-0.0599 0.0980 -0.6425 0.414 0.638 0.649 52 45 39 0 0
-0.0594 0.0986 -0.6440 0.275 0.767 0.579 44 37 31 0 0
-0.0487 0.1139 -0.6582 0.366 0.807 0.463 82 69 55 0 0
-0.0482 0.1146 -0.6597 0.366 0.807 0.463 88 75 57 0 0
-0.0475 0.1156 -0.6629 0.629 0.671 0.393 83 71 49 0 0
-0.0258 0.1460 -0.7199 0.500 0.657 0.564 122 106 85 0 0
-0.0246 0.1475 -0.7267 0.393 0.866 0.308 86 71 46 0 0
-0.0307 0.1380 -0.7986 0.507 0.816 0.279 117 103 74 0 0
-0.0183 0.1552 -0.8440 0.417 0.835 0.359 120 104 71 0 0
-0.1252 0.0058 -0.2788 -0.256 0.906 0.336 177 178 179 0 0
-0.1010 0.0404 -0.3063 0.109 0.893 0.437 138 123 94 0 0
-0.0898 0.0553 -0.3927 0.484 0.864 0.140 92 80 58 0 0
-0.0897 0.0554 -0.3944 0.395 0.918 0.037 92 79 56 0 0
-0.0585 0.0970 -0.6426 0.595 0.610 0.524 49 42 35 0 0
-0.0498 0.1093 -0.6571 0.206 0.767 0.608 88 75 60 0 0
-0.0439 0.1175 -0.6746 0.619 0.769 0.159 106 91 71 0 0
-0.0438 0.1177 -0.6785 0.624 0.672 0.399 66 50 35 0 0
-0.0419 0.1202 -0.6926 0.648 0.743 0.169 34 26 19 0 0
-0.0431 0.1184 -0.6962 0.668 0.697 0.261 24 19 14 0 0
-0.0398 0.1230 -0.7106 0.307 0.385 0.870 94 86 68 0 0
-0.0234 0.1463 -0.7249 0.393 0.866 0.308 86 72 45 0 0
-0.0231 0.1468 -0.7266 0.393 0.866 0.308 91 75 49 0 0
-0.0400 0.1218 -0.7789 0.200 0.964 0.173 43 35 23 0 0
-0.0352 0.1287 -0.7831 0.015 0.812 0.584 99 88 68 0 0
-0.0338 0.1306 -0.7855 0.058 0.877 0.477 123 110 82 0 0
-0.0259 0.1417 -0.8091 0.414 0.863 0.290 65 53 31 0 0
-0.0195 0.1506 -0.8304 0.316 0.844 0.434 117 107 72 0 0
-0.0172 0.1537 -0.8424 0.303 0.841 0.449 114 99 66 0 0
-0.0167 0.1544 -0.8439 0.417 0.835 0.359 121 106 72 0 0
-0.0164 0.1549 -0.8455 0.417 0.835 0.359 122 107 73 0 0
-0.0165 0.1545 -0.8636 0.558 0.824 0.100 35 35 29 0 0
-0.0848 0.0600 -0.3661 0.214 0.964 -0.155 110 97 66 0 0
-0.0854 0.0591 -0.3682 0.367 0.929 0.057 120 106 75 0 0
-0.0405 0.1213 -0.5479 0.607 0.794 -0.023 116 98 66 0 0
-0.0411 0.1203 -0.5635 0.444 0.884 -0.145 108 92 66 0 0
-0.0537 0.1008 -0.6489 0.271 0.650 0.710 81 71 55 0 0
-0.0482 0.1086 -0.6569 0.447 0.616 0.649 92 78 63 0 0
-0.0421 0.1171 -0.6802 0.624 0.672 0.399 67 55 40 0 0
-0.0394 0.1205 -0.7099 0.465 0.361 0.808 89 80 65 0 0
-0.0225 0.1448 -0.7234 0.486 0.839 0.246 90 73 48 0 0
-0.0216 0.1460 -0.7264 0.498 0.732 0.465 91 77 50 0 0
-0.0321 0.1300 -0.7852 0.272 0.803 0.530 91 78 55 0 0
-0.0314 0.1310 -0.7863 0.282 0.816 0.505 71 60 36 0 0
-0.0148 0.1541 -0.8454 0.512 0.807 0.294 120 106 71 0 0
-0.0037 0.1699 -0.8634 0.561 0.322 0.763 189 187 188 0 0
0.0024 0.1786 -0.8713 0.987 0.138 -0.080 205 205 203 0 0
-0.0840 0.0582 -0.3716 -0.038 0.999 -0.016 108 95 68 0 0
-0.0422 0.1168 -0.4958 0.352 0.873 0.339 78 63 39 0 0
-0.0391 0.1207 -0.5331 0.422 0.904 0.071 76 56 32 0 0
-0.0390 0.1208 -0.5367 0.506 0.856 0.104 92 75 49 0 0
-0.0389 0.1209 -0.5421 0.512 0.858 0.049 115 95 64 0 0
-0.0391 0.1204 -0.5479 0.580 0.814 -0.005 121 104 71 0 0
-0.0394 0.1198 -0.5612 0.459 0.888 -0.035 143 126 93 0 0
-0.0806 0.0590 -0.6326 -0.074 0.816 0.573 69 62 52 0 0
-0.0451 0.1101 -0.6569 0.488 0.489 0.723 87 74 57 0 0
-0.0445 0.1109 -0.6583 0.528 0.616 0.585 69 55 41 0 0
-0.0419 0.1144 -0.6817 0.375 0.886 0.274 73 61 43 0 0
-0.0409 0.1157 -0.6928 0.348 0.755 0.556 58 48 38 0 0
-0.0292 0.1322 -0.7133 -0.005 0.471 0.882 99 87 71 0 0
-0.0206 0.1446 -0.7227 0.482 0.790 0.378 107 94 68 0 0
-0.0204 0.1448 -0.7246 0.199 0.844 0.498 105 94 69 0 0
-0.0199 0.1455 -0.7260 0.199 0.844 0.498 73 61 37 0 0
-0.0196 0.1459 -0.7277 0.348 0.922 0.171 102 88 57 0 0
-0.0195 0.1460 -0.7296 0.459 0.888 -0.042 142 126 88 0 0
-0.0193 0.1462 -0.7335 0.352 0.932 -0.091 139 120 83 0 0
-0.0198 0.1455 -0.7363 0.125 0.962 -0.242 141 126 89 0 0
-0.0167 0.1486 -0.8283 0.526 0.718 0.457 114 100 69 0 0
-0.0144 0.1517 -0.8404 0.523 0.752 0.401 108 92 59 0 0
-0.0105 0.1570 -0.8655 0.132 0.635 0.761 136 135 131 0 0
-0.0794 0.0625 -0.3423 0.550 0.645 0.530 191 177 146 0 0
-0.0787 0.0635 -0.3453 0.469 0.816 0.338 84 66 41 0 0
-0.0373 0.1202 -0.5493 0.505 0.863 0.022 111 94 61 0 0
-0.0373 0.1201 -0.5511 0.480 0.877 -0.022 111 96 63 0 0
-0.0392 0.1171 -0.5681 0.307 0.885 -0.349 112 95 71 0 0
-0.0788 0.0586 -0.6322 -0.027 0.951 0.307 69 62 52 0 0
-0.0554 0.0923 -0.6419 0.263 0.787 0.558 51 44 36 0 0
-0.0552 0.0926 -0.6436 0.772 0.537 0.340 52 45 37 0 0
-0.0546 0.0935 -0.6450 0.850 0.244 0.467 56 48 40 0 0
-0.0489 0.1016 -0.6508 0.214 0.919 0.332 64 50 39 0 0
-0.0465 0.1051 -0.6561 0.326 0.767 0.552 37 24 15 0 0
-0.0438 0.1090 -0.6571 0.488 0.489 0.723 84 72 59 0 0
-0.0432 0.1098 -0.6584 0.528 0.616 0.585 84 71 57 0 0
-0.0427 0.1105 -0.6599 0.540 0.649 0.536 69 55 44 0 0
-0.0422 0.1112 -0.6613 0.540 0.649 0.536 71 58 44 0 0
-0.0422 0.1111 -0.6654 0.334 0.823 0.459 43 33 26 0 0
-0.0398 0.1143 -0.6911 0.432 0.833 0.345 44 34 25 0 0
-0.0385 0.1161 -0.6957 0.419 0.680 0.602 23 17 14 0 0
-0.0358 0.1197 -0.7111 0.368 0.190 0.910 60 51 44 0 0
-0.0299 0.1282 -0.7139 0.158 0.378 0.912 85 74 62 0 0
-0.0288 0.1297 -0.7146 -0.077 0.397 0.914 79 69 57 0 0
-0.0195 0.1431 -0.7212 0.322 0.760 0.564 150 135 106 0 0
-0.0182 0.1450 -0.7276 0.430 0.898 0.091 93 80 53 0 0
-0.0181 0.1451 -0.7296 0.148 0.970 0.191 138 122 88 0 0
-0.0315 0.1247 -0.7863 0.317 0.668 0.673 41 29 19 0 0
-0.0109 0.1536 -0.8504 0.578 0.709 0.404 140 125 94 0 0
-0.0777 0.0622 -0.3438 0.550 0.645 0.530 151 133 106 0 0
-0.0770 0.0631 -0.3467 0.485 0.794 0.367 93 76 52 0 0
-0.0801 0.0583 -0.3673 0.162 0.966 -0.199 96 85 63 0 0
-0.0360 0.1193 -0.5474 0.497 0.859 0.126 111 92 60 0 0
-0.0358 0.1195 -0.5491 0.497 0.859 0.126 121 104 71 0 0
-0.0358 0.1194 -0.5528 0.528 0.848 -0.053 125 108 75 0 0
-0.0376 0.1166 -0.5677 0.408 0.851 -0.332 118 103 78 0 0
-0.0689 0.0698 -0.6357 0.182 0.297 0.937 73 66 56 0 0
-0.0542 0.0911 -0.6400 0.394 0.564 0.726 67 60 52 0 0
-0.0538 0.0916 -0.6417 0.263 0.787 0.558 57 50 42 0 0
-0.0534 0.0923 -0.6452 0.608 0.625 0.490 48 40 33 0 0
-0.0474 0.1008 -0.6507 0.596 0.665 0.450 75 62 51 0 0
-0.0462 0.1026 -0.6513 0.401 0.724 0.562 53 42 29 0 0
-0.0453 0.1039 -0.6543 0.564 0.765 0.311 81 71 57 0 0
-0.0382 0.1135 -0.6909 0.246 0.923 0.297 38 29 23 0 0
-0.0379 0.1139 -0.6926 0.647 0.640 0.414 36 28 21 0 0
-0.0371 0.1149 -0.7061 0.619 0.712 0.330 19 16 11 0 0
-0.0161 0.1449 -0.7309 0.135 0.972 0.194 133 114 80 0 0
-0.0159 0.1452 -0.7327 0.328 0.943 -0.050 154 136 96 0 0
-0.0162 0.1447 -0.7352 0.189 0.966 -0.176 148 132 97 0 0
-0.0297 0.1242 -0.7836 0.667 0.650 0.365 27 19 11 0 0
-0.0294 0.1247 -0.7853 0.363 0.863 0.351 30 21 12 0 0
-0.0291 0.1251 -0.7871 0.237 0.791 0.564 27 18 7 0 0
-0.0185 0.1401 -0.8111 0.450 0.678 0.582 95 82 65 0 0
-0.0180 0.1408 -0.8126 0.321 0.707 0.630 60 46 34 0 0
-0.0151 0.1448 -0.8215 0.427 0.887 0.176 106 91 58 0 0
-0.0085 0.1539 -0.8557 0.392 0.841 0.374 106 98 71 0 0
-0.0081 0.1545 -0.8573 0.392 0.841 0.374 73 70 53 0 0
-0.1171 0.0031 -0.2696 -0.527 0.551 0.647 177 176 173 0 0
-0.0453 0.1043 -0.4677 0.382 0.818 0.430 123 102 78 0 0
-0.0378 0.1147 -0.4936 0.520 0.780 0.348 67 48 33 0 0
-0.0345 0.1186 -0.5510 0.480 0.877 -0.022 115 100 67 0 0
-0.0345 0.1185 -0.5528 0.480 0.877 -0.022 122 105 72 0 0
-0.0345 0.1183 -0.5604 0.370 0.914 -0.165 126 107 75 0 0
-0.0680 0.0686 -0.6078 0.702 0.172 -0.691 60 51 38 0 0
-0.0745 0.0586 -0.6308 -0.058 0.753 0.655 67 60 50 0 0
-0.0736 0.0600 -0.6319 -0.087 0.717 0.691 59 52 42 0 0
-0.0674 0.0689 -0.6355 0.167 0.463 0.870 70 63 53 0 0
-0.0533 0.0894 -0.6406 0.430 0.835 0.343 54 47 39 0 0
-0.0521 0.0911 -0.6413 0.309 0.663 0.682 53 46 38 0 0
-0.0461 0.0997 -0.6508 0.556 0.747 0.364 82 72 60 0 0
-0.0449 0.1015 -0.6514 0.544 0.696 0.468 52 42 31 0 0
-0.0444 0.1021 -0.6529 0.446 0.800 0.402 57 49 37 0 0
-0.0398 0.1086 -0.6639 0.733 0.565 0.378 67 56 40 0 0
-0.0371 0.1125 -0.6708 0.303 0.909 0.285 61 53 36 0 0
-0.0374 0.1120 -0.6772 0.487 0.856 0.175 71 60 43 0 0
-0.0366 0.1129 -0.6907 0.391 0.910 0.136 24 15 13 0 0
-0.0366 0.1129 -0.6927 0.372 0.827 0.421 24 16 13 0 0
-0.0240 0.1308 -0.7141 0.306 0.106 0.946 82 74 65 0 0
-0.0143 0.1447 -0.7283 0.383 0.903 0.196 98 84 60 0 0
-0.0141 0.1450 -0.7301 0.252 0.941 0.227 137 117 85 0 0
-0.0285 0.1230 -0.7839 0.667 0.650 0.365 55 46 35 0 0
-0.0170 0.1392 -0.8110 0.419 0.736 0.532 97 84 66 0 0
-0.0090 0.1504 -0.8365 0.531 0.800 0.279 109 93 58 0 0
-0.0077 0.1520 -0.8523 0.475 0.818 0.324 172 157 126 0 0
-0.0070 0.1530 -0.8556 0.393 0.764 0.511 123 114 84 0 0
-0.0065 0.1537 -0.8571 0.348 0.790 0.505 88 82 64 0 0
-0.0074 0.1523 -0.8652 0.109 0.828 0.551 79 74 64 0 0
-0.0066 0.1534 -0.8663 0.444 0.803 0.398 123 119 113 0 0
-0.0060 0.1543 -0.8675 0.561 0.669 0.488 150 149 148 0 0
0.0005 0.1637 -0.8638 0.185 -0.029 0.982 185 184 182 0 0
-0.0408 0.1079 -0.4740 0.528 0.685 0.501 81 68 48 0 0
-0.0401 0.1090 -0.4769 0.561 0.725 0.398 86 74 57 0 0
-0.0397 0.1094 -0.4785 0.436 0.828 0.354 86 74 58 0 0
-0.0370 0.1132 -0.4904 0.523 0.776 0.351 60 46 33 0 0
-0.0365 0.1138 -0.4936 0.520 0.780 0.348 64 45 31 0 0
-0.0332 0.1176 -0.5436 0.355 0.934 0.025 107 87 55 0 0
-0.0717 0.0596 -0.6294 0.295 0.739 0.606 63 54 45 0 0
-0.0712 0.0603 -0.6309 0.132 0.507 0.852 56 48 39 0 0
-0.0702 0.0618 -0.6319 0.084 0.585 0.807 68 61 53 0 0
-0.0693 0.0631 -0.6329 0.076 0.481 0.873 59 52 44 0 0
-0.0681 0.0647 -0.6338 -0.101 0.596 0.797 72 65 57 0 0
-0.0506 0.0903 -0.6412 0.394 0.751 0.530 57 49 42 0 0
-0.0447 0.0987 -0.6508 0.540 0.768 0.343 78 69 58 0 0
-0.0429 0.1013 -0.6528 0.446 0.800 0.402 42 36 24 0 0
-0.0425 0.1018 -0.6544 0.446 0.800 0.402 61 53 41 0 0
-0.0391 0.1067 -0.6626 0.678 0.649 0.346 72 63 47 0 0
-0.0359 0.1111 -0.6772 0.487 0.856 0.175 54 41 30 0 0
-0.0355 0.1116 -0.6808 0.487 0.856 0.175 72 58 43 0 0
-0.0350 0.1122 -0.6904 0.403 0.895 0.190 16 10 9 0 0
-0.0352 0.1118 -0.6927 0.533 0.542 0.649 23 19 16 0 0
-0.0350 0.1120 -0.6967 0.577 0.812 0.094 14 11 10 0 0
-0.0174 0.1374 -0.7156 0.238 0.826 0.511 169 153 122 0 0
-0.0049 0.1528 -0.8659 0.436 0.862 0.258 117 112 106 0 0
-0.0718 0.0621 -0.3527 0.427 0.904 -0.002 90 75 46 0 0
-0.0466 0.0967 -0.4620 0.286 0.790 0.542 149 133 107 0 0
-0.0461 0.0975 -0.4634 0.286 0.790 0.542 176 162 133 0 0
-0.0352 0.1129 -0.4936 0.520 0.780 0.348 67 47 32 0 0
-0.0318 0.1170 -0.5306 0.455 0.834 0.311 102 80 51 0 0
-0.0316 0.1173 -0.5322 0.402 0.893 0.204 96 75 48 0 0
-0.0716 0.0566 -0.6288 0.248 0.448 0.859 62 53 44 0 0
-0.0701 0.0588 -0.6292 0.449 0.622 0.642 57 48 39 0 0
-0.0686 0.0610 -0.6317 0.132 0.507 0.852 66 59 51 0 0
-0.0647 0.0667 -0.6337 -0.270 0.530 0.804 78 71 62 0 0
-0.0378 0.1055 -0.6628 0.561 0.771 0.303 40 31 20 0 0
-0.0342 0.1105 -0.6789 0.424 0.893 0.153 40 31 20 0 0
-0.0338 0.1111 -0.6825 0.603 0.775 0.189 73 61 49 0 0
-0.0334 0.1115 -0.6902 0.403 0.895 0.190 17 13 11 0 0
-0.0328 0.1122 -0.6937 0.421 0.837 0.348 10 9 6 0 0
-0.0338 0.1108 -0.6989 0.862 0.493 0.115 10 10 8 0 0
-0.0146 0.1385 -0.7179 0.430 0.761 0.486 64 48 30 0 0
-0.0133 0.1404 -0.7203 0.397 0.659 0.639 81 63 37 0 0
-0.0257 0.1211 -0.7732 0.155 0.916 -0.369 39 30 22 0 0
-0.0100 0.1431 -0.8204 0.490 0.808 0.329 94 80 51 0 0
-0.0092 0.1442 -0.8257 0.360 0.914 0.187 83 68 40 0 0
-0.0093 0.1440 -0.8281 0.190 0.893 0.408 108 95 63 0 0
-0.0051 0.1499 -0.8438 0.624 0.738 0.256 141 127 96 0 0
-0.0034 0.1519 -0.8657 0.436 0.862 0.258 111 107 100 0 0
0.0028 0.1610 -0.8647 0.154 -0.160 0.975 181 183 180 0 0
0.0068 0.1668 -0.8649 0.406 0.886 0.224 195 195 195 0 0
0.0073 0.1676 -0.8663 -0.061 0.921 0.385 199 199 197 0 0
-0.0853 0.0406 -0.2986 0.497 0.721 0.484 115 98 70 0 0
-0.0714 0.0600 -0.3414 0.053 0.909 0.412 75 60 41 0 0
-0.0659 0.0675 -0.3703 -0.194 0.321 0.927 58 47 36 0 0
-0.0453 0.0959 -0.4620 0.454 0.798 0.396 153 137 111 0 0
-0.0445 0.0970 -0.4632 0.395 0.740 0.545 167 155 124 0 0
-0.0409 0.1022 -0.4691 0.364 0.714 0.598 143 126 97 0 0
-0.0308 0.1158 -0.5272 0.234 0.936 0.262 87 64 37 0 0
-0.0297 0.1173 -0.5316 0.336 0.918 0.209 102 81 54 0 0
-0.0683 0.0583 -0.6289 0.402 0.615 0.678 65 56 47 0 0
-0.0626 0.0666 -0.6330 -0.212 0.443 0.871 71 64 56 0 0
-0.0611 0.0688 -0.6335 -0.333 0.585 0.740 70 63 55 0 0
-0.0464 0.0903 -0.6438 0.231 0.598 0.767 65 57 50 0 0
-0.0443 0.0933 -0.6454 0.314 0.631 0.710 57 50 42 0 0
-0.0413 0.0976 -0.6482 0.551 0.739 0.388 62 53 44 0 0
-0.0363 0.1048 -0.6646 0.647 0.712 0.273 43 35 25 0 0
-0.0324 0.1100 -0.6825 0.603 0.775 0.189 42 33 26 0 0
-0.0327 0.1093 -0.6994 0.790 0.593 0.157 9 9 9 0 0
-0.0124 0.1368 -0.8085 0.207 0.926 0.317 63 50 32 0 0
-0.0035 0.1490 -0.8436 0.251 0.911 0.326 132 117 83 0 0
-0.0005 0.1530 -0.8658 0.481 0.759 0.438 139 137 132 0 0
-0.1041 0.0107 -0.2629 -0.229 0.960 0.162 161 159 154 0 0
-0.0427 0.0968 -0.4645 0.498 0.785 0.368 177 160 131 0 0
-0.0420 0.0977 -0.4658 0.498 0.749 0.437 202 185 155 0 0
-0.0331 0.1103 -0.4887 0.552 0.749 0.367 51 37 26 0 0
-0.0301 0.1131 -0.5670 0.513 0.801 -0.310 117 101 74 0 0
-0.0669 0.0573 -0.6289 0.380 0.599 0.705 64 56 46 0 0
-0.0589 0.0690 -0.6326 -0.333 0.585 0.740 72 64 57 0 0
-0.0398 0.0968 -0.6500 0.661 0.664 0.349 82 76 65 0 0
-0.0355 0.1028 -0.6654 0.534 0.816 0.222 29 22 13 0 0
-0.0347 0.1040 -0.6665 0.647 0.712 0.273 28 22 14 0 0
-0.0347 0.1040 -0.6685 0.483 0.742 0.464 44 37 28 0 0
-0.0281 0.1127 -0.7121 0.455 0.397 0.797 45 41 39 0 0
-0.0090 0.1403 -0.7370 0.458 0.884 -0.089 122 107 66 0 0
-0.0088 0.1406 -0.7388 0.470 0.881 0.056 125 111 77 0 0
-0.0196 0.1241 -0.7643 0.204 0.864 -0.460 73 60 48 0 0
-0.0221 0.1201 -0.7787 0.298 0.906 0.302 41 33 23 0 0
-0.0186 0.1250 -0.7869 0.062 0.933 0.355 47 34 19 0 0
-0.0078 0.1403 -0.8169 0.337 0.816 0.470 65 51 26 0 0
-0.0073 0.1410 -0.8184 0.337 0.816 0.470 68 52 28 0 0
-0.0059 0.1429 -0.8229 0.347 0.771 0.534 110 92 61 0 0
-0.0019 0.1483 -0.8433 0.446 0.875 0.190 138 122 85 0 0
-0.1058 0.0053 -0.2625 -0.383 0.568 0.729 173 174 173 0 0
-0.1040 0.0079 -0.2634 -0.399 0.579 0.711 150 147 136 0 0
-0.0824 0.0392 -0.2967 0.206 0.950 0.233 175 158 122 0 0
-0.0464 0.0894 -0.4243 0.201 0.872 0.447 89 74 53 0 0
-0.0428 0.0938 -0.4604 0.437 0.729 0.527 84 68 46 0 0
-0.0417 0.0953 -0.4630 0.566 0.671 0.479 131 114 85 0 0
-0.0331 0.1077 -0.4844 0.413 0.800 0.435 92 79 63 0 0
-0.0321 0.1090 -0.4872 0.530 0.691 0.492 92 79 65 0 0
-0.0288 0.1134 -0.5131 0.362 0.836 0.411 86 65 38 0 0
-0.0281 0.1141 -0.5235 0.367 0.832 0.416 94 73 46 0 0
-0.0277 0.1146 -0.5249 0.405 0.821 0.403 92 72 45 0 0
-0.0273 0.1152 -0.5264 0.405 0.821 0.403 92 72 45 0 0
-0.0279 0.1136 -0.5604 0.702 0.711 -0.043 124 108 75 0 0
-0.0283 0.1129 -0.5646 0.649 0.703 -0.292 128 112 82 0 0
-0.0577 0.0677 -0.6328 0.227 0.389 0.893 70 61 54 0 0
-0.0386 0.0956 -0.6502 0.485 0.717 0.500 82 75 65 0 0
-0.0301 0.1073 -0.6832 0.587 0.806 0.078 20 17 16 0 0
-0.0264 0.1121 -0.7138 0.516 0.340 0.786 53 48 45 0 0
-0.0178 0.1247 -0.7173 0.476 0.797 0.373 72 64 56 0 0
-0.0104 0.1356 -0.7179 0.484 0.742 0.463 66 49 34 0 0
-0.0163 0.1258 -0.7640 -0.082 0.982 -0.171 66 53 37 0 0
-0.0130 0.1300 -0.7982 0.330 0.799 0.503 71 54 35 0 0
-0.0090 0.1355 -0.8078 0.313 0.852 0.421 56 43 27 0 0
-0.0067 0.1388 -0.8174 0.392 0.770 0.503 75 60 38 0 0
-0.1012 0.0092 -0.2627 -0.254 0.582 0.772 166 158 144 0 0
-0.0324 0.1059 -0.4814 0.504 0.691 0.519 95 82 65 0 0
-0.0282 0.1116 -0.5011 0.376 0.871 0.315 79 60 37 0 0
-0.0276 0.1122 -0.5114 0.490 0.859 0.148 84 63 36 0 0
-0.0273 0.1127 -0.5129 0.362 0.836 0.411 83 62 35 0 0
-0.0272 0.1127 -0.5147 0.579 0.798 0.168 83 62 35 0 0
-0.0260 0.1141 -0.5337 0.534 0.839 0.106 103 84 56 0 0
-0.0261 0.1137 -0.5413 0.481 0.840 0.251 103 86 57 0 0
-0.0259 0.1140 -0.5429 0.481 0.840 0.251 129 110 77 0 0
-0.0266 0.1125 -0.5643 0.494 0.824 -0.277 127 111 81 0 0
-0.0673 0.0505 -0.6282 -0.033 0.717 0.696 50 43 33 0 0
-0.0524 0.0724 -0.6368 -0.066 0.876 0.478 71 62 53 0 0
-0.0507 0.0748 -0.6370 0.266 0.823 0.502 58 49 40 0 0
-0.0439 0.0847 -0.6417 0.535 0.602 0.593 72 64 53 0 0
-0.0434 0.0856 -0.6431 0.535 0.602 0.593 64 55 45 0 0
-0.0425 0.0869 -0.6441 0.607 0.340 0.718 63 54 46 0 0
-0.0387 0.0924 -0.6479 0.653 0.591 0.474 63 56 49 0 0
-0.0375 0.0942 -0.6506 0.486 0.633 0.602 72 65 55 0 0
-0.0330 0.1005 -0.6617 0.452 0.799 0.397 41 32 23 0 0
-0.0311 0.1032 -0.6696 0.599 0.619 0.508 26 21 13 0 0
-0.0272 0.1079 -0.7125 0.499 0.287 0.818 49 44 41 0 0
-0.0246 0.1116 -0.7134 0.163 0.322 0.933 56 51 48 0 0
-0.0164 0.1238 -0.7173 0.323 0.855 0.406 69 59 52 0 0
-0.0067 0.1376 -0.7398 0.491 0.770 -0.408 102 88 57 0 0
-0.0177 0.1202 -0.7831 0.561 0.746 0.359 59 47 32 0 0
-0.0136 0.1262 -0.7903 0.610 0.712 0.349 65 51 36 0 0
-0.0134 0.1264 -0.7922 0.388 0.815 0.429 77 64 48 0 0
-0.0127 0.1274 -0.7933 0.401 0.769 0.497 62 48 33 0 0
-0.0119 0.1285 -0.7944 0.663 0.658 0.356 50 36 22 0 0
-0.0117 0.1287 -0.7963 0.421 0.790 0.446 70 57 40 0 0
-0.0114 0.1292 -0.7980 0.330 0.799 0.503 108 96 76 0 0
-0.0109 0.1298 -0.7996 0.434 0.849 0.303 93 79 57 0 0
-0.0106 0.1303 -0.8012 0.466 0.837 0.286 83 68 42 0 0
-0.0094 0.1319 -0.8083 0.476 0.805 0.354 70 54 34 0 0
-0.0090 0.1325 -0.8098 0.418 0.855 0.305 65 51 34 0 0
0.0009 0.1464 -0.8412 0.456 0.873 0.172 118 102 69 0 0
0.0031 0.1491 -0.8602 0.252 0.930 0.267 51 50 42 0 0
0.0035 0.1497 -0.8640 0.299 0.915 0.272 78 75 66 0 0
-0.0335 0.1016 -0.4744 0.618 0.642 0.453 81 68 52 0 0
-0.0253 0.1124 -0.5234 0.471 0.856 0.215 108 87 60 0 0
-0.0250 0.1129 -0.5285 0.484 0.835 0.263 99 78 51 0 0
-0.0249 0.1130 -0.5303 0.652 0.707 0.273 96 75 48 0 0
-0.0246 0.1133 -0.5337 0.460 0.883 0.095 105 85 57 0 0
-0.0495 0.0735 -0.6353 0.402 0.826 0.394 67 58 49 0 0
-0.0420 0.0845 -0.6432 0.535 0.602 0.593 71 65 53 0 0
-0.0319 0.0991 -0.6600 0.508 0.824 0.249 51 44 37 0 0
-0.0308 0.1005 -0.6669 0.465 0.819 0.337 42 34 25 0 0
-0.0281 0.1040 -0.6924 0.566 0.742 -0.360 12 11 9 0 0
-0.0281 0.1038 -0.6987 0.418 0.906 0.067 10 8 9 0 0
-0.0148 0.1231 -0.7171 0.323 0.855 0.406 73 64 57 0 0
-0.0056 0.1367 -0.7214 0.211 0.794 0.570 136 120 89 0 0
-0.0157 0.1201 -0.7845 0.490 0.802 0.341 34 22 13 0 0
-0.0111 0.1266 -0.7932 0.480 0.780 0.402 44 33 22 0 0
-0.0018 0.1397 -0.8211 0.373 0.774 0.512 97 82 49 0 0
0.0026 0.1459 -0.8386 0.432 0.897 0.091 129 114 75 0 0
0.0069 0.1518 -0.8541 0.180 0.777 0.603 131 124 100 0 0
0.0074 0.1522 -0.8646 0.171 0.405 0.898 144 143 138 0 0
-0.0957 0.0115 -0.2631 0.173 0.404 0.898 164 151 126 0 0
-0.0773 0.0382 -0.2895 0.444 0.768 0.462 90 75 53 0 0
-0.0621 0.0597 -0.3363 0.494 0.757 0.429 90 75 50 0 0
-0.0405 0.0895 -0.4263 0.172 0.944 0.280 101 86 63 0 0
-0.0245 0.1110 -0.5146 0.534 0.831 0.154 84 63 37 0 0
-0.0251 0.1100 -0.5171 0.651 0.684 0.328 89 68 41 0 0
-0.0235 0.1124 -0.5192 0.372 0.808 0.457 94 73 46 0 0
-0.0233 0.1123 -0.5319 0.644 0.634 0.428 96 76 49 0 0
-0.0234 0.1120 -0.5375 0.277 0.961 0.012 113 96 64 0 0
-0.0305 0.0981 -0.6600 0.505 0.832 0.230 29 20 13 0 0
-0.0293 0.0997 -0.6668 0.465 0.819 0.337 52 43 34 0 0
-0.0261 0.1040 -0.6876 0.523 0.828 0.204 11 11 11 0 0
-0.0265 0.1033 -0.6922 0.514 0.856 -0.054 11 11 10 0 0
-0.0266 0.1030 -0.6986 0.356 0.934 -0.043 8 8 8 0 0
-0.0222 0.1090 -0.7140 0.432 0.220 0.875 54 49 46 0 0
-0.0132 0.1225 -0.7168 0.189 0.826 0.532 68 60 52 0 0
-0.0119 0.1243 -0.7172 0.167 0.090 0.982 66 58 49 0 0
-0.0017 0.1392 -0.7325 0.330 0.944 -0.015 110 94 65 0 0
-0.0142 0.1191 -0.7844 0.490 0.802 0.341 25 15 9 0 0
-0.0119 0.1224 -0.7878 0.631 0.575 0.521 46 33 24 0 0
-0.0114 0.1231 -0.7892 0.431 0.754 0.496 34 21 13 0 0
-0.0110 0.1238 -0.7907 0.431 0.754 0.496 32 19 10 0 0
-0.0068 0.1297 -0.8021 0.376 0.813 0.444 101 86 62 0 0
-0.0963 0.0078 -0.2573 0.436 0.683 0.586 179 178 175 0 0
-0.0944 0.0105 -0.2631 0.243 0.263 0.934 144 132 113 0 0
-0.0926 0.0131 -0.2640 -0.050 0.376 0.925 142 128 107 0 0
-0.0388 0.0892 -0.4243 0.343 0.938 0.052 112 98 70 0 0
-0.0356 0.0929 -0.4658 0.274 0.689 0.671 126 110 85 0 0
-0.0349 0.0939 -0.4671 0.274 0.689 0.671 143 128 97 0 0
-0.0342 0.0948 -0.4683 0.274 0.689 0.671 128 113 84 0 0
-0.0317 0.0985 -0.4733 0.462 0.799 0.385 106 91 73 0 0
-0.0311 0.0994 -0.4746 0.634 0.692 0.346 91 77 59 0 0
-0.0299 0.1011 -0.4772 0.521 0.790 0.325 92 79 61 0 0
-0.0297 0.1013 -0.4788 0.486 0.857 0.168 92 79 61 0 0
-0.0249 0.1080 -0.4998 0.561 0.823 0.091 91 74 48 0 0
-0.0240 0.1090 -0.5081 0.608 0.755 0.244 92 72 45 0 0
-0.0238 0.1093 -0.5097 0.608 0.755 0.244 84 64 37 0 0
-0.0235 0.1096 -0.5113 0.608 0.755 0.244 89 69 42 0 0
-0.0233 0.1100 -0.5129 0.457 0.843 0.285 94 72 48 0 0
-0.0233 0.1099 -0.5184 0.354 0.673 0.649 94 73 44 0 0
-0.0218 0.1116 -0.5336 0.658 0.752 0.026 95 78 49 0 0
-0.0218 0.1116 -0.5354 0.844 0.496 0.201 108 91 61 0 0
-0.0217 0.1116 -0.5372 0.752 0.655 0.073 114 98 68 0 0
-0.0217 0.1116 -0.5390 0.577 0.816 0.031 119 102 73 0 0
-0.0219 0.1112 -0.5448 0.529 0.844 -0.089 101 88 58 0 0
-0.0456 0.0731 -0.6361 0.189 0.789 0.584 81 72 63 0 0
-0.0372 0.0854 -0.6470 0.569 0.504 0.650 55 48 44 0 0
-0.0290 0.0973 -0.6599 0.544 0.813 0.205 33 24 18 0 0
-0.0288 0.0976 -0.6617 0.505 0.832 0.230 48 37 31 0 0
-0.0280 0.0986 -0.6670 0.446 0.788 0.425 59 50 41 0 0
-0.0276 0.0992 -0.6685 0.446 0.788 0.425 59 51 42 0 0
-0.0244 0.1034 -0.6873 0.471 0.828 0.304 8 8 8 0 0
-0.0245 0.1032 -0.6895 0.562 0.809 0.174 10 10 10 0 0
-0.0250 0.1024 -0.6921 0.584 0.805 -0.104 9 9 9 0 0
-0.0254 0.1016 -0.6989 0.468 0.872 -0.139 8 8 8 0 0
-0.0206 0.1083 -0.7138 0.208 0.293 0.933 58 53 50 0 0
-0.0112 0.1223 -0.7160 0.018 0.759 0.651 67 59 51 0 0
-0.0084 0.1245 -0.7912 0.376 0.813 0.444 69 57 40 0 0
-0.0066 0.1270 -0.7973 0.376 0.813 0.444 82 71 50 0 0
-0.0065 0.1271 -0.7994 0.520 0.826 0.216 86 74 50 0 0
-0.0052 0.1289 -0.8019 0.341 0.824 0.452 93 81 57 0 0
0.0016 0.1386 -0.8202 0.234 0.952 0.199 136 119 80 0 0
0.0029 0.1404 -0.8248 0.189 0.865 0.464 104 92 67 0 0
0.0069 0.1459 -0.8452 0.628 0.749 0.212 143 127 87 0 0
-0.0972 0.0036 -0.2549 -0.297 0.692 0.658 176 174 170 0 0
-0.0961 0.0052 -0.2561 -0.297 0.694 0.656 166 163 157 0 0
-0.0955 0.0060 -0.2575 -0.384 0.785 0.486 150 146 137 0 0
-0.0948 0.0071 -0.2589 -0.458 0.818 0.347 143 137 127 0 0
-0.0615 0.0550 -0.3307 0.367 0.852 0.373 162 147 115 0 0
-0.0606 0.0563 -0.3335 0.304 0.747 0.592 95 80 54 0 0
-0.0375 0.0884 -0.4225 0.167 0.985 0.051 101 85 58 0 0
-0.0374 0.0885 -0.4241 0.251 0.965 0.073 114 100 73 0 0
-0.0299 0.0983 -0.4747 0.634 0.692 0.346 105 89 70 0 0
-0.0286 0.1000 -0.4790 0.424 0.760 0.492 101 90 70 0 0
-0.0281 0.1008 -0.4803 0.485 0.714 0.504 99 86 68 0 0
-0.0276 0.1015 -0.4817 0.485 0.714 0.504 87 74 56 0 0
-0.0263 0.1034 -0.4859 0.588 0.616 0.525 98 83 65 0 0
-0.0259 0.1039 -0.4874 0.650 0.603 0.462 97 83 64 0 0
-0.0255 0.1045 -0.4888 0.650 0.603 0.462 98 83 63 0 0
-0.0231 0.1075 -0.5049 0.679 0.715 0.168 87 67 40 0 0
-0.0230 0.1077 -0.5066 0.592 0.798 0.116 84 66 38 0 0
-0.0212 0.1097 -0.5269 0.354 0.933 0.061 102 82 55 0 0
-0.0207 0.1103 -0.5356 0.544 0.826 -0.148 104 87 61 0 0
-0.0203 0.1108 -0.5371 0.695 0.715 -0.079 107 91 64 0 0
-0.0566 0.0537 -0.6292 -0.146 0.446 0.883 58 51 42 0 0
-0.0447 0.0714 -0.6367 0.519 0.518 0.680 86 77 68 0 0
-0.0386 0.0803 -0.6421 0.372 0.892 0.256 75 69 58 0 0
-0.0359 0.0842 -0.6472 0.569 0.504 0.650 50 44 41 0 0
-0.0262 0.0981 -0.6685 0.508 0.824 0.249 55 46 37 0 0
-0.0230 0.1025 -0.6872 0.471 0.828 0.304 7 7 7 0 0
-0.0232 0.1018 -0.6959 0.265 0.952 -0.154 8 8 8 0 0
-0.0234 0.1015 -0.6982 0.265 0.952 -0.154 8 8 8 0 0
-0.0227 0.1025 -0.6994 0.310 0.841 -0.443 8 8 8 0 0
-0.0096 0.1217 -0.7157 0.137 0.747 0.650 71 62 56 0 0
-0.0115 0.1168 -0.7848 -0.029 0.903 0.430 57 46 32 0 0
0.0076 0.1438 -0.8443 0.297 0.938 0.181 147 130 89 0 0
0.0087 0.1453 -0.8470 0.571 0.813 0.114 119 104 70 0 0
0.0095 0.1460 -0.8661 0.304 0.917 0.257 87 83 71 0 0
-0.0982 -0.0008 -0.2525 -0.442 0.564 0.697 177 177 171 0 0
-0.0660 0.0461 -0.3072 0.456 0.882 0.121 29 19 8 0 0
-0.0561 0.0599 -0.3418 0.477 0.815 0.328 95 79 60 0 0
-0.0557 0.0605 -0.3432 0.385 0.824 0.415 94 79 57 0 0
-0.0355 0.0884 -0.4289 0.444 0.866 0.229 60 45 29 0 0
-0.0334 0.0908 -0.4519 0.627 0.630 0.458 75 63 43 0 0
-0.0286 0.0973 -0.4748 0.634 0.692 0.346 100 83 63 0 0
-0.0269 0.0998 -0.4804 0.442 0.574 0.690 93 81 61 0 0
-0.0264 0.1004 -0.4818 0.544 0.700 0.463 89 76 57 0 0
-0.0255 0.1017 -0.4829 0.392 0.801 0.453 83 70 51 0 0
-0.0242 0.1036 -0.4871 0.400 0.753 0.522 100 86 65 0 0
-0.0235 0.1045 -0.4883 0.648 0.580 0.493 100 85 64 0 0
-0.0225 0.1060 -0.4927 0.441 0.786 0.433 80 64 41 0 0
-0.0221 0.1066 -0.4942 0.498 0.824 0.270 81 63 40 0 0
-0.0222 0.1064 -0.4961 0.459 0.778 0.429 82 63 39 0 0
-0.0214 0.1070 -0.5136 0.474 0.843 0.252 91 70 45 0 0
-0.0194 0.1095 -0.5301 0.560 0.828 0.032 99 80 51 0 0
-0.0369 0.0798 -0.6418 0.584 0.463 0.667 59 52 45 0 0
-0.0360 0.0810 -0.6448 0.522 0.386 0.760 62 58 51 0 0
-0.0319 0.0871 -0.6503 0.392 0.730 0.560 34 29 26 0 0
-0.0218 0.1011 -0.6896 0.688 0.712 0.141 6 6 6 0 0
-0.0213 0.1016 -0.6932 0.746 0.518 0.418 7 7 7 0 0
-0.0212 0.1018 -0.6951 0.377 0.922 -0.089 7 7 7 0 0
-0.0226 0.0995 -0.7011 0.541 0.728 -0.421 7 7 7 0 0
-0.0168 0.1079 -0.7166 0.519 0.127 0.845 53 48 44 0 0
-0.0121 0.1148 -0.7148 0.261 0.030 0.965 59 54 51 0 0
-0.0110 0.1166 -0.7153 0.235 0.132 0.963 61 55 51 0 0
-0.0079 0.1212 -0.7154 0.137 0.747 0.650 64 56 50 0 0
0.0046 0.1368 -0.8245 0.379 0.888 0.259 96 83 57 0 0
0.0089 0.1426 -0.8445 0.001 0.973 0.230 146 128 89 0 0
-0.0970 -0.0018 -0.2509 -0.442 0.564 0.697 177 177 173 0 0
-0.0571 0.0557 -0.3347 0.412 0.801 0.435 156 145 116 0 0
-0.0548 0.0591 -0.3417 0.494 0.760 0.423 109 92 69 0 0
-0.0544 0.0596 -0.3432 0.494 0.760 0.423 121 105 81 0 0
-0.0337 0.0884 -0.4181 0.510 0.858 0.059 56 38 24 0 0
-0.0332 0.0884 -0.4458 0.462 0.830 0.311 79 67 45 0 0
-0.0322 0.0896 -0.4521 0.283 0.870 0.403 58 42 26 0 0
-0.0285 0.0947 -0.4722 0.584 0.556 0.591 120 106 81 0 0
-0.0251 0.0995 -0.4818 0.510 0.704 0.494 100 88 69 0 0
-0.0244 0.1005 -0.4830 0.285 0.818 0.500 89 77 58 0 0
-0.0208 0.1055 -0.4961 0.478 0.785 0.395 82 63 38 0 0
-0.0202 0.1060 -0.5119 0.471 0.842 0.262 90 70 45 0 0
-0.0607 0.0413 -0.6223 0.337 0.550 0.764 29 25 18 0 0
-0.0415 0.0699 -0.6363 0.280 0.639 0.716 81 74 64 0 0
-0.0238 0.0956 -0.6670 0.480 0.845 0.234 57 48 41 0 0
-0.0213 0.0990 -0.6824 0.651 0.733 0.195 12 12 12 0 0
-0.0209 0.0995 -0.6840 0.510 0.832 0.221 10 10 10 0 0
-0.0206 0.0999 -0.6858 0.472 0.867 0.159 5 5 5 0 0
-0.0205 0.1000 -0.6897 0.662 0.747 0.070 5 5 5 0 0
-0.0209 0.0990 -0.6987 0.448 0.782 -0.434 7 7 7 0 0
-0.0145 0.1082 -0.7155 -0.326 0.527 0.784 52 47 44 0 0
0.0017 0.1325 -0.7189 0.379 0.708 0.595 125 108 82 0 0
0.0038 0.1354 -0.7244 0.408 0.791 0.456 113 97 75 0 0
0.0049 0.1344 -0.8108 0.503 0.803 0.319 89 72 53 0 0
0.0089 0.1398 -0.8333 0.451 0.847 0.280 96 82 50 0 0
0.0110 0.1427 -0.8434 0.332 0.928 0.168 137 120 85 0 0
0.0112 0.1429 -0.8453 0.332 0.928 0.168 151 135 100 0 0
-0.0954 -0.0024 -0.2491 -0.357 0.561 0.747 178 177 175 0 0
-0.0740 0.0291 -0.2777 0.185 0.785 0.591 87 74 56 0 0
-0.0697 0.0353 -0.2888 0.193 0.843 0.502 141 123 98 0 0
-0.0589 0.0505 -0.3214 0.252 0.885 0.392 98 83 58 0 0
-0.0562 0.0542 -0.3332 0.440 0.794 0.419 133 117 87 0 0
-0.0530 0.0583 -0.3617 0.356 0.885 0.301 60 49 35 0 0
-0.0418 0.0751 -0.3648 -0.016 0.684 0.729 117 106 94 0 0
-0.0409 0.0764 -0.3659 0.495 0.566 0.659 129 115 94 0 0
-0.0324 0.0877 -0.4146 0.394 0.903 0.171 59 43 27 0 0
-0.0323 0.0877 -0.4163 0.549 0.806 0.222 51 35 20 0 0
-0.0322 0.0879 -0.4179 0.542 0.811 0.222 53 37 23 0 0
-0.0306 0.0896 -0.4395 0.583 0.764 0.278 81 66 43 0 0
-0.0266 0.0946 -0.4734 0.523 0.659 0.540 101 89 71 0 0
-0.0255 0.0961 -0.4761 0.360 0.699 0.617 108 95 75 0 0
-0.0227 0.1002 -0.4827 0.258 0.897 0.359 91 78 59 0 0
-0.0590 0.0407 -0.6220 -0.152 0.736 0.660 29 24 17 0 0
-0.0451 0.0614 -0.6317 0.483 0.330 0.811 68 59 50 0 0
-0.0439 0.0632 -0.6324 0.397 0.392 0.830 58 49 40 0 0
-0.0415 0.0668 -0.6338 0.280 0.612 0.739 82 75 66 0 0
-0.0409 0.0676 -0.6352 0.399 0.697 0.596 62 55 46 0 0
-0.0400 0.0690 -0.6363 0.445 0.489 0.750 94 87 78 0 0
-0.0383 0.0714 -0.6385 0.318 0.714 0.624 74 66 57 0 0
-0.0378 0.0722 -0.6399 0.431 0.810 0.397 88 80 72 0 0
-0.0284 0.0858 -0.6578 0.555 0.514 0.654 37 32 28 0 0
-0.0220 0.0949 -0.6809 0.442 0.822 0.359 18 16 14 0 0
-0.0199 0.0980 -0.6825 0.617 0.705 0.350 9 9 9 0 0
-0.0195 0.0985 -0.6840 0.512 0.809 0.288 9 9 9 0 0
-0.0192 0.0990 -0.6857 0.320 0.923 0.216 6 6 6 0 0
0.0055 0.1346 -0.7365 0.831 0.556 0.019 88 71 50 0 0
0.0055 0.1346 -0.7386 0.831 0.556 0.019 100 84 61 0 0
-0.0066 0.1149 -0.7817 0.239 0.860 0.452 39 31 15 0 0
0.0063 0.1335 -0.8108 0.503 0.803 0.319 78 61 42 0 0
0.0067 0.1340 -0.8124 0.504 0.853 0.136 80 64 41 0 0
0.0069 0.1340 -0.8188 0.543 0.782 0.304 95 80 50 0 0
0.0078 0.1353 -0.8240 0.440 0.859 0.264 78 66 40 0 0
0.0082 0.1358 -0.8257 0.446 0.857 0.259 91 80 59 0 0
0.0106 0.1392 -0.8330 0.506 0.744 0.437 101 90 57 0 0
0.0151 0.1453 -0.8572 0.502 0.859 0.101 101 95 68 0 0
-0.0929 -0.0015 -0.2485 -0.353 0.588 0.728 168 166 157 0 0
-0.0711 0.0306 -0.2802 0.066 0.796 0.601 44 27 19 0 0
-0.0579 0.0493 -0.3182 0.420 0.845 0.332 57 40 20 0 0
-0.0564 0.0513 -0.3274 0.521 0.764 0.381 146 133 99 0 0
-0.0559 0.0520 -0.3287 0.556 0.755 0.348 110 97 70 0 0
-0.0554 0.0526 -0.3302 0.528 0.805 0.272 81 64 43 0 0
-0.0553 0.0528 -0.3317 0.533 0.780 0.329 120 102 78 0 0
-0.0511 0.0586 -0.3495 0.472 0.810 0.347 69 56 39 0 0
-0.0391 0.0763 -0.3672 0.550 0.477 0.686 157 140 111 0 0
-0.0309 0.0871 -0.4145 0.394 0.903 0.171 67 51 34 0 0
-0.0309 0.0870 -0.4179 0.676 0.714 0.182 57 44 28 0 0
-0.0307 0.0872 -0.4195 0.676 0.714 0.182 59 46 30 0 0
-0.0294 0.0886 -0.4395 0.583 0.764 0.278 81 65 42 0 0
-0.0274 0.0905 -0.4716 0.321 0.662 0.678 57 43 31 0 0
-0.0253 0.0936 -0.4735 0.479 0.655 0.584 92 81 67 0 0
-0.0547 0.0439 -0.6252 -0.022 0.685 0.728 44 35 28 0 0
-0.0538 0.0452 -0.6263 -0.022 0.685 0.728 49 42 33 0 0
-0.0436 0.0605 -0.6296 0.441 0.335 0.832 75 65 56 0 0
-0.0402 0.0656 -0.6340 0.517 0.447 0.730 77 70 62 0 0
-0.0396 0.0665 -0.6353 0.607 0.549 0.574 55 48 40 0 0
-0.0387 0.0679 -0.6364 0.548 0.352 0.759 76 69 61 0 0
-0.0323 0.0773 -0.6455 0.576 0.409 0.708 66 62 57 0 0
-0.0301 0.0805 -0.6491 0.496 0.444 0.746 40 35 32 0 0
-0.0274 0.0843 -0.6582 0.230 0.836 0.498 29 24 21 0 0
-0.0258 0.0865 -0.6605 0.383 0.506 0.773 35 30 27 0 0
-0.0248 0.0881 -0.6613 0.465 0.439 0.769 34 30 26 0 0
-0.0236 0.0898 -0.6640 0.861 0.193 0.471 25 21 20 0 0
-0.0222 0.0919 -0.6664 0.442 0.861 0.254 27 24 22 0 0
-0.0182 0.0975 -0.6821 0.500 0.642 0.582 9 9 9 0 0
-0.0185 0.0969 -0.6866 0.515 0.740 0.432 5 5 5 0 0
-0.0179 0.0976 -0.6881 0.685 0.719 0.118 4 4 4 0 0
0.0069 0.1341 -0.7240 0.540 0.825 0.169 92 77 52 0 0
0.0058 0.1321 -0.7339 0.162 0.985 0.052 90 70 49 0 0
0.0057 0.1318 -0.7382 0.280 0.959 0.041 84 67 49 0 0
-0.0048 0.1144 -0.7813 0.444 0.738 0.508 45 36 22 0 0
