ply
format ascii 1.0
element vertex 832
property float x
property float y
property float z
property float nx
property float ny
property float nz
property uchar diffuse_red
property uchar diffuse_green
property uchar diffuse_blue
property uchar class
property uchar detection
end_header
-0.1014 -0.1010 -0.6546 -0.004 -0.924 -0.382 36 32 22 0 0
-0.1043 -0.0957 -0.7049 0.299 -0.792 -0.532 12 11 9 0 0
-0.1085 -0.1396 -0.7200 0.035 -0.952 0.305 80 61 35 0 0
-0.1086 -0.1401 -0.7216 0.035 -0.952 0.305 98 77 48 0 0
-0.1124 -0.1286 -0.7936 -0.117 -0.848 0.517 52 39 23 0 0
-0.1126 -0.1294 -0.7950 -0.027 -0.785 0.619 54 41 25 0 0
-0.1170 -0.1491 -0.8412 -0.298 -0.871 0.391 117 99 63 0 0
-0.1188 -0.1566 -0.8609 0.077 -0.855 0.513 60 59 47 0 0
-0.1191 -0.1586 -0.8635 0.132 -0.677 0.724 124 120 114 0 0
-0.0756 -0.0453 -0.2923 -0.004 -0.996 0.084 23 19 16 0 0
-0.0758 -0.0455 -0.2938 -0.135 -0.951 0.279 12 11 10 0 0
-0.0767 -0.0499 -0.3038 -0.117 -0.921 0.373 55 46 37 0 0
-0.1028 -0.1059 -0.6432 0.384 -0.918 -0.099 36 30 22 0 0
-0.1029 -0.1055 -0.6455 0.389 -0.916 -0.095 51 44 34 0 0
-0.1032 -0.1004 -0.6568 -0.126 -0.948 -0.291 35 31 24 0 0
-0.1060 -0.0972 -0.7036 0.289 -0.806 -0.517 11 10 8 0 0
-0.1061 -0.0938 -0.7081 0.569 -0.269 0.777 16 12 10 0 0
-0.1077 -0.1151 -0.7093 -0.333 -0.319 0.887 44 39 32 0 0
-0.1120 -0.1145 -0.7768 -0.151 -0.976 0.159 61 47 29 0 0
-0.1125 -0.1161 -0.7820 -0.093 -0.933 0.349 57 44 27 0 0
-0.1126 -0.1167 -0.7836 -0.177 -0.863 0.474 58 46 29 0 0
-0.1150 -0.1320 -0.8034 -0.300 -0.867 0.398 65 50 28 0 0
-0.1152 -0.1327 -0.8050 -0.300 -0.867 0.398 73 57 33 0 0
-0.1153 -0.1334 -0.8066 -0.300 -0.867 0.398 76 61 35 0 0
-0.1155 -0.1343 -0.8080 -0.125 -0.889 0.441 77 63 36 0 0
-0.1157 -0.1351 -0.8095 -0.011 -0.932 0.362 72 55 32 0 0
-0.1164 -0.1400 -0.8161 -0.293 -0.885 0.362 90 66 38 0 0
-0.1166 -0.1407 -0.8178 -0.293 -0.885 0.362 82 57 33 0 0
-0.1167 -0.1413 -0.8194 -0.293 -0.885 0.362 83 58 32 0 0
-0.1187 -0.1495 -0.8406 0.065 -0.987 0.148 114 97 63 0 0
-0.0718 -0.0189 -0.2385 -0.189 -0.883 0.429 190 172 124 0 0
-0.0747 -0.0360 -0.2643 -0.224 -0.863 0.453 135 119 92 0 0
-0.0772 -0.0447 -0.2923 -0.211 -0.978 -0.007 29 26 23 0 0
-0.0788 -0.0523 -0.3095 0.012 -0.913 0.408 33 26 19 0 0
-0.1028 -0.1039 -0.6209 0.115 -0.960 0.254 45 36 29 0 0
-0.1046 -0.1057 -0.6451 0.171 -0.972 -0.162 60 50 40 0 0
-0.1047 -0.1042 -0.6481 0.181 -0.952 -0.246 47 41 30 0 0
-0.1049 -0.0999 -0.6569 -0.230 -0.934 -0.272 31 27 20 0 0
-0.1129 -0.1327 -0.7433 -0.428 -0.849 -0.310 107 91 55 0 0
-0.1136 -0.1138 -0.7750 -0.129 -0.976 0.177 54 41 23 0 0
-0.1138 -0.1143 -0.7767 -0.026 -0.955 0.297 49 36 19 0 0
-0.1139 -0.1147 -0.7785 0.097 -0.940 0.326 52 39 23 0 0
-0.1141 -0.1154 -0.7801 -0.026 -0.955 0.297 56 43 26 0 0
-0.1142 -0.1159 -0.7819 -0.093 -0.933 0.349 51 38 21 0 0
-0.1144 -0.1163 -0.7836 -0.177 -0.863 0.474 58 45 28 0 0
-0.1168 -0.1317 -0.8034 -0.243 -0.853 0.461 82 67 42 0 0
-0.1169 -0.1325 -0.8049 -0.243 -0.853 0.461 95 79 53 0 0
-0.1182 -0.1394 -0.8164 -0.277 -0.945 0.173 101 79 47 0 0
-0.1185 -0.1408 -0.8196 -0.293 -0.885 0.362 83 59 33 0 0
-0.1186 -0.1406 -0.8219 -0.408 -0.894 0.184 80 55 27 0 0
-0.1204 -0.1492 -0.8406 -0.096 -0.970 0.223 115 99 65 0 0
-0.1224 -0.1563 -0.8629 0.175 -0.918 0.356 89 86 77 0 0
-0.0761 -0.0347 -0.2630 -0.007 -0.952 0.305 157 142 115 0 0
-0.0764 -0.0365 -0.2657 -0.195 -0.799 0.569 96 83 64 0 0
-0.0777 -0.0413 -0.2803 -0.166 -0.912 0.376 92 83 70 0 0
-0.0778 -0.0417 -0.2818 -0.157 -0.843 0.514 127 114 97 0 0
-0.0796 -0.0487 -0.3007 0.008 -0.929 0.369 46 37 22 0 0
-0.0804 -0.0521 -0.3094 -0.101 -0.882 0.461 41 33 23 0 0
-0.1061 -0.1066 -0.6424 0.238 -0.969 -0.071 64 53 39 0 0
-0.1063 -0.1061 -0.6447 0.171 -0.972 -0.162 60 50 38 0 0
-0.1063 -0.1044 -0.6477 0.148 -0.964 -0.223 45 39 29 0 0
-0.1066 -0.0999 -0.6567 -0.204 -0.943 -0.265 26 21 16 0 0
-0.1067 -0.0989 -0.6594 -0.024 -0.923 -0.384 20 16 13 0 0
-0.1148 -0.1288 -0.7503 -0.367 -0.851 -0.375 112 97 67 0 0
-0.1161 -0.1159 -0.7837 -0.008 -0.936 0.351 49 36 19 0 0
-0.1183 -0.1308 -0.8017 -0.110 -0.790 0.603 75 61 34 0 0
-0.1185 -0.1317 -0.8032 -0.029 -0.874 0.486 83 67 40 0 0
-0.1186 -0.1324 -0.8048 -0.115 -0.918 0.379 83 66 38 0 0
-0.1188 -0.1332 -0.8063 -0.058 -0.939 0.340 88 71 42 0 0
-0.1189 -0.1340 -0.8078 -0.135 -0.884 0.448 94 77 51 0 0
-0.1191 -0.1348 -0.8092 -0.148 -0.866 0.478 80 63 40 0 0
-0.1196 -0.1381 -0.8129 -0.394 -0.880 0.266 91 71 42 0 0
-0.1202 -0.1403 -0.8198 -0.293 -0.885 0.362 85 62 37 0 0
-0.1203 -0.1402 -0.8221 -0.374 -0.895 0.241 81 56 29 0 0
-0.1221 -0.1485 -0.8410 -0.147 -0.810 0.567 118 102 69 0 0
-0.0777 -0.0347 -0.2629 -0.230 -0.916 0.328 181 168 137 0 0
-0.0793 -0.0410 -0.2803 -0.166 -0.912 0.376 112 102 88 0 0
-0.0801 -0.0446 -0.2889 -0.241 -0.912 0.331 30 24 15 0 0
-0.1078 -0.1071 -0.6419 0.238 -0.969 -0.071 64 54 39 0 0
-0.1082 -0.1013 -0.6536 -0.264 -0.957 -0.119 30 25 19 0 0
-0.1083 -0.0995 -0.6567 -0.204 -0.943 -0.265 27 22 17 0 0
-0.1084 -0.0986 -0.6593 -0.211 -0.930 -0.300 18 14 11 0 0
-0.1126 -0.1122 -0.7087 -0.562 -0.725 0.398 38 35 29 0 0
-0.1128 -0.1129 -0.7102 -0.634 -0.727 0.263 46 42 35 0 0
-0.1149 -0.1368 -0.7171 -0.103 -0.949 0.299 126 105 63 0 0
-0.1170 -0.1160 -0.7706 0.166 -0.941 -0.294 67 56 33 0 0
-0.1178 -0.1159 -0.7835 -0.017 -0.966 0.260 48 36 19 0 0
-0.1188 -0.1213 -0.7921 -0.329 -0.721 0.610 60 48 30 0 0
-0.1196 -0.1264 -0.7987 0.054 -0.926 0.373 72 56 34 0 0
-0.1208 -0.1346 -0.8092 0.069 -0.909 0.411 77 61 36 0 0
-0.1216 -0.1387 -0.8165 -0.140 -0.900 0.413 84 62 35 0 0
-0.1219 -0.1395 -0.8201 -0.037 -0.966 0.255 84 60 36 0 0
-0.1220 -0.1400 -0.8219 -0.037 -0.966 0.255 83 57 32 0 0
-0.0817 -0.0441 -0.2905 -0.003 -0.959 0.284 21 19 14 0 0
-0.1057 -0.0973 -0.5953 -0.214 -0.786 0.580 73 66 58 0 0
-0.1080 -0.1055 -0.6212 0.515 -0.840 0.173 31 27 21 0 0
-0.1082 -0.1061 -0.6227 0.514 -0.855 0.066 30 28 21 0 0
-0.1099 -0.1007 -0.6537 -0.166 -0.985 -0.042 25 20 16 0 0
-0.1100 -0.0991 -0.6568 -0.161 -0.929 -0.334 24 19 15 0 0
-0.1129 -0.0938 -0.7051 0.540 -0.617 0.572 18 14 13 0 0
-0.1141 -0.1106 -0.7076 -0.562 -0.820 -0.106 36 31 25 0 0
-0.1143 -0.1103 -0.7098 -0.511 -0.832 -0.216 38 34 27 0 0
-0.1145 -0.1131 -0.7099 -0.800 -0.599 -0.024 46 43 33 0 0
-0.1193 -0.1141 -0.7804 -0.166 -0.949 0.270 68 56 33 0 0
-0.1202 -0.1195 -0.7889 0.491 -0.734 0.469 63 50 32 0 0
-0.1207 -0.1224 -0.7931 -0.230 -0.745 0.626 58 46 23 0 0
-0.1208 -0.1234 -0.7944 -0.230 -0.745 0.626 72 60 34 0 0
-0.1213 -0.1257 -0.7990 -0.091 -0.919 0.384 67 52 29 0 0
-0.1224 -0.1339 -0.8073 0.069 -0.909 0.411 86 69 42 0 0
-0.1226 -0.1346 -0.8089 0.069 -0.909 0.411 75 58 32 0 0
-0.1227 -0.1353 -0.8105 -0.055 -0.880 0.472 71 50 28 0 0
-0.1230 -0.1370 -0.8134 0.037 -0.924 0.380 84 62 38 0 0
-0.1232 -0.1372 -0.8154 -0.140 -0.985 0.104 78 55 31 0 0
-0.1235 -0.1387 -0.8184 0.082 -0.959 0.270 82 58 32 0 0
-0.0768 -0.0057 -0.2315 -0.977 -0.183 0.108 178 178 180 0 0
-0.1093 -0.1050 -0.6155 -0.187 -0.888 0.419 49 43 34 0 0
-0.1111 -0.1057 -0.6423 -0.076 -0.927 -0.367 59 50 40 0 0
-0.1116 -0.1004 -0.6537 -0.254 -0.966 -0.045 18 15 11 0 0
-0.1117 -0.0993 -0.6565 -0.268 -0.916 -0.297 19 14 11 0 0
-0.1118 -0.0982 -0.6592 -0.260 -0.876 -0.406 25 20 16 0 0
-0.1143 -0.0857 -0.7086 0.664 -0.719 0.203 16 12 11 0 0
-0.1158 -0.1091 -0.7084 -0.459 -0.733 0.502 39 34 28 0 0
-0.1160 -0.1096 -0.7101 -0.552 -0.803 0.224 41 37 30 0 0
-0.1161 -0.1103 -0.7117 -0.595 -0.745 0.303 48 44 35 0 0
-0.1168 -0.1244 -0.7075 0.190 -0.713 0.675 70 63 51 0 0
-0.1169 -0.1259 -0.7085 0.183 -0.933 0.310 68 61 46 0 0
-0.1182 -0.1372 -0.7164 0.146 -0.949 0.281 198 178 138 0 0
-0.1237 -0.1323 -0.8019 -0.020 -0.903 0.430 93 77 50 0 0
-0.1238 -0.1328 -0.8037 0.039 -0.974 0.225 100 83 54 0 0
-0.1246 -0.1366 -0.8113 -0.087 -0.989 0.121 78 57 30 0 0
-0.1247 -0.1368 -0.8133 -0.087 -0.989 0.121 84 62 37 0 0
-0.1250 -0.1378 -0.8168 0.019 -0.950 0.313 78 54 30 0 0
-0.1252 -0.1384 -0.8184 0.060 -0.938 0.341 81 57 32 0 0
-0.1285 -0.1507 -0.8559 0.082 -0.945 0.317 77 71 48 0 0
-0.1294 -0.1545 -0.8658 -0.104 -0.961 -0.258 136 134 133 0 0
-0.1296 -0.1534 -0.8690 0.041 -0.946 -0.323 157 156 155 0 0
-0.0820 -0.0322 -0.2600 -0.106 -0.898 0.427 167 146 112 0 0
-0.0869 -0.0543 -0.3114 -0.026 -0.919 0.392 75 64 47 0 0
-0.1108 -0.1056 -0.6130 0.275 -0.873 0.402 40 33 28 0 0
-0.1122 -0.1085 -0.6306 0.158 -0.964 -0.215 67 55 40 0 0
-0.1123 -0.1079 -0.6329 0.104 -0.976 -0.193 67 56 41 0 0
-0.1126 -0.1079 -0.6368 -0.113 -0.989 -0.099 66 56 42 0 0
-0.1127 -0.1068 -0.6395 -0.299 -0.953 -0.057 51 41 31 0 0
-0.1128 -0.1066 -0.6416 -0.297 -0.931 -0.213 47 39 31 0 0
-0.1133 -0.1031 -0.6518 -0.139 -0.902 -0.408 16 15 13 0 0
-0.1140 -0.0879 -0.6760 -0.512 -0.805 -0.299 10 8 7 0 0
-0.1142 -0.0870 -0.6806 -0.402 -0.837 -0.372 8 7 5 0 0
-0.1154 -0.0758 -0.7090 0.020 -0.840 0.542 10 9 7 0 0
-0.1175 -0.1095 -0.7079 0.318 -0.384 0.867 40 35 29 0 0
-0.1186 -0.1253 -0.7087 -0.199 -0.812 0.549 87 79 62 0 0
-0.1213 -0.1299 -0.7443 -0.119 -0.917 -0.381 110 94 65 0 0
-0.1218 -0.1232 -0.7579 -0.053 -0.852 -0.520 65 50 27 0 0
-0.1254 -0.1322 -0.8018 -0.020 -0.903 0.430 78 63 37 0 0
-0.1264 -0.1349 -0.8147 -0.106 -0.727 0.679 87 65 40 0 0
-0.1268 -0.1379 -0.8165 -0.163 -0.869 0.468 77 53 30 0 0
-0.1269 -0.1386 -0.8180 0.002 -0.877 0.481 79 54 31 0 0
-0.1312 -0.1562 -0.8640 0.030 -0.999 -0.042 138 136 134 0 0
-0.1313 -0.1562 -0.8661 0.143 -0.983 -0.111 157 156 155 0 0
-0.1315 -0.1562 -0.8684 0.652 -0.378 0.658 169 168 166 0 0
-0.0836 -0.0319 -0.2599 -0.163 -0.932 0.324 179 160 125 0 0
-0.0837 -0.0327 -0.2613 -0.183 -0.910 0.372 151 135 103 0 0
-0.0864 -0.0420 -0.2924 -0.072 -0.997 0.027 26 22 18 0 0
-0.1121 -0.1048 -0.6075 0.378 -0.897 0.231 50 43 33 0 0
-0.1136 -0.1104 -0.6252 0.192 -0.969 -0.158 68 58 43 0 0
-0.1149 -0.1016 -0.6526 0.041 -0.940 -0.339 18 16 13 0 0
-0.1151 -0.1001 -0.6555 0.222 -0.891 -0.397 27 23 19 0 0
-0.1170 -0.0762 -0.7064 0.037 -0.999 -0.026 9 8 6 0 0
-0.1174 -0.0781 -0.7093 0.252 -0.403 0.880 12 11 9 0 0
-0.1178 -0.0882 -0.7063 0.559 -0.827 0.060 16 12 11 0 0
-0.1215 -0.1360 -0.7168 -0.147 -0.879 0.455 145 129 84 0 0
-0.1227 -0.1360 -0.7332 -0.268 -0.927 -0.263 141 123 86 0 0
-0.1229 -0.1335 -0.7393 -0.272 -0.877 -0.397 116 97 67 0 0
-0.1252 -0.1183 -0.7871 -0.272 -0.859 0.434 54 40 24 0 0
-0.1256 -0.1197 -0.7903 -0.213 -0.868 0.448 62 49 32 0 0
-0.1268 -0.1279 -0.8008 0.017 -0.880 0.475 71 57 35 0 0
-0.1285 -0.1377 -0.8164 -0.152 -0.784 0.601 73 50 29 0 0
-0.1288 -0.1387 -0.8199 -0.077 -0.970 0.230 80 55 31 0 0
-0.1299 -0.1455 -0.8293 -0.303 -0.811 0.500 119 102 69 0 0
-0.1308 -0.1466 -0.8414 -0.256 -0.897 0.360 131 113 79 0 0
-0.1309 -0.1472 -0.8431 -0.426 -0.897 0.114 136 116 83 0 0
-0.1329 -0.1585 -0.8615 0.385 -0.748 0.541 141 139 137 0 0
-0.1331 -0.1585 -0.8638 0.258 -0.567 0.782 159 158 156 0 0
-0.1332 -0.1586 -0.8659 0.130 -0.363 0.923 169 168 166 0 0
-0.0862 -0.0348 -0.2734 -0.149 -0.908 0.391 182 171 150 0 0
-0.0864 -0.0362 -0.2746 -0.025 -0.835 0.549 113 102 84 0 0
-0.0874 -0.0416 -0.2843 -0.282 -0.881 0.380 45 35 25 0 0
-0.0886 -0.0464 -0.2974 0.157 -0.807 0.569 101 91 79 0 0
-0.0926 -0.0617 -0.3414 0.025 -0.961 0.276 119 111 99 0 0
-0.1153 -0.1108 -0.6248 0.192 -0.969 -0.158 79 67 51 0 0
-0.1155 -0.1098 -0.6293 0.081 -0.944 -0.321 77 65 51 0 0
-0.1157 -0.1091 -0.6317 0.066 -0.959 -0.277 62 52 37 0 0
-0.1158 -0.1084 -0.6341 0.066 -0.959 -0.277 57 47 34 0 0
-0.1168 -0.1008 -0.6549 0.121 -0.907 -0.403 39 34 29 0 0
-0.1194 -0.0892 -0.7033 0.626 -0.647 0.434 16 13 12 0 0
-0.1195 -0.0897 -0.7051 0.453 -0.891 0.036 18 14 13 0 0
-0.1197 -0.0911 -0.7061 -0.171 -0.805 0.568 18 14 12 0 0
-0.1246 -0.1328 -0.7396 -0.288 -0.888 -0.359 94 78 50 0 0
-0.1259 -0.1106 -0.7780 -0.337 -0.867 0.366 56 43 25 0 0
-0.1325 -0.1462 -0.8415 -0.029 -0.983 0.182 129 111 78 0 0
-0.0830 -0.0017 -0.2335 -0.892 -0.452 -0.018 177 177 179 0 0
-0.0847 -0.0151 -0.2463 -0.101 -0.942 0.321 103 96 85 0 0
-0.0849 -0.0157 -0.2478 0.091 -0.912 0.400 81 73 64 0 0
-0.0850 -0.0154 -0.2495 0.119 -0.944 0.308 66 57 47 0 0
-0.0872 -0.0327 -0.2658 -0.155 -0.893 0.422 111 98 83 0 0
-0.0878 -0.0344 -0.2734 0.067 -0.889 0.453 119 108 89 0 0
-0.0921 -0.0539 -0.3177 -0.284 -0.902 0.326 62 50 41 0 0
-0.0922 -0.0545 -0.3191 -0.100 -0.951 0.293 71 59 50 0 0
-0.0947 -0.0631 -0.3474 -0.030 -0.949 0.315 41 32 18 0 0
-0.0984 -0.0876 -0.3799 0.693 -0.548 0.468 81 75 65 0 0
-0.0988 -0.0917 -0.3816 0.629 -0.494 0.600 85 78 69 0 0
-0.0989 -0.0923 -0.3830 -0.089 -0.669 0.738 80 73 64 0 0
-0.1144 -0.1024 -0.5951 0.357 -0.870 0.339 58 50 42 0 0
-0.1157 -0.1064 -0.6100 0.576 -0.808 0.128 38 31 22 0 0
-0.1179 -0.1042 -0.6445 -0.121 -0.984 -0.130 25 18 13 0 0
-0.1181 -0.1039 -0.6467 0.123 -0.949 -0.289 32 26 20 0 0
-0.1184 -0.1008 -0.6547 -0.000 -0.907 -0.422 33 28 21 0 0
-0.1185 -0.0969 -0.6592 -0.073 -0.835 -0.546 29 24 18 0 0
-0.1213 -0.0893 -0.7051 0.189 -0.902 0.387 18 14 13 0 0
-0.1253 -0.1372 -0.7217 -0.163 -0.929 0.333 93 77 42 0 0
-0.1263 -0.1322 -0.7398 -0.288 -0.888 -0.359 96 81 50 0 0
-0.1295 -0.1217 -0.7946 -0.141 -0.844 0.517 42 29 14 0 0
-0.1342 -0.1447 -0.8426 -0.317 -0.948 -0.009 120 105 70 0 0
-0.0864 -0.0158 -0.2477 -0.163 -0.841 0.516 93 86 75 0 0
-0.0866 -0.0166 -0.2491 0.093 -0.843 0.530 72 64 53 0 0
-0.0872 -0.0221 -0.2525 -0.078 -0.670 0.738 220 206 181 0 0
-0.0887 -0.0321 -0.2659 -0.195 -0.896 0.398 135 120 102 0 0
-0.0892 -0.0336 -0.2719 -0.223 -0.922 0.316 198 186 160 0 0
-0.0939 -0.0545 -0.3206 -0.150 -0.951 0.272 78 68 56 0 0
-0.0955 -0.0608 -0.3382 0.015 -0.958 0.286 54 48 39 0 0
-0.0995 -0.0824 -0.3767 0.212 -0.231 0.950 104 95 85 0 0
-0.0997 -0.0844 -0.3776 0.311 -0.250 0.917 120 107 93 0 0
-0.0999 -0.0868 -0.3783 0.225 -0.290 0.930 103 92 79 0 0
-0.1001 -0.0895 -0.3790 0.515 -0.452 0.728 97 88 78 0 0
-0.1002 -0.0911 -0.3800 0.609 -0.473 0.637 88 80 69 0 0
-0.1004 -0.0920 -0.3813 0.668 -0.493 0.557 88 79 67 0 0
-0.1005 -0.0922 -0.3829 -0.432 -0.673 0.601 83 75 63 0 0
-0.1007 -0.0942 -0.3838 0.607 -0.616 0.503 77 69 57 0 0
-0.1008 -0.0957 -0.3849 0.701 -0.563 0.438 79 72 57 0 0
-0.1010 -0.0960 -0.3864 0.615 -0.638 0.464 83 76 61 0 0
-0.1161 -0.1039 -0.5940 0.117 -0.987 0.108 51 44 36 0 0
-0.1175 -0.1083 -0.6105 0.576 -0.803 0.155 49 41 31 0 0
-0.1179 -0.1111 -0.6146 0.444 -0.853 0.274 57 47 32 0 0
-0.1181 -0.1114 -0.6163 0.236 -0.955 0.182 81 71 55 0 0
-0.1196 -0.1044 -0.6442 -0.037 -0.957 -0.289 36 28 21 0 0
-0.1224 -0.0851 -0.6996 -0.225 -0.974 -0.018 10 9 7 0 0
-0.1228 -0.0886 -0.7033 -0.764 -0.500 0.408 14 11 10 0 0
-0.1253 -0.1229 -0.7096 -0.066 -0.839 0.540 81 73 56 0 0
-0.1255 -0.1238 -0.7110 0.052 -0.820 0.570 98 85 64 0 0
-0.1270 -0.1368 -0.7217 -0.119 -0.964 0.238 96 81 47 0 0
-0.1277 -0.1332 -0.7347 -0.115 -0.924 -0.364 125 106 70 0 0
-0.1304 -0.1174 -0.7871 0.011 -0.821 0.570 82 70 48 0 0
-0.1306 -0.1187 -0.7882 0.067 -0.885 0.460 79 66 45 0 0
-0.1308 -0.1195 -0.7897 0.067 -0.885 0.460 66 52 30 0 0
-0.1309 -0.1199 -0.7915 0.061 -0.848 0.527 65 49 30 0 0
-0.1369 -0.1461 -0.8543 -0.606 -0.621 0.497 121 102 72 0 0
-0.0872 -0.0100 -0.2409 -0.283 -0.872 0.399 176 174 173 0 0
-0.0885 -0.0198 -0.2514 -0.195 -0.536 0.821 152 138 121 0 0
-0.0904 -0.0339 -0.2669 -0.033 -0.944 0.328 70 54 39 0 0
-0.0905 -0.0330 -0.2687 -0.079 -0.959 0.272 169 153 132 0 0
-0.0906 -0.0334 -0.2702 -0.079 -0.959 0.272 210 194 168 0 0
-0.0908 -0.0341 -0.2716 -0.017 -0.976 0.215 172 159 136 0 0
-0.0954 -0.0542 -0.3206 -0.150 -0.951 0.272 79 71 60 0 0
-0.1010 -0.0825 -0.3766 0.546 -0.259 0.797 105 96 81 0 0
-0.1020 -0.0934 -0.3807 0.668 -0.493 0.557 100 89 72 0 0
-0.1181 -0.1051 -0.5989 -0.036 -0.995 0.091 33 27 18 0 0
-0.1183 -0.1052 -0.6007 0.050 -0.961 0.272 31 26 17 0 0
-0.1213 -0.1041 -0.6441 -0.017 -0.958 -0.286 43 36 26 0 0
-0.1237 -0.0778 -0.7003 0.732 -0.678 0.066 9 8 6 0 0
-0.1243 -0.0863 -0.7006 -0.480 -0.877 0.008 10 9 7 0 0
-0.1265 -0.1164 -0.7080 0.223 -0.599 0.769 74 67 51 0 0
-0.0900 -0.0190 -0.2514 -0.316 -0.617 0.720 168 157 140 0 0
-0.0924 -0.0344 -0.2714 0.184 -0.948 0.258 105 91 70 0 0
-0.0970 -0.0540 -0.3205 -0.157 -0.958 0.239 64 56 43 0 0
-0.1175 -0.0742 -0.5921 0.171 0.161 0.972 41 36 30 0 0
-0.1193 -0.1042 -0.5935 0.027 -0.986 0.167 34 27 21 0 0
-0.1195 -0.1046 -0.5952 0.137 -0.986 0.099 33 26 19 0 0
-0.1196 -0.1049 -0.5969 -0.131 -0.983 0.130 36 29 21 0 0
-0.1198 -0.1049 -0.5988 -0.260 -0.962 0.086 38 29 22 0 0
-0.1199 -0.1047 -0.6008 -0.143 -0.971 0.191 45 36 29 0 0
-0.1230 -0.1046 -0.6437 0.045 -0.966 -0.256 55 49 36 0 0
-0.1264 -0.0865 -0.7064 -0.745 -0.480 0.463 15 11 8 0 0
-0.1274 -0.1050 -0.7057 0.456 -0.488 0.744 43 39 36 0 0
-0.1331 -0.1111 -0.7809 -0.071 -0.933 0.352 70 57 34 0 0
-0.1363 -0.1334 -0.8080 -0.104 -0.849 0.518 75 54 27 0 0
-0.1379 -0.1373 -0.8264 -0.342 -0.890 0.301 102 88 52 0 0
-0.1405 -0.1465 -0.8556 -0.176 -0.903 0.391 125 109 77 0 0
-0.1407 -0.1472 -0.8572 -0.176 -0.903 0.391 114 101 74 0 0
-0.0903 -0.0093 -0.2409 -0.496 -0.795 0.349 177 177 179 0 0
-0.0946 -0.0379 -0.2783 -0.131 -0.910 0.394 128 117 102 0 0
-0.1037 -0.0761 -0.3753 0.198 -0.152 0.968 125 119 108 0 0
-0.1042 -0.0832 -0.3760 0.238 -0.202 0.950 117 108 92 0 0
-0.1070 -0.1029 -0.3998 0.129 -0.958 -0.256 80 67 48 0 0
-0.1074 -0.1016 -0.4070 0.417 -0.908 -0.043 91 78 55 0 0
-0.1156 -0.1072 -0.5157 0.363 -0.884 -0.294 94 86 67 0 0
-0.1167 -0.1055 -0.5329 0.815 -0.536 -0.219 78 69 55 0 0
-0.1168 -0.1041 -0.5355 0.784 -0.563 -0.263 71 63 49 0 0
-0.1169 -0.1031 -0.5378 0.715 -0.618 -0.327 64 57 43 0 0
-0.1170 -0.1013 -0.5407 0.672 -0.691 -0.269 57 52 40 0 0
-0.1172 -0.1005 -0.5429 0.672 -0.691 -0.269 51 47 36 0 0
-0.1174 -0.0983 -0.5479 0.562 -0.817 -0.125 45 41 37 0 0
-0.1175 -0.0968 -0.5505 0.637 -0.706 -0.308 27 22 19 0 0
-0.1176 -0.0959 -0.5529 0.637 -0.706 -0.308 20 16 15 0 0
-0.1196 -0.0850 -0.5894 -0.026 0.116 0.993 57 50 42 0 0
-0.1208 -0.1038 -0.5916 0.115 -0.946 0.304 24 17 11 0 0
-0.1211 -0.1048 -0.5949 0.137 -0.986 0.099 34 29 20 0 0
-0.1217 -0.1091 -0.5999 0.557 -0.441 0.703 60 47 34 0 0
-0.1219 -0.1099 -0.6013 0.688 -0.553 0.470 61 49 35 0 0
-0.1226 -0.1114 -0.6100 -0.132 -0.989 -0.061 71 57 40 0 0
-0.1246 -0.1057 -0.6427 -0.187 -0.925 -0.330 56 50 38 0 0
-0.1281 -0.0848 -0.7074 -0.832 -0.274 0.483 18 14 11 0 0
-0.1307 -0.1247 -0.7117 -0.158 -0.576 0.802 137 122 89 0 0
-0.1329 -0.1281 -0.7400 -0.223 -0.956 0.191 123 104 70 0 0
-0.1384 -0.1352 -0.8105 -0.228 -0.953 0.200 84 64 36 0 0
-0.1396 -0.1367 -0.8267 -0.274 -0.910 0.310 104 89 55 0 0
-0.1407 -0.1424 -0.8370 0.168 -0.948 0.272 105 90 54 0 0
-0.1422 -0.1464 -0.8555 0.250 -0.909 0.333 123 109 76 0 0
-0.0987 -0.0481 -0.3058 -0.202 -0.898 0.390 127 116 97 0 0
-0.1038 -0.0590 -0.3681 -0.076 -0.996 0.052 38 29 21 0 0
-0.1057 -0.0837 -0.3757 0.238 -0.202 0.950 127 118 101 0 0
-0.1078 -0.1064 -0.3867 0.303 -0.910 0.283 92 80 52 0 0
-0.1079 -0.1069 -0.3881 0.188 -0.963 0.193 86 73 45 0 0
-0.1080 -0.1072 -0.3896 0.188 -0.963 0.193 88 73 46 0 0
-0.1084 -0.1037 -0.3977 0.124 -0.971 -0.204 79 67 46 0 0
-0.1085 -0.1025 -0.3998 0.265 -0.957 -0.121 72 60 41 0 0
-0.1086 -0.1019 -0.4018 0.383 -0.923 -0.036 74 61 42 0 0
-0.1087 -0.1019 -0.4034 0.383 -0.923 -0.036 91 77 57 0 0
-0.1090 -0.1021 -0.4067 0.331 -0.939 -0.089 106 92 66 0 0
-0.1091 -0.1024 -0.4082 0.037 -0.994 -0.104 104 91 65 0 0
-0.1103 -0.1002 -0.4260 -0.185 -0.981 0.061 65 50 28 0 0
-0.1120 -0.1005 -0.4499 0.030 -0.990 0.136 64 48 29 0 0
-0.1129 -0.1015 -0.4616 -0.088 -0.950 -0.301 60 47 29 0 0
-0.1130 -0.1009 -0.4636 -0.379 -0.910 0.168 62 49 34 0 0
-0.1132 -0.1001 -0.4658 -0.068 -0.868 0.493 62 49 33 0 0
-0.1169 -0.1068 -0.5121 0.531 -0.815 0.232 89 78 58 0 0
-0.1170 -0.1066 -0.5140 0.398 -0.907 0.134 99 88 67 0 0
-0.1171 -0.1068 -0.5157 0.104 -0.952 -0.287 91 81 60 0 0
-0.1173 -0.1062 -0.5178 0.104 -0.952 -0.287 86 76 57 0 0
-0.1174 -0.1079 -0.5187 -0.210 -0.814 0.542 84 74 57 0 0
-0.1187 -0.1038 -0.5391 0.742 -0.605 -0.289 53 47 33 0 0
-0.1188 -0.1030 -0.5414 0.718 -0.632 -0.294 48 44 32 0 0
-0.1319 -0.1199 -0.7089 -0.155 -0.565 0.810 96 87 68 0 0
-0.1322 -0.1230 -0.7106 0.353 -0.482 0.802 104 89 65 0 0
-0.1337 -0.1364 -0.7211 -0.128 -0.866 0.483 107 88 53 0 0
-0.1401 -0.1347 -0.8107 -0.304 -0.858 0.414 85 64 37 0 0
-0.1410 -0.1352 -0.8233 -0.219 -0.940 0.261 92 77 45 0 0
-0.1415 -0.1367 -0.8286 -0.170 -0.923 0.344 130 113 81 0 0
-0.0972 -0.0350 -0.2725 -0.215 -0.946 0.243 108 95 75 0 0
-0.0995 -0.0442 -0.2972 -0.175 -0.928 0.329 59 47 31 0 0
-0.0999 -0.0464 -0.3014 -0.228 -0.924 0.308 60 44 31 0 0
-0.1000 -0.0468 -0.3029 -0.121 -0.951 0.286 53 41 27 0 0
-0.1002 -0.0476 -0.3042 0.095 -0.958 0.270 146 135 118 0 0
-0.1003 -0.0480 -0.3057 0.095 -0.958 0.270 146 135 117 0 0
-0.1050 -0.0587 -0.3631 -0.215 -0.970 -0.112 32 25 14 0 0
-0.1054 -0.0589 -0.3680 -0.076 -0.996 0.052 33 24 17 0 0
-0.1087 -0.1028 -0.3814 0.177 -0.977 0.115 95 84 60 0 0
-0.1147 -0.1003 -0.4655 0.042 -0.985 0.165 76 63 43 0 0
-0.1150 -0.0989 -0.4697 0.010 -0.951 -0.309 75 62 43 0 0
-0.1151 -0.0985 -0.4716 -0.040 -0.961 -0.274 65 56 37 0 0
-0.1164 -0.0990 -0.4890 0.479 -0.854 0.204 91 81 60 0 0
-0.1165 -0.0994 -0.4906 0.482 -0.868 0.122 109 98 74 0 0
-0.1175 -0.1054 -0.5001 0.364 -0.884 0.294 123 109 83 0 0
-0.1177 -0.1059 -0.5016 0.364 -0.884 0.294 114 100 74 0 0
-0.1185 -0.1090 -0.5107 0.666 -0.668 0.333 88 77 57 0 0
-0.1186 -0.1075 -0.5133 0.536 -0.800 0.267 81 70 51 0 0
-0.1188 -0.1079 -0.5149 0.449 -0.883 0.139 86 75 56 0 0
-0.1189 -0.1079 -0.5167 0.564 -0.817 -0.121 77 66 46 0 0
-0.1190 -0.1078 -0.5186 0.515 -0.854 -0.074 86 75 56 0 0
-0.1207 -0.1027 -0.5451 0.709 -0.650 -0.274 45 41 32 0 0
-0.1249 -0.1083 -0.5981 0.169 -0.857 0.487 68 54 37 0 0
-0.1250 -0.1092 -0.5994 0.166 -0.924 0.343 69 56 39 0 0
-0.1274 -0.1089 -0.6324 -0.140 -0.986 0.094 80 68 52 0 0
-0.1302 -0.0752 -0.6950 0.483 -0.872 0.078 11 10 8 0 0
-0.1316 -0.0840 -0.7076 -0.208 -0.852 0.480 24 19 15 0 0
-0.1318 -0.0854 -0.7086 -0.420 -0.603 0.679 21 14 14 0 0
-0.1337 -0.1225 -0.7088 -0.140 -0.824 0.549 90 79 55 0 0
-0.1339 -0.1234 -0.7102 -0.141 -0.860 0.490 109 94 67 0 0
-0.1340 -0.1242 -0.7116 -0.141 -0.860 0.490 117 101 70 0 0
-0.1342 -0.1251 -0.7130 -0.119 -0.935 0.334 141 127 92 0 0
-0.1345 -0.1279 -0.7150 -0.108 -0.559 0.822 158 143 106 0 0
-0.1346 -0.1314 -0.7145 0.455 -0.834 0.311 174 159 119 0 0
-0.1457 -0.1470 -0.8545 -0.135 -0.915 0.381 117 104 69 0 0
-0.1469 -0.1538 -0.8660 0.481 -0.726 -0.490 165 164 162 0 0
-0.1010 -0.0439 -0.2971 -0.175 -0.928 0.329 104 92 75 0 0
-0.1033 -0.0536 -0.3217 0.173 -0.954 0.246 97 90 74 0 0
-0.1035 -0.0551 -0.3229 -0.236 -0.873 0.427 41 34 17 0 0
-0.1065 -0.0591 -0.3611 -0.238 -0.971 0.019 27 20 11 0 0
-0.1070 -0.0587 -0.3680 -0.076 -0.996 0.052 24 17 11 0 0
-0.1072 -0.0580 -0.3716 0.178 -0.754 0.632 67 58 50 0 0
-0.1107 -0.1056 -0.3851 0.662 -0.748 0.045 73 55 35 0 0
-0.1120 -0.1031 -0.4043 0.190 -0.981 -0.025 101 86 60 0 0
-0.1163 -0.1003 -0.4653 0.042 -0.985 0.165 91 79 53 0 0
-0.1166 -0.0990 -0.4695 0.035 -0.947 -0.319 81 69 49 0 0
-0.1167 -0.0985 -0.4714 -0.040 -0.961 -0.274 59 49 31 0 0
-0.1168 -0.0980 -0.4735 -0.057 -0.959 -0.277 42 34 19 0 0
-0.1169 -0.0967 -0.4759 0.012 -0.987 0.163 44 36 25 0 0
-0.1170 -0.0970 -0.4775 -0.013 -1.000 -0.018 43 34 23 0 0
-0.1172 -0.0977 -0.4789 0.152 -0.891 0.427 66 56 42 0 0
-0.1176 -0.0981 -0.4840 0.227 -0.972 -0.062 96 82 58 0 0
-0.1177 -0.0980 -0.4858 0.227 -0.972 -0.062 98 87 65 0 0
-0.1180 -0.0995 -0.4886 0.040 -0.744 0.667 95 84 60 0 0
-0.1181 -0.0998 -0.4903 0.363 -0.853 0.375 122 109 82 0 0
-0.1183 -0.1006 -0.4916 0.415 -0.714 0.563 106 92 66 0 0
-0.1184 -0.1019 -0.4928 0.545 -0.752 0.372 104 90 64 0 0
-0.1193 -0.1070 -0.5009 0.467 -0.785 0.407 103 88 61 0 0
-0.1194 -0.1074 -0.5025 0.460 -0.881 0.109 120 105 79 0 0
-0.1199 -0.1097 -0.5066 0.134 -0.888 0.440 105 94 74 0 0
-0.1200 -0.1102 -0.5081 -0.097 -0.611 0.785 88 77 57 0 0
-0.1201 -0.1095 -0.5103 0.317 -0.931 0.182 97 86 66 0 0
-0.1202 -0.1086 -0.5126 0.456 -0.879 0.139 83 72 54 0 0
-0.1204 -0.1089 -0.5142 0.456 -0.879 0.139 89 78 60 0 0
-0.1205 -0.1090 -0.5160 0.542 -0.830 0.127 76 65 45 0 0
-0.1206 -0.1091 -0.5177 0.646 -0.713 0.273 91 80 60 0 0
-0.1208 -0.1098 -0.5192 0.527 -0.835 0.159 75 64 44 0 0
-0.1223 -0.1040 -0.5442 0.790 -0.595 -0.148 42 37 27 0 0
-0.1231 -0.1003 -0.5573 0.419 -0.806 -0.417 27 23 20 0 0
-0.1255 -0.1023 -0.5882 0.366 -0.862 0.351 39 31 26 0 0
-0.1256 -0.1031 -0.5896 -0.163 -0.982 -0.091 35 26 22 0 0
-0.1267 -0.1091 -0.5993 -0.022 -0.944 0.329 69 56 39 0 0
-0.1271 -0.1103 -0.6043 0.110 -0.964 0.243 71 58 41 0 0
-0.1295 -0.1074 -0.6390 -0.167 -0.909 -0.382 49 39 32 0 0
-0.1296 -0.1063 -0.6417 -0.001 -0.921 -0.390 36 29 24 0 0
-0.1333 -0.0823 -0.7085 -0.141 -0.952 0.270 25 20 17 0 0
-0.1335 -0.0846 -0.7090 -0.256 -0.652 0.714 22 15 15 0 0
-0.1361 -0.1299 -0.7133 0.192 -0.775 0.602 148 132 94 0 0
-0.1364 -0.1319 -0.7159 -0.031 -0.970 0.243 191 179 138 0 0
-0.1386 -0.1200 -0.7539 -0.216 -0.846 -0.487 86 72 45 0 0
-0.1390 -0.1143 -0.7625 -0.123 -0.854 -0.506 90 78 52 0 0
-0.1474 -0.1467 -0.8544 -0.135 -0.915 0.381 117 103 70 0 0
-0.1050 -0.0546 -0.3229 -0.236 -0.873 0.427 37 29 16 0 0
-0.1052 -0.0550 -0.3244 -0.133 -0.921 0.365 49 41 29 0 0
-0.1076 -0.0602 -0.3539 -0.180 -0.964 -0.194 30 22 12 0 0
-0.1082 -0.0582 -0.3630 -0.328 -0.942 -0.068 32 25 17 0 0
-0.1121 -0.1062 -0.3830 0.452 -0.879 0.153 67 53 34 0 0
-0.1123 -0.1058 -0.3865 -0.038 -0.996 0.075 74 60 41 0 0
-0.1132 -0.1044 -0.3986 0.247 -0.950 -0.192 83 72 50 0 0
-0.1133 -0.1040 -0.4005 0.144 -0.987 0.075 109 97 73 0 0
-0.1135 -0.1032 -0.4041 -0.195 -0.981 -0.018 110 96 69 0 0
-0.1180 -0.1000 -0.4671 0.144 -0.975 -0.167 88 74 51 0 0
-0.1181 -0.0991 -0.4692 0.035 -0.947 -0.319 81 69 50 0 0
-0.1183 -0.0984 -0.4713 -0.026 -0.940 -0.340 57 46 30 0 0
-0.1191 -0.0992 -0.4816 -0.128 -0.864 0.487 141 127 100 0 0
-0.1192 -0.0999 -0.4829 -0.128 -0.864 0.487 103 87 59 0 0
-0.1199 -0.1009 -0.4913 0.086 -0.853 0.514 104 90 63 0 0
-0.1202 -0.1038 -0.4934 0.415 -0.895 0.164 96 82 56 0 0
-0.1215 -0.1117 -0.5054 -0.097 -0.939 0.331 104 93 73 0 0
-0.1218 -0.1101 -0.5117 0.403 -0.831 0.384 84 73 52 0 0
-0.1220 -0.1110 -0.5130 0.174 -0.794 0.583 88 77 56 0 0
-0.1247 -0.1012 -0.5567 0.259 -0.839 -0.478 48 45 36 0 0
-0.1248 -0.0927 -0.5633 0.525 -0.524 -0.671 29 26 20 0 0
-0.1284 -0.1096 -0.6007 -0.077 -0.945 0.317 78 65 48 0 0
-0.1286 -0.1101 -0.6023 -0.077 -0.945 0.317 76 63 46 0 0
-0.1337 -0.0769 -0.6934 0.173 -0.976 0.133 9 8 6 0 0
-0.1351 -0.0839 -0.7071 -0.197 -0.858 0.475 26 21 18 0 0
-0.1378 -0.1297 -0.7132 -0.113 -0.648 0.754 164 145 103 0 0
-0.1380 -0.1310 -0.7143 -0.224 -0.730 0.646 183 166 124 0 0
-0.1426 -0.1117 -0.7900 0.365 -0.853 0.373 75 59 34 0 0
-0.1432 -0.1189 -0.7928 -0.084 -0.906 0.414 82 66 40 0 0
-0.1433 -0.1196 -0.7944 -0.084 -0.906 0.414 86 70 44 0 0
-0.1005 -0.0205 -0.2631 -0.539 -0.441 0.718 103 92 73 0 0
-0.1031 -0.0381 -0.2873 -0.145 -0.833 0.533 175 158 128 0 0
-0.1035 -0.0404 -0.2914 -0.286 -0.778 0.559 83 67 48 0 0
-0.1063 -0.0537 -0.3198 0.042 -0.964 0.262 77 68 52 0 0
-0.1066 -0.0542 -0.3229 0.046 -0.977 0.209 61 51 37 0 0
-0.1069 -0.0553 -0.3258 -0.086 -0.962 0.257 28 21 10 0 0
-0.1092 -0.0600 -0.3539 -0.180 -0.964 -0.194 30 23 15 0 0
-0.1136 -0.1065 -0.3828 0.207 -0.954 0.215 80 69 46 0 0
-0.1137 -0.1053 -0.3849 -0.040 -0.977 0.210 75 63 42 0 0
-0.1138 -0.1057 -0.3864 -0.038 -0.996 0.075 79 67 47 0 0
-0.1149 -0.1033 -0.4023 -0.277 -0.956 -0.091 109 94 71 0 0
-0.1150 -0.1030 -0.4041 -0.148 -0.987 -0.058 109 95 71 0 0
-0.1195 -0.1004 -0.4650 -0.059 -0.943 0.328 88 76 53 0 0
-0.1197 -0.0987 -0.4693 0.076 -0.917 -0.391 72 59 42 0 0
-0.1198 -0.0975 -0.4716 0.072 -0.898 -0.434 57 44 29 0 0
-0.1218 -0.1035 -0.4934 0.243 -0.903 0.353 106 90 64 0 0
-0.1225 -0.1080 -0.5000 0.325 -0.811 0.487 87 73 44 0 0
-0.1228 -0.1102 -0.5025 0.243 -0.881 0.405 121 107 81 0 0
-0.1229 -0.1111 -0.5038 -0.143 -0.965 0.220 78 65 39 0 0
-0.1230 -0.1115 -0.5054 -0.097 -0.939 0.331 104 93 71 0 0
-0.1232 -0.1112 -0.5073 0.281 -0.858 0.430 74 63 41 0 0
-0.1233 -0.1104 -0.5095 0.417 -0.906 0.072 77 66 44 0 0
-0.1234 -0.1116 -0.5107 0.034 -0.864 0.502 83 72 50 0 0
-0.1236 -0.1110 -0.5128 0.120 -0.711 0.693 94 83 61 0 0
-0.1243 -0.1141 -0.5201 0.603 -0.688 0.403 74 63 41 0 0
-0.1248 -0.1088 -0.5302 0.534 -0.817 -0.219 68 56 32 0 0
-0.1337 -0.0779 -0.6699 -0.591 -0.784 0.193 20 16 15 0 0
-0.1356 -0.0758 -0.6960 -0.138 -0.688 0.713 9 8 6 0 0
-0.1362 -0.0792 -0.7019 0.214 -0.775 0.594 14 11 8 0 0
-0.1363 -0.0815 -0.7024 0.214 -0.965 0.151 23 19 14 0 0
-0.1365 -0.0816 -0.7044 0.222 -0.975 -0.025 31 26 22 0 0
-0.1398 -0.1320 -0.7154 -0.108 -0.843 0.528 146 132 95 0 0
-0.1404 -0.1330 -0.7228 -0.191 -0.979 0.065 134 114 79 0 0
-0.1424 -0.1130 -0.7631 -0.196 -0.836 -0.512 71 59 35 0 0
-0.1469 -0.1279 -0.8133 -0.106 -0.808 0.580 78 58 33 0 0
-0.1475 -0.1321 -0.8184 -0.363 -0.902 0.234 80 66 40 0 0
-0.1481 -0.1340 -0.8256 -0.158 -0.889 0.429 119 104 70 0 0
-0.1493 -0.1409 -0.8371 -0.206 -0.975 -0.079 103 88 51 0 0
-0.1522 -0.1461 -0.8723 0.258 -0.963 -0.072 167 166 164 0 0
-0.1020 -0.0191 -0.2633 -0.539 -0.441 0.718 109 96 80 0 0
-0.1084 -0.0553 -0.3257 0.025 -0.915 0.402 52 43 31 0 0
-0.1109 -0.0592 -0.3557 -0.206 -0.969 -0.134 34 26 16 0 0
-0.1110 -0.0584 -0.3576 -0.207 -0.950 -0.234 31 22 15 0 0
-0.1154 -0.1056 -0.3863 -0.038 -0.996 0.075 61 46 31 0 0
-0.1165 -0.1038 -0.4019 -0.083 -0.985 -0.151 99 84 63 0 0
-0.1211 -0.1007 -0.4647 -0.143 -0.888 0.438 76 63 45 0 0
-0.1212 -0.0999 -0.4668 0.005 -0.981 -0.194 75 64 45 0 0
-0.1213 -0.0991 -0.4689 -0.226 -0.874 -0.431 64 52 35 0 0
-0.1229 -0.1034 -0.4880 0.143 -0.945 0.295 93 79 48 0 0
-0.1235 -0.1058 -0.4939 0.013 -0.900 0.435 109 95 66 0 0
-0.1236 -0.1064 -0.4953 0.013 -0.900 0.435 106 91 62 0 0
-0.1243 -0.1101 -0.5024 0.422 -0.858 0.294 116 102 76 0 0
-0.1245 -0.1109 -0.5037 -0.157 -0.955 0.251 86 73 47 0 0
-0.1246 -0.1112 -0.5054 0.381 -0.713 0.588 97 85 61 0 0
-0.1248 -0.1119 -0.5068 0.079 -0.885 0.459 79 67 44 0 0
-0.1249 -0.1115 -0.5088 -0.107 -0.926 0.362 91 79 55 0 0
-0.1250 -0.1122 -0.5102 -0.110 -0.895 0.432 76 64 41 0 0
-0.1264 -0.1131 -0.5277 -0.482 -0.862 -0.154 67 55 31 0 0
-0.1265 -0.1145 -0.5287 -0.482 -0.870 -0.107 70 57 34 0 0
-0.1294 -0.0879 -0.5828 0.913 -0.169 0.370 37 32 26 0 0
-0.1316 -0.1093 -0.5986 0.204 -0.935 0.291 68 55 39 0 0
-0.1317 -0.1099 -0.6002 0.162 -0.914 0.372 62 49 33 0 0
-0.1319 -0.1100 -0.6020 -0.012 -0.986 0.165 52 39 23 0 0
-0.1333 -0.1101 -0.6211 0.221 -0.975 -0.010 77 64 46 0 0
-0.1336 -0.1090 -0.6257 0.017 -0.988 -0.153 85 72 54 0 0
-0.1353 -0.0773 -0.6681 -0.028 -0.776 0.630 14 10 9 0 0
-0.1370 -0.0741 -0.6928 -0.493 -0.845 0.206 9 8 6 0 0
-0.1381 -0.0802 -0.7031 -0.263 -0.885 0.385 21 17 13 0 0
-0.1415 -0.1314 -0.7156 -0.349 -0.773 0.530 141 125 85 0 0
-0.1421 -0.1328 -0.7227 -0.304 -0.893 0.330 105 88 57 0 0
-0.1486 -0.1285 -0.8125 0.053 -0.881 0.470 84 67 40 0 0
-0.1494 -0.1322 -0.8203 -0.246 -0.910 0.332 109 93 61 0 0
-0.1536 -0.1480 -0.8658 -0.034 -0.999 -0.023 134 130 125 0 0
-0.1538 -0.1461 -0.8698 0.313 -0.765 0.563 155 152 152 0 0
-0.1539 -0.1479 -0.8703 0.348 -0.667 0.659 167 166 165 0 0
-0.1072 -0.0425 -0.2970 -0.229 -0.885 0.405 75 62 38 0 0
-0.1104 -0.0568 -0.3300 -0.134 -0.887 0.442 83 72 55 0 0
-0.1123 -0.0581 -0.3543 -0.327 -0.940 -0.094 26 19 11 0 0
-0.1124 -0.0580 -0.3560 -0.323 -0.945 -0.047 32 23 14 0 0
-0.1165 -0.1066 -0.3808 -0.127 -0.982 0.138 55 41 24 0 0
-0.1181 -0.1008 -0.4047 -0.254 -0.956 -0.150 107 92 71 0 0
-0.1182 -0.0998 -0.4068 0.001 -0.981 -0.196 89 74 52 0 0
-0.1214 -0.0983 -0.4500 -0.204 -0.899 0.386 65 51 35 0 0
-0.1226 -0.1004 -0.4647 -0.143 -0.888 0.438 67 55 39 0 0
-0.1229 -0.0987 -0.4690 -0.226 -0.874 -0.431 47 38 24 0 0
-0.1254 -0.1077 -0.4963 0.296 -0.813 0.502 121 108 75 0 0
-0.1261 -0.1106 -0.5037 -0.157 -0.955 0.251 74 60 34 0 0
-0.1262 -0.1111 -0.5052 -0.028 -0.951 0.308 78 64 41 0 0
-0.1263 -0.1116 -0.5068 -0.046 -0.975 0.219 69 54 31 0 0
-0.1265 -0.1120 -0.5084 -0.046 -0.975 0.219 79 65 41 0 0
-0.1266 -0.1120 -0.5101 -0.110 -0.895 0.432 74 60 37 0 0
-0.1268 -0.1125 -0.5117 -0.007 -0.717 0.697 71 57 33 0 0
-0.1272 -0.1160 -0.5152 0.431 -0.809 0.399 62 47 24 0 0
-0.1273 -0.1168 -0.5166 0.445 -0.881 0.162 72 57 34 0 0
-0.1305 -0.0948 -0.5710 0.826 -0.429 -0.367 31 26 22 0 0
-0.1306 -0.0925 -0.5742 0.840 -0.428 -0.333 34 29 25 0 0
-0.1307 -0.0940 -0.5753 0.810 -0.489 -0.323 36 31 25 0 0
-0.1309 -0.0932 -0.5776 0.913 -0.394 0.108 37 32 26 0 0
-0.1344 -0.1119 -0.6121 0.139 -0.980 0.140 71 58 39 0 0
-0.1398 -0.0797 -0.7032 -0.263 -0.885 0.385 20 16 12 0 0
-0.1503 -0.1289 -0.8119 -0.141 -0.875 0.462 89 74 48 0 0
-0.1511 -0.1316 -0.8205 -0.316 -0.883 0.347 119 103 66 0 0
-0.1513 -0.1316 -0.8227 -0.168 -0.952 0.255 127 112 76 0 0
-0.1514 -0.1321 -0.8245 -0.168 -0.952 0.255 112 97 66 0 0
-0.1516 -0.1337 -0.8253 0.055 -0.845 0.532 99 84 52 0 0
-0.1518 -0.1334 -0.8277 -0.247 -0.854 0.459 101 85 52 0 0
-0.1530 -0.1396 -0.8398 0.292 -0.956 -0.036 97 81 53 0 0
-0.1553 -0.1494 -0.8643 -0.493 -0.862 0.121 136 133 129 0 0
-0.1554 -0.1495 -0.8664 -0.385 -0.879 0.282 157 154 154 0 0
-0.1556 -0.1496 -0.8685 -0.427 -0.902 0.069 168 167 166 0 0
-0.1559 -0.1525 -0.8704 0.312 -0.581 0.751 181 180 178 0 0
-0.1118 -0.0561 -0.3285 -0.214 -0.853 0.476 141 129 113 0 0
-0.1127 -0.0596 -0.3388 -0.210 -0.967 0.145 57 46 32 0 0
-0.1129 -0.0598 -0.3403 -0.210 -0.967 0.145 51 41 29 0 0
-0.1137 -0.0583 -0.3524 -0.158 -0.987 -0.009 25 17 10 0 0
-0.1145 -0.0534 -0.3658 -0.026 -0.960 0.278 22 16 10 0 0
-0.1147 -0.0538 -0.3674 -0.211 -0.875 0.436 28 22 15 0 0
-0.1148 -0.0547 -0.3687 -0.155 -0.851 0.502 41 35 27 0 0
-0.1189 -0.1042 -0.3932 -0.339 -0.935 -0.109 99 87 67 0 0
-0.1243 -0.0988 -0.4670 -0.251 -0.935 -0.252 44 36 26 0 0
-0.1246 -0.0991 -0.4704 -0.378 -0.875 -0.301 47 39 29 0 0
-0.1253 -0.0984 -0.4795 -0.302 -0.721 0.624 121 110 87 0 0
-0.1271 -0.1093 -0.4971 0.032 -0.944 0.327 103 88 55 0 0
-0.1272 -0.1099 -0.4986 0.032 -0.944 0.327 95 81 52 0 0
-0.1274 -0.1101 -0.5002 -0.124 -0.943 0.310 76 62 36 0 0
-0.1275 -0.1106 -0.5018 -0.124 -0.943 0.310 72 57 33 0 0
-0.1277 -0.1111 -0.5033 -0.124 -0.943 0.310 67 53 28 0 0
-0.1278 -0.1117 -0.5048 -0.175 -0.919 0.352 80 65 41 0 0
-0.1282 -0.1120 -0.5100 0.058 -0.889 0.454 73 60 36 0 0
-0.1288 -0.1166 -0.5147 0.431 -0.809 0.399 59 44 21 0 0
-0.1335 -0.1037 -0.5845 0.084 -0.858 0.507 69 60 42 0 0
-0.1359 -0.1122 -0.6098 0.071 -0.997 0.008 78 66 46 0 0
-0.1406 -0.0737 -0.6947 -0.195 -0.962 0.193 10 9 7 0 0
-0.1408 -0.0738 -0.6967 -0.100 -0.879 0.466 12 11 8 0 0
-0.1519 -0.1277 -0.8106 -0.059 -0.917 0.393 84 71 43 0 0
-0.1541 -0.1379 -0.8323 0.003 -0.946 0.323 97 80 52 0 0
-0.1553 -0.1408 -0.8474 -0.076 -0.935 0.346 163 148 114 0 0
-0.1555 -0.1409 -0.8495 -0.014 -0.837 0.547 140 128 92 0 0
-0.1557 -0.1418 -0.8509 -0.014 -0.837 0.547 127 113 79 0 0
-0.1570 -0.1495 -0.8639 -0.611 -0.700 0.370 137 133 131 0 0
-0.1572 -0.1499 -0.8658 -0.689 -0.555 0.466 157 154 155 0 0
-0.1573 -0.1515 -0.8666 -0.634 -0.636 0.441 169 167 166 0 0
-0.1575 -0.1517 -0.8686 -0.138 -0.919 0.369 177 176 174 0 0
-0.1143 -0.0593 -0.3387 -0.319 -0.918 0.235 44 34 23 0 0
-0.1154 -0.0583 -0.3539 -0.225 -0.956 0.188 37 28 21 0 0
-0.1164 -0.0540 -0.3688 -0.307 -0.808 0.503 32 25 18 0 0
-0.1194 -0.1056 -0.3793 -0.150 -0.910 0.386 79 64 41 0 0
-0.1214 -0.0990 -0.4085 -0.399 -0.910 -0.111 92 80 58 0 0
-0.1259 -0.0996 -0.4665 -0.416 -0.851 -0.320 45 38 26 0 0
-0.1268 -0.0985 -0.4793 -0.392 -0.855 0.339 138 125 99 0 0
-0.1285 -0.1082 -0.4957 0.493 -0.755 0.432 95 83 53 0 0
-0.1292 -0.1111 -0.5031 -0.061 -0.949 0.310 69 53 30 0 0
-0.1294 -0.1116 -0.5046 -0.061 -0.949 0.310 82 66 41 0 0
-0.1299 -0.1149 -0.5101 0.143 -0.816 0.560 67 52 26 0 0
-0.1302 -0.1169 -0.5126 0.093 -0.869 0.485 63 47 23 0 0
-0.1306 -0.1190 -0.5168 -0.090 -0.940 0.328 64 49 27 0 0
-0.1324 -0.1154 -0.5423 -0.202 -0.978 -0.057 58 46 30 0 0
-0.1334 -0.1052 -0.5609 0.446 -0.774 -0.450 51 44 33 0 0
-0.1349 -0.1014 -0.5819 0.336 -0.891 0.307 87 79 61 0 0
-0.1350 -0.1020 -0.5834 0.336 -0.891 0.307 86 78 59 0 0
-0.1352 -0.1038 -0.5843 0.084 -0.858 0.507 57 45 30 0 0
-0.1379 -0.1127 -0.6151 -0.018 -1.000 -0.024 92 81 63 0 0
-0.1401 -0.0779 -0.6630 -0.028 -0.950 0.312 14 10 9 0 0
-0.1424 -0.0733 -0.6947 -0.402 -0.900 0.171 13 12 10 0 0
-0.1437 -0.0835 -0.7064 0.583 -0.723 0.371 34 30 24 0 0
-0.1452 -0.1164 -0.7076 -0.078 -0.746 0.661 96 83 64 0 0
-0.1455 -0.1195 -0.7095 -0.026 -0.589 0.808 139 122 89 0 0
-0.1458 -0.1220 -0.7117 -0.324 -0.637 0.699 149 132 89 0 0
-0.1488 -0.1151 -0.7542 -0.520 -0.794 0.315 101 86 61 0 0
-0.1503 -0.1046 -0.7794 -0.269 -0.685 0.677 50 38 18 0 0
-0.1532 -0.1261 -0.8052 0.063 -0.939 0.337 78 66 41 0 0
-0.1566 -0.1379 -0.8431 -0.215 -0.770 0.600 117 101 57 0 0
-0.1569 -0.1400 -0.8456 -0.144 -0.749 0.646 212 194 155 0 0
-0.1572 -0.1414 -0.8489 -0.068 -0.891 0.450 140 128 93 0 0
-0.1580 -0.1449 -0.8567 -0.379 -0.852 0.360 81 73 54 0 0
-0.1589 -0.1493 -0.8661 -0.667 -0.611 0.427 158 155 156 0 0
-0.1591 -0.1501 -0.8675 -0.509 -0.650 0.564 168 166 166 0 0
-0.1592 -0.1513 -0.8687 -0.404 -0.784 0.471 176 175 173 0 0
-0.1172 -0.0559 -0.3580 -0.382 -0.890 -0.248 37 30 20 0 0
-0.1183 -0.0591 -0.3702 -0.189 -0.262 0.946 69 62 52 0 0
-0.1202 -0.0968 -0.3744 -0.026 -0.455 0.890 173 161 127 0 0
-0.1212 -0.1055 -0.3825 -0.179 -0.982 0.050 62 47 28 0 0
-0.1213 -0.1056 -0.3841 -0.113 -0.986 0.124 71 56 36 0 0
-0.1216 -0.1058 -0.3873 -0.191 -0.980 0.050 81 68 49 0 0
-0.1229 -0.0983 -0.4086 -0.399 -0.910 -0.111 86 74 52 0 0
-0.1261 -0.0964 -0.4504 -0.060 -0.983 0.172 46 32 21 0 0
-0.1265 -0.0973 -0.4552 -0.011 -0.963 0.271 73 60 43 0 0
-0.1280 -0.0940 -0.4760 0.043 -0.879 0.475 35 24 17 0 0
-0.1281 -0.0953 -0.4771 -0.186 -0.888 0.422 52 43 30 0 0
-0.1286 -0.0993 -0.4805 -0.279 -0.919 0.277 159 143 113 0 0
-0.1290 -0.1025 -0.4843 0.022 -0.933 0.360 69 56 29 0 0
-0.1308 -0.1109 -0.5031 -0.021 -0.929 0.371 66 51 29 0 0
-0.1322 -0.1186 -0.5169 -0.166 -0.920 0.355 52 37 19 0 0
-0.1324 -0.1193 -0.5183 -0.109 -0.926 0.361 65 49 31 0 0
-0.1325 -0.1193 -0.5201 -0.054 -0.995 0.081 73 57 36 0 0
-0.1326 -0.1190 -0.5220 0.249 -0.943 0.220 75 59 37 0 0
-0.1364 -0.1014 -0.5798 0.379 -0.898 0.225 89 81 65 0 0
-0.1365 -0.1019 -0.5814 0.336 -0.891 0.307 76 68 48 0 0
-0.1367 -0.1028 -0.5828 0.083 -0.882 0.464 81 73 53 0 0
-0.1368 -0.1036 -0.5842 -0.044 -0.862 0.506 45 34 18 0 0
-0.1383 -0.1115 -0.5984 0.068 -0.892 0.448 54 41 24 0 0
-0.1384 -0.1119 -0.6001 0.030 -0.945 0.325 59 46 29 0 0
-0.1433 -0.0720 -0.6851 0.072 -0.977 0.202 9 8 6 0 0
-0.1471 -0.1177 -0.7085 -0.146 -0.664 0.734 107 91 65 0 0
-0.1475 -0.1212 -0.7121 -0.446 -0.796 0.410 153 134 92 0 0
-0.1507 -0.1120 -0.7584 -0.207 -0.978 -0.035 87 75 47 0 0
-0.1569 -0.1356 -0.8251 -0.013 -0.911 0.413 97 80 51 0 0
-0.1585 -0.1387 -0.8443 -0.148 -0.837 0.527 185 170 124 0 0
-0.1587 -0.1396 -0.8457 -0.148 -0.837 0.527 197 180 143 0 0
-0.1590 -0.1412 -0.8488 -0.068 -0.891 0.450 141 127 92 0 0
-0.1607 -0.1474 -0.8676 -0.613 -0.725 0.314 160 158 159 0 0
-0.1608 -0.1490 -0.8683 -0.628 -0.579 0.521 169 167 167 0 0
-0.1609 -0.1526 -0.8673 -0.236 -0.643 0.729 176 175 173 0 0
-0.1610 -0.1593 -0.8655 -0.127 -0.465 0.876 185 184 182 0 0
-0.1185 -0.0575 -0.3539 -0.148 -0.983 0.105 36 27 20 0 0
-0.1210 -0.0846 -0.3706 0.277 -0.173 0.945 120 112 99 0 0
-0.1217 -0.0964 -0.3744 -0.193 -0.438 0.878 199 186 149 0 0
-0.1219 -0.0981 -0.3754 -0.396 -0.623 0.674 189 177 141 0 0
-0.1277 -0.0959 -0.4505 -0.305 -0.918 0.252 34 20 12 0 0
-0.1339 -0.1193 -0.5181 -0.099 -0.926 0.364 51 34 18 0 0
-0.1341 -0.1197 -0.5197 -0.115 -0.992 0.059 79 62 44 0 0
-0.1342 -0.1197 -0.5215 -0.143 -0.968 0.208 73 57 36 0 0
-0.1344 -0.1201 -0.5231 -0.302 -0.950 0.076 64 48 25 0 0
-0.1384 -0.1036 -0.5840 0.294 -0.853 0.432 67 56 35 0 0
-0.1387 -0.1081 -0.5851 0.194 -0.912 0.360 69 54 36 0 0
-0.1390 -0.1088 -0.5885 0.206 -0.913 0.352 53 39 22 0 0
-0.1400 -0.1119 -0.5999 0.030 -0.945 0.325 67 53 37 0 0
-0.1447 -0.0734 -0.6798 -0.345 -0.759 0.552 9 8 6 0 0
-0.1449 -0.0735 -0.6818 -0.253 -0.718 0.648 9 8 6 0 0
-0.1450 -0.0745 -0.6832 -0.153 -0.853 0.499 9 8 6 0 0
-0.1469 -0.0786 -0.7052 -0.234 -0.881 0.412 28 23 18 0 0
-0.1472 -0.0809 -0.7077 0.192 -0.457 0.868 35 31 22 0 0
-0.1481 -0.1059 -0.7066 0.040 -0.409 0.912 48 42 29 0 0
-0.1483 -0.1076 -0.7074 0.040 -0.409 0.912 59 50 38 0 0
-0.1484 -0.1099 -0.7078 0.189 -0.463 0.866 83 74 60 0 0
-0.1203 -0.0537 -0.3584 -0.530 -0.787 -0.315 38 29 20 0 0
-0.1205 -0.0527 -0.3605 -0.278 -0.873 -0.402 29 21 12 0 0
-0.1223 -0.0815 -0.3700 0.167 -0.191 0.967 113 102 91 0 0
-0.1233 -0.0964 -0.3743 -0.056 -0.632 0.773 196 181 141 0 0
-0.1234 -0.0966 -0.3758 -0.319 -0.859 0.399 204 189 151 0 0
-0.1324 -0.1041 -0.4867 -0.069 -0.886 0.459 139 126 94 0 0
-0.1348 -0.1162 -0.5107 0.040 -0.848 0.529 37 23 13 0 0
-0.1351 -0.1177 -0.5134 0.102 -0.849 0.518 48 32 17 0 0
-0.1364 -0.1199 -0.5284 0.042 -0.999 0.001 74 60 39 0 0
-0.1483 -0.0777 -0.7014 0.160 -0.828 0.538 21 17 16 0 0
-0.1486 -0.0795 -0.7043 0.073 -0.833 0.548 25 21 16 0 0
-0.1488 -0.0803 -0.7058 -0.055 -0.876 0.480 44 38 30 0 0
-0.1514 -0.1277 -0.7150 -0.279 -0.510 0.814 173 157 117 0 0
-0.1601 -0.1329 -0.8226 -0.113 -0.676 0.728 84 66 40 0 0
-0.1230 -0.0542 -0.3716 -0.539 -0.542 0.645 53 46 36 0 0
-0.1237 -0.0790 -0.3691 0.188 -0.207 0.960 126 117 106 0 0
-0.1239 -0.0819 -0.3697 0.188 -0.207 0.960 113 104 91 0 0
-0.1245 -0.0924 -0.3724 0.143 -0.609 0.780 172 159 125 0 0
-0.1248 -0.0962 -0.3742 -0.056 -0.632 0.773 202 189 151 0 0
-0.1255 -0.1035 -0.3796 -0.248 -0.885 0.394 40 26 12 0 0
-0.1318 -0.0987 -0.4610 -0.088 -0.854 0.513 74 61 44 0 0
-0.1347 -0.1060 -0.4944 -0.292 -0.921 0.259 92 78 52 0 0
-0.1378 -0.1196 -0.5266 0.181 -0.958 0.223 77 60 40 0 0
-0.1397 -0.1140 -0.5534 0.570 -0.790 -0.225 61 50 33 0 0
-0.1399 -0.1139 -0.5552 0.558 -0.818 -0.141 56 45 31 0 0
-0.1420 -0.1086 -0.5845 0.194 -0.943 0.272 89 74 55 0 0
-0.1421 -0.1087 -0.5863 0.225 -0.946 0.232 66 50 31 0 0
-0.1483 -0.0735 -0.6814 0.167 -0.965 0.200 11 9 7 0 0
-0.1496 -0.0754 -0.6966 -0.360 -0.712 0.603 11 10 6 0 0
-0.1497 -0.0761 -0.6982 -0.248 -0.920 0.302 16 12 9 0 0
-0.1499 -0.0758 -0.7005 -0.129 -0.981 0.147 15 11 10 0 0
-0.1590 -0.1165 -0.7947 -0.155 -0.952 0.262 95 77 48 0 0
-0.1618 -0.1318 -0.8232 -0.367 -0.714 0.596 84 67 41 0 0
-0.1633 -0.1353 -0.8399 0.057 -0.915 0.399 90 74 48 0 0
-0.1634 -0.1360 -0.8415 0.095 -0.854 0.512 130 116 90 0 0
-0.1636 -0.1367 -0.8431 0.106 -0.824 0.557 163 149 119 0 0
-0.1637 -0.1377 -0.8444 0.026 -0.890 0.455 128 113 80 0 0
-0.1662 -0.1494 -0.8694 -0.407 -0.204 0.890 179 178 176 0 0
-0.1193 -0.0452 -0.3099 -0.149 -0.924 0.353 35 24 11 0 0
-0.1253 -0.0783 -0.3693 0.325 -0.178 0.929 123 114 102 0 0
-0.1260 -0.0925 -0.3722 0.144 -0.601 0.786 164 150 117 0 0
-0.1265 -0.0981 -0.3750 -0.115 -0.754 0.647 185 168 134 0 0
-0.1348 -0.0977 -0.4789 0.002 -0.861 0.508 182 173 141 0 0
-0.1437 -0.1090 -0.5859 0.225 -0.946 0.232 69 52 34 0 0
-0.1443 -0.1110 -0.5923 0.005 -0.957 0.290 86 74 51 0 0
-0.1445 -0.1115 -0.5938 0.135 -0.909 0.393 76 64 40 0 0
-0.1446 -0.1119 -0.5955 0.005 -0.957 0.290 86 73 52 0 0
-0.1458 -0.1122 -0.6105 -0.017 -0.978 0.210 89 76 50 0 0
-0.1500 -0.0735 -0.6812 0.142 -0.925 0.351 12 10 8 0 0
-0.1507 -0.0706 -0.6914 -0.376 -0.885 0.274 12 8 7 0 0
-0.1511 -0.0720 -0.6946 -0.250 -0.608 0.754 11 8 6 0 0
-0.1515 -0.0757 -0.6983 -0.248 -0.920 0.302 14 10 7 0 0
-0.1517 -0.0755 -0.7004 -0.129 -0.981 0.147 14 10 9 0 0
-0.1519 -0.0783 -0.7027 0.087 -0.783 0.616 21 16 14 0 0
-0.1534 -0.1069 -0.7072 -0.053 -0.390 0.919 81 68 52 0 0
-0.1555 -0.1287 -0.7240 -0.197 -0.804 0.562 100 84 54 0 0
-0.1644 -0.1334 -0.8326 -0.139 -0.946 0.294 85 73 44 0 0
-0.1653 -0.1369 -0.8427 0.026 -0.890 0.455 109 94 66 0 0
-0.1655 -0.1377 -0.8442 0.026 -0.890 0.455 115 100 68 0 0
-0.1656 -0.1381 -0.8461 -0.106 -0.951 0.291 119 103 69 0 0
-0.1659 -0.1397 -0.8490 -0.029 -0.958 0.286 123 106 71 0 0
-0.1678 -0.1508 -0.8678 -0.673 -0.725 0.146 180 179 177 0 0
-0.1207 -0.0443 -0.3084 -0.089 -0.953 0.291 92 80 61 0 0
-0.1229 -0.0526 -0.3319 -0.318 -0.940 0.123 56 46 31 0 0
-0.1249 -0.0523 -0.3569 -0.403 -0.862 -0.307 46 37 28 0 0
-0.1250 -0.0507 -0.3591 -0.291 -0.925 -0.243 43 34 25 0 0
-0.1276 -0.0918 -0.3723 0.087 -0.376 0.923 138 123 91 0 0
-0.1277 -0.0944 -0.3730 -0.331 -0.483 0.810 167 151 113 0 0
-0.1287 -0.1020 -0.3815 -0.057 -0.815 0.576 60 48 28 0 0
-0.1288 -0.1032 -0.3827 0.010 -0.904 0.427 77 65 43 0 0
-0.1386 -0.1121 -0.4998 0.021 -0.862 0.506 42 32 25 0 0
-0.1413 -0.1195 -0.5299 -0.100 -0.987 0.128 68 51 30 0 0
-0.1414 -0.1201 -0.5314 0.048 -0.968 0.245 87 71 47 0 0
-0.1423 -0.1201 -0.5422 -0.132 -0.990 -0.054 111 95 67 0 0
-0.1449 -0.1088 -0.5802 0.133 -0.901 0.412 96 82 63 0 0
-0.1451 -0.1085 -0.5823 0.136 -0.903 0.408 67 53 33 0 0
-0.1452 -0.1092 -0.5837 0.136 -0.903 0.408 71 54 36 0 0
-0.1457 -0.1102 -0.5888 -0.057 -0.959 0.276 86 71 47 0 0
-0.1458 -0.1107 -0.5904 -0.057 -0.959 0.276 90 77 50 0 0
-0.1460 -0.1111 -0.5920 -0.094 -0.970 0.222 71 58 33 0 0
-0.1461 -0.1117 -0.5936 -0.104 -0.909 0.403 96 84 59 0 0
-0.1462 -0.1117 -0.5954 -0.139 -0.981 0.137 82 70 48 0 0
-0.1464 -0.1109 -0.5978 -0.082 -0.938 0.337 72 59 41 0 0
-0.1466 -0.1115 -0.5994 -0.082 -0.938 0.337 69 56 39 0 0
-0.1508 -0.0698 -0.6711 -0.006 -0.976 0.219 19 14 12 0 0
-0.1510 -0.0703 -0.6728 0.166 -0.888 0.430 19 14 13 0 0
-0.1512 -0.0703 -0.6749 -0.177 -0.877 0.447 18 14 13 0 0
-0.1522 -0.0689 -0.6881 0.288 -0.685 0.669 11 10 8 0 0
-0.1525 -0.0701 -0.6915 -0.661 -0.626 0.415 12 9 8 0 0
-0.1526 -0.0710 -0.6930 -0.636 -0.651 0.415 11 8 6 0 0
-0.1534 -0.0752 -0.7004 -0.207 -0.954 0.217 13 9 7 0 0
-0.1537 -0.0783 -0.7024 0.082 -0.792 0.605 23 16 14 0 0
-0.1541 -0.0810 -0.7068 0.120 -0.927 0.355 38 31 23 0 0
-0.1554 -0.1135 -0.7084 -0.397 -0.906 0.146 107 93 65 0 0
-0.1577 -0.1268 -0.7314 -0.169 -0.948 -0.269 134 114 78 0 0
-0.1579 -0.1249 -0.7349 -0.490 -0.871 -0.046 138 118 82 0 0
-0.1582 -0.1231 -0.7383 -0.353 -0.836 -0.420 129 111 76 0 0
-0.1658 -0.1321 -0.8290 -0.084 -0.978 0.192 115 100 68 0 0
-0.1266 -0.0500 -0.3592 -0.340 -0.904 -0.257 45 36 27 0 0
-0.1292 -0.0937 -0.3731 -0.025 -0.459 0.888 183 167 127 0 0
-0.1301 -0.1016 -0.3799 0.064 -0.937 0.343 47 34 22 0 0
-0.1302 -0.1020 -0.3814 0.024 -0.871 0.491 70 58 38 0 0
-0.1303 -0.1030 -0.3826 -0.070 -0.950 0.304 89 77 55 0 0
-0.1335 -0.0890 -0.4269 -0.295 -0.941 0.163 52 42 32 0 0
-0.1337 -0.0907 -0.4296 -0.300 -0.886 0.353 59 47 37 0 0
-0.1339 -0.0912 -0.4311 -0.300 -0.886 0.353 57 44 35 0 0
-0.1418 -0.1184 -0.5178 -0.115 -0.964 0.238 55 37 20 0 0
-0.1430 -0.1198 -0.5314 -0.390 -0.859 0.332 83 67 42 0 0
-0.1436 -0.1194 -0.5388 -0.116 -0.980 0.160 104 87 57 0 0
-0.1465 -0.1092 -0.5798 0.287 -0.950 0.120 100 87 70 0 0
-0.1526 -0.0688 -0.6716 0.136 -0.990 -0.045 17 12 11 0 0
-0.1559 -0.0805 -0.7069 -0.096 -0.765 0.637 39 32 24 0 0
-0.1569 -0.1071 -0.7087 -0.141 -0.254 0.957 90 78 60 0 0
-0.1586 -0.1262 -0.7214 -0.197 -0.804 0.562 102 87 56 0 0
-0.1598 -0.1234 -0.7379 -0.397 -0.883 -0.252 124 108 71 0 0
-0.1601 -0.1184 -0.7438 -0.111 -0.853 -0.510 105 91 61 0 0
-0.1631 -0.1060 -0.7852 -0.335 -0.922 0.192 67 51 25 0 0
-0.1636 -0.1068 -0.7910 -0.146 -0.938 0.314 100 83 48 0 0
-0.1637 -0.1087 -0.7917 0.022 -0.995 0.096 142 120 85 0 0
-0.1643 -0.1129 -0.7969 -0.026 -0.982 0.189 89 73 46 0 0
-0.1666 -0.1276 -0.8195 -0.167 -0.831 0.531 53 38 21 0 0
-0.1692 -0.1388 -0.8471 -0.157 -0.882 0.444 126 106 73 0 0
-0.1714 -0.1486 -0.8694 -0.614 -0.774 0.154 180 180 178 0 0
-0.1714 -0.1533 -0.8673 -0.532 -0.538 0.654 184 183 181 0 0
-0.1281 -0.0518 -0.3568 -0.307 -0.936 -0.175 59 50 41 0 0
-0.1282 -0.0510 -0.3587 -0.196 -0.968 -0.159 53 44 35 0 0
-0.1304 -0.0874 -0.3704 0.016 -0.347 0.938 175 161 125 0 0
-0.1316 -0.1017 -0.3797 -0.311 -0.877 0.366 52 39 23 0 0
-0.1352 -0.0876 -0.4291 -0.325 -0.944 0.054 49 39 29 0 0
-0.1408 -0.1062 -0.4901 -0.297 -0.729 0.617 91 79 55 0 0
-0.1416 -0.1117 -0.4979 -0.132 -0.900 0.417 56 44 28 0 0
-0.1420 -0.1131 -0.5025 -0.226 -0.946 0.234 42 33 24 0 0
-0.1426 -0.1150 -0.5086 0.059 -0.859 0.509 33 24 17 0 0
-0.1430 -0.1178 -0.5125 0.048 -0.922 0.383 46 30 15 0 0
-0.1450 -0.1193 -0.5369 -0.149 -0.959 0.240 84 67 41 0 0
-0.1452 -0.1192 -0.5387 -0.116 -0.980 0.160 90 73 43 0 0
-0.1454 -0.1197 -0.5421 -0.132 -0.990 -0.054 112 96 66 0 0
-0.1461 -0.1192 -0.5497 0.076 -0.996 -0.054 108 92 65 0 0
-0.1476 -0.1135 -0.5714 0.103 -0.942 -0.320 67 56 41 0 0
