ply
format ascii 1.0
element vertex 675
property float x
property float y
property float z
property uchar diffuse_red
property uchar diffuse_green
property uchar diffuse_blue
end_header
0.06096380848395033 0.10890776303788766 -0.5047454730145761 141 126 96
0.060449289321685556 0.10968355348078183 -0.5071161248278313 123 107 78
0.06030667308478477 0.10989468397223837 -0.5091890651123917 154 137 105
0.06016380048035383 0.1101061946840548 -0.5112654811230651 157 140 104
0.060019650091174215 0.11031963635086019 -0.5133462203895278 155 136 102
0.05976518458416827 0.11070055296311737 -0.5155212202631234 153 134 99
0.05947099279205123 0.11114177201401972 -0.5177330789479337 140 120 86
0.05935946955079441 0.1113056491578642 -0.5197973954955943 147 129 96
0.05920011216612886 0.11154213987164609 -0.5219047075787625 138 121 88
0.05906170605679242 0.1117468129926569 -0.5239978891317806 145 129 96
0.05892304802579962 0.11195185952216163 -0.5260945652173086 130 113 80
0.058797742344441795 0.11213662568601844 -0.5281832722375968 144 126 93
0.05857874814007044 0.11246361834923843 -0.5303544884154581 146 128 96
0.05854885044461991 0.11250352097603511 -0.5323688717781399 138 121 89
0.05844033737262261 0.11266276671797414 -0.5344529138569123 141 124 93
0.0582040989565934 0.11301590967598517 -0.5366493815558675 140 123 90
0.05789760250163156 0.11347570321002297 -0.5389101225517552 141 122 89
0.05787251015756789 0.11350827673438142 -0.5409326724474414 117 99 68
0.057501569908915195 0.11406588200089662 -0.543257048455036 109 92 64
0.057532757962079434 0.11401299808470848 -0.5452370657358246 137 120 92
0.05703205077027071 0.11476758001567548 -0.5476828639380287 145 129 97
0.057474682205519434 0.11409006875181006 -0.5493092840861394 136 118 85
0.05732968009192865 0.11430463677383652 -0.5514511750613404 115 98 70
0.057328102010283905 0.11430146659396051 -0.5534701320525082 137 122 92
0.057345263414292996 0.11426984167593944 -0.5554750268426826 141 125 87
0.05606801271550102 0.1162032056209186 -0.5586307032717516 144 126 88
0.05653505112240992 0.11548861976578563 -0.560243930214961 153 136 99
0.05612389523970229 0.11610717156735313 -0.5626414005695283 146 130 97
0.05650182032426371 0.11552785754631681 -0.5643364253338623 100 85 55
0.056328276000550404 0.11578568763212188 -0.5665278272646779 157 143 107
0.056180550361234705 0.11600431451833247 -0.5686995431521661 151 136 98
0.05591885245206735 0.11639594259664687 -0.5709780187151893 152 135 103
0.05581271406176544 0.11655141991129593 -0.5731192277553323 163 145 114
0.0556784718362455 0.11674954968355894 -0.5752893052185954 141 123 90
0.05566671096514783 0.11676174567332993 -0.5773506155973712 146 128 91
0.0551758064147696 0.11750126125583173 -0.5798549044223371 167 150 112
0.0549621518785266 0.11781990570580858 -0.5821092062191605 171 156 117
0.05467431223564659 0.11825114892382126 -0.5844360984960216 185 167 126
0.05458156716335738 0.11838623697497862 -0.5865862324340703 156 137 96
0.05448867102025923 0.11852154559061716 -0.5887396794875407 177 160 123
0.05439556638143289 0.11865716191720996 -0.5908965007565586 175 158 119
0.05426107998928781 0.11885558360599854 -0.5930953385582708 171 154 114
0.054090052083311135 0.11910946248540315 -0.5953320425103606 164 148 107
0.05379660461366767 0.11954915195802537 -0.5976881113369826 174 158 118
0.05351359657740107 0.11997298307360281 -0.6000387858239353 165 150 110
0.053344569922555096 0.12022379148847893 -0.6022854752866106 169 152 114
0.05348480932126767 0.12000516263614718 -0.6042406730722074 161 145 108
0.053566191240788735 0.11987586680576157 -0.6062539512623856 159 143 107
0.05287335129960652 0.12092172285153407 -0.6090133774762636 161 146 107
0.05169148736199353 0.12270982302405409 -0.6122515106919193 164 149 110
0.05242343373592262 0.12159303973252147 -0.6136482741763094 161 144 109
0.05218563134678353 0.12194817557244785 -0.615984355949689 157 141 110
0.05178384250128909 0.12255220180868447 -0.6184843801088815 165 151 121
0.05140069961444585 0.12312791241334134 -0.6209714665008109 161 148 121
0.05094923760001091 0.12380730367713516 -0.6235307239256257 165 156 134
0.05125999207666554 0.12332979232673073 -0.625345643753189 186 180 166
0.050309147144032534 0.12476711491189209 -0.6284066717777216 189 187 179
0.05034508817404873 0.12470669363670134 -0.6304992141940768 183 183 177
0.05029734609840397 0.12477327697835075 -0.6326773719165651 196 195 190
0.05016956989364346 0.12496132437892486 -0.6349383396799966 199 199 195
0.05010460437867004 0.12505403122051795 -0.6371400127197708 209 210 207
0.049919069478244565 0.12532972224136324 -0.6394658369133008 216 216 215
0.049681519444257666 0.12568434730484948 -0.6418479799547804 215 216 215
0.04714875738343538 0.1295224506713493 -0.646553384530332 216 217 217
0.04801509042010371 0.1282016552591328 -0.6478327629831998 216 218 217
0.04788707171080114 0.12838999790034022 -0.6501203700313551 217 218 219
0.04786639340091017 0.1284154208755217 -0.6523020452148744 217 218 220
0.04728091440567378 0.12929802469061108 -0.6550647668095596 216 219 219
0.047655912967496744 0.12872291785850803 -0.6568477361337491 217 219 220
0.04717592130428738 0.12944539930132334 -0.6595118878458299 217 218 221
0.04669463866905618 0.1301698235176323 -0.6621833471511614 218 218 221
0.04739277340345982 0.12857122212361854 -0.856871146486562 199 199 197
0.04622981103437954 0.1303285124708966 -0.8608595814363982 194 192 190
0.047093358407632346 0.1290119491254313 -0.862140248832005 176 175 172
0.04798255757144873 0.1276564860956631 -0.8633831955223847 171 169 168
0.04852380292826308 0.12682880337971 -0.8650923470693139 181 180 182
0.05025069300392643 0.1242027675999891 -0.8651960945748953 185 185 187
0.05005830867835631 0.1244878444270659 -0.8678948491117151 187 187 189
0.048974638345740534 0.126124769153815 -0.8718113194651895 191 191 193
0.049722818315816736 0.12498321627477071 -0.8732393588584623 194 194 195
0.050565009266758165 0.12369908037625293 -0.8745363951373726 197 196 196
0.05292352332147329 0.12011511237165318 -0.8737495485327267 197 197 196
0.0592294475517042 0.10912585881243878 -0.29004112865052367 179 179 181
0.06168581180169372 0.1053993523728757 -0.2905796735645052 178 179 179
0.0625920803306166 0.1040204567318208 -0.2918443343220604 179 178 181
0.06349682344099654 0.10264388225524507 -0.2931068062174523 178 176 176
0.06514774641870123 0.1001372690441495 -0.294007451327255 153 150 140
0.06562246341115331 0.09941197139268619 -0.2954700825613573 125 116 96
0.06611829337890832 0.09865470202569601 -0.2969218245485112 121 107 81
0.06635756415160679 0.09828597290608387 -0.29849830036796887 120 105 75
0.06671378010376622 0.09774013883944994 -0.3000179132995057 118 104 72
0.06717926390547585 0.0970288298949879 -0.3014835160835274 110 97 65
0.0677864928256984 0.09610286627132006 -0.3028780804319189 102 89 56
0.06798108809102346 0.09580179018172158 -0.3044775460403569 97 83 52
0.06841584210864222 0.09513702255333657 -0.30595721422035416 94 81 51
0.06862868347388763 0.0948083111449301 -0.3075485866980664 92 78 51
0.06844322436244132 0.0950827612753832 -0.3093430570088919 82 68 43
0.069601634597925 0.09332213158648416 -0.31045424727364745 82 68 42
0.06986268939074494 0.09292040603045683 -0.3120217587518476 87 73 47
0.06978241246633426 0.09303556215341553 -0.3137659505780109 91 77 49
0.06958790564103086 0.09332368815227851 -0.3155717909111254 94 79 52
0.07104269905149345 0.09111427680735032 -0.31652052176730744 94 81 54
0.07099316044422252 0.09118287395526524 -0.31825190251544583 96 83 56
0.07098794528084858 0.09118434488849624 -0.31996215433013064 96 83 56
0.07137800158227883 0.09058726317175678 -0.3214650229096873 94 80 53
0.07098983201676456 0.09116861312722338 -0.32338207198452784 85 71 44
0.07090891459147558 0.09128469330065454 -0.3251387822224254 88 74 47
0.0692795323810492 0.09374550026463258 -0.32773083797998537 94 80 53
0.07047160448242526 0.0919339571427007 -0.32880838744611374 91 77 51
0.06999915650206268 0.09264286739951436 -0.3307858688176267 93 79 53
0.06963415521587932 0.09318906445590783 -0.33270925030115667 94 80 54
0.06988471212308289 0.09280317364691756 -0.3342987480197433 90 78 50
0.0692517424879651 0.09375509951246389 -0.3363762633972318 94 83 55
0.06867288084804833 0.09462507599015213 -0.3384292695894628 82 71 43
0.06814339138643988 0.09542027551714388 -0.34045996627742975 89 78 51
0.06824057096215869 0.0952665857620571 -0.3421446951570448 91 79 53
0.0694682588756639 0.0934011434388493 -0.34319473728202055 90 78 54
0.06885659041240899 0.09432074161224449 -0.3452801282804535 89 77 52
0.06901455548985581 0.09407500316039662 -0.3469335704581908 87 75 50
0.06952919500590192 0.09328921683260678 -0.34838447563562547 93 81 56
0.06921879514793461 0.09375262365511786 -0.35030797231039146 88 76 51
0.06879012145704624 0.09439509321504197 -0.35230342134623527 94 82 57
0.06944431998406833 0.09339799483472433 -0.35367586801431916 95 83 57
0.06957701170019386 0.09319049824184324 -0.3553503152391812 96 82 56
0.06842826435835594 0.09492316651194262 -0.35777568918537106 93 79 53
0.06794331214579054 0.09565078730042874 -0.359819357915125 91 77 52
0.0678475074495752 0.09578920746498522 -0.36163796162614115 88 74 49
0.06782598715405182 0.09581514954042221 -0.36341507325137734 84 70 44
0.06804710887110266 0.09547372021899989 -0.36504969527257913 96 82 55
0.068305230300083 0.09507627017050714 -0.3666629685136419 96 82 56
0.0678098275925991 0.09581964736405724 -0.36873034672827587 94 80 53
0.06823695800471558 0.09516630828411575 -0.3702447686916632 102 88 61
0.06733695709000427 0.09652220855731103 -0.37256504830279186 100 86 60
0.0671034968240985 0.0968689659087243 -0.37448569456667197 105 91 65
0.06704787981904074 0.09694646475054272 -0.3763006986800087 102 88 62
0.0670139367235182 0.09699114159589599 -0.37810474989751586 97 83 57
0.06688612360425837 0.09717792234070614 -0.37996916604646264 110 96 69
0.06675820029909973 0.0973648593015597 -0.3818364662121818 118 104 77
0.06707584511494569 0.09687723702949227 -0.3834283416868815 104 88 62
0.06636691091481264 0.09794374764134862 -0.3856645006154601 116 100 74
0.0673064514120725 0.09651463338689249 -0.38686798404923933 101 85 59
0.06717924350714366 0.096700454742389 -0.3887434878599429 82 66 40
0.06715038215919765 0.09673738212905464 -0.39055928949098095 122 106 78
0.0668500732746538 0.09718523265801743 -0.39255074989633004 126 111 82
0.06665332710079545 0.09747629113578096 -0.39447959930306004 120 106 77
0.06670260170119797 0.09739490336773808 -0.3962531460841986 121 107 79
0.06675924746283579 0.09730235005031154 -0.3980237632297471 119 105 77
0.06645225198082506 0.09776027369989146 -0.4000326221430283 114 99 70
0.06626206024032617 0.09804136527453915 -0.40196909664931196 117 102 73
0.0659287301597138 0.09853912583898204 -0.4040026944939977 116 101 73
0.06569334914110093 0.09888859802868814 -0.40597582239072233 105 89 62
0.065473377446805 0.0992147309091435 -0.40794225781928506 114 98 72
0.06559389733500137 0.09902542981468661 -0.40968582127680475 109 93 67
0.06558195007444595 0.09903664470240925 -0.4115192644878494 101 85 59
0.06526636628526145 0.09950747614045201 -0.4135584918646817 99 82 56
0.06509594365327644 0.09975855876017956 -0.41550397513351417 102 85 59
0.06503684359104557 0.09984111917297021 -0.41737733898891 91 74 47
0.06495896206269905 0.09995209964800433 -0.4192659725579911 89 72 45
0.06503872682670625 0.09982444256979497 -0.42104971844605577 87 70 44
0.06492043030990219 0.09999658029908151 -0.4229708365780703 97 79 54
0.0648115737428015 0.1001544182610518 -0.42488833498878964 84 67 40
0.06488822124079509 0.10003145600581764 -0.42668051804458634 81 64 36
0.0648064430759466 0.10014828761264122 -0.4285843423181791 103 86 57
0.06476062918099051 0.10021067236470815 -0.4304657879219055 113 96 67
0.06454171206455295 0.10053506107002369 -0.43247079452750886 110 94 65
0.06453485196346767 0.1005384643353893 -0.43433032515896874 93 78 50
0.06439398738241549 0.10074468861355207 -0.4362866329588513 93 76 48
0.06420822575332609 0.1010188572206022 -0.43827778474926493 112 95 66
0.06401123884279342 0.10131000372907505 -0.4402802319477968 128 112 79
0.0642480250283105 0.1009445920070213 -0.4419762430171609 135 119 86
0.06396300889899331 0.10136895516246662 -0.4440473162096377 117 101 68
0.06390992743951636 0.1014422596237346 -0.44595527589836487 126 110 77
0.063453576554415 0.10212591712977788 -0.448157390842212 131 115 82
0.0636020927396613 0.10189407492769052 -0.4499252731595102 137 121 87
0.06341046977418191 0.1021770327237261 -0.45194249182289575 132 116 82
0.0631723918964398 0.10253028738636134 -0.45399710125677334 139 123 90
0.06302460895348289 0.10274686767831787 -0.455989014186791 111 95 62
0.06317508407015635 0.10251202863117424 -0.4577639647161734 111 94 62
0.06288342943852632 0.10294633390663438 -0.4598678676438879 138 122 91
0.06252663582920559 0.10347920916824656 -0.46202423395713643 137 120 89
0.0625074711191708 0.10350108473327037 -0.46393282758736715 138 122 89
0.06250872339128746 0.10349205152891992 -0.4658285015315411 143 127 93
0.06273455661355284 0.10314312367277759 -0.46755736516301893 136 117 85
0.06225336152848429 0.10386421762599128 -0.4698215882153939 154 134 98
0.06216908664215848 0.10398459268557998 -0.4717897718426165 153 134 96
0.06194029286965988 0.10432367059538922 -0.4738708624384673 149 129 94
0.06181655857997953 0.10450373992982086 -0.47587526827341775 140 122 89
0.06189769062722991 0.10437375983650425 -0.47772540444593714 132 113 81
0.06176031549202329 0.10457445198023756 -0.47974581088764967 112 94 61
0.06137196374850412 0.10515494632056568 -0.48196359939909805 133 115 79
0.06148343388148886 0.10497902620863173 -0.4837977087050548 134 117 83
0.06087081371624162 0.10589888133396516 -0.4861982482188555 151 135 102
0.06048575988684149 0.10647433529405703 -0.488426637055526 157 139 100
0.06061546970722173 0.10627078051878942 -0.49025506255023216 150 132 94
0.06034361472073793 0.1066749028229159 -0.49240190908669723 154 136 98
0.060283891679762946 0.10675799594560476 -0.49438471416104596 158 140 102
0.06007652880359671 0.10706449696932949 -0.49648762956987363 145 128 91
0.05990368206935415 0.10731875273372249 -0.49856660894752136 136 120 87
0.06039185165017735 0.1065727183978953 -0.500119342254908 128 111 83
0.05989020320387117 0.10732450864744277 -0.5024675971220487 128 111 82
0.05988520782090889 0.10732473389666781 -0.5044202912320024 149 134 101
0.059914705880305896 0.10727275439734482 -0.5063474305117261 142 127 97
0.05989488196524809 0.10729540042412258 -0.5083168877772866 118 103 73
0.05979510987455508 0.10743901332229237 -0.5103541305908725 137 121 89
0.05954871189309857 0.10780448516388591 -0.5125145545814215 160 142 106
0.059147096764134155 0.1084048107834747 -0.5148065877309174 154 136 94
0.05887390728731892 0.10881079093152712 -0.516997431834027 151 132 95
0.058682073976095234 0.10909365264924462 -0.5191249235196655 142 123 90
0.058543473045786054 0.10929595356971883 -0.5212117153220714 154 137 103
0.058404615187730546 0.10949863095591074 -0.5233019886341324 148 132 97
0.05844805729475763 0.10942545749079106 -0.5252427335486002 148 132 96
0.058358783940702125 0.10955308647741294 -0.5272972813966859 145 127 92
0.05803741109346186 0.11003188915202666 -0.5295507922071815 147 128 93
0.05776711357510242 0.11043339475171307 -0.5317654426364011 149 131 95
0.05784272177357688 0.11031151024083692 -0.5336899748466423 138 120 86
0.05752710585939699 0.11078155760817789 -0.5359504782680574 118 99 66
0.057148416203213315 0.11134702097069252 -0.5382694401844004 127 108 75
0.05718914739619413 0.11127787387712068 -0.5402325233923037 132 113 82
0.056859631208407174 0.11176890601113773 -0.5425173712434459 111 95 67
0.05675629752817324 0.1119177076830126 -0.5446108142672552 123 108 81
0.05656028684552544 0.11220671656201787 -0.5467879421340824 144 128 99
0.05664510994755692 0.11207081749165741 -0.5487237395523135 126 109 79
0.05649660608869356 0.11228792581275719 -0.5508657944280768 120 104 79
0.05696630113088569 0.11156971748164284 -0.5524679877836118 125 112 85
0.0561050306231084 0.11286517899280278 -0.5552435598017345 160 144 111
0.05582867650074652 0.1132756755385153 -0.5575093383342244 136 121 87
0.056013047630345536 0.11298911842941631 -0.5593701106616507 135 119 84
0.055353024893866204 0.11398004155626094 -0.5619849383120689 155 137 104
0.05593578334445731 0.1130907480498576 -0.5634946615776142 149 132 101
0.05578618009019792 0.11330943309603154 -0.565660694152366 165 150 114
0.055557893538484976 0.11364714241138352 -0.5679010810321753 141 126 88
0.05528078988400245 0.11405868994552573 -0.5701895762123435 128 112 79
0.05529719775418168 0.11402618466167573 -0.5722160572134402 128 110 76
0.05514623529704096 0.11424687315915853 -0.5743973545905058 136 118 83
0.05539010604205749 0.11387023755886175 -0.5762214008154596 152 134 98
0.054937594860097444 0.11454708926370048 -0.5786849252809019 168 150 113
0.05501723397300637 0.1144188865484548 -0.5806642734742791 172 156 117
0.05474829248856686 0.11481800269593911 -0.5829674991626994 169 151 112
0.05436512885387587 0.11538989459719193 -0.5853808304874992 171 152 112
0.054137466212518665 0.11572653220455893 -0.5876546166749965 178 160 122
0.05405286439374821 0.11584673994435798 -0.5897989732787193 175 157 117
0.05377243968949033 0.11626316386678608 -0.5921297629459191 164 147 105
0.053571986213497486 0.11655859705917225 -0.5943898190233359 169 151 112
0.05339895443100118 0.11681253459202454 -0.5966279073328424 173 158 119
0.05300033546599994 0.11740770333194211 -0.5990830649687583 171 155 116
0.05281529439452423 0.11767977644877899 -0.6013407053861852 170 152 114
0.05262998787534687 0.11795223679300182 -0.6036024003844236 169 153 114
0.05243355252573545 0.118241516942764 -0.6058785397867434 172 157 118
0.0525435471755141 0.11806726150520822 -0.6078647766047498 168 153 112
0.05232132004243084 0.11839552968782736 -0.6101725194236224 177 162 119
0.05209858689934735 0.11872454795084744 -0.6124848220038956 173 155 116
0.05184687827642981 0.11909737950791308 -0.6148292702723316 164 145 111
0.05113867848527062 0.12016068336475345 -0.617621608815033 167 150 113
0.050847125442342905 0.12059374523867639 -0.6200149647544997 165 148 110
0.05049545916897297 0.12111771573489652 -0.622471688495983 163 145 109
0.05047368746325767 0.12114268132234557 -0.6246095487130009 159 143 113
0.05023917544081968 0.12148941680724697 -0.6269597377224435 128 114 89
0.05000120929912483 0.12184136094153784 -0.6293175480950505 120 109 84
0.04987604268918469 0.1220226769317761 -0.631567762600106 145 131 107
0.049753820099499 0.1221995268636273 -0.6338185528740383 142 131 107
0.04955519601732411 0.12249192098222081 -0.636149085889459 149 142 120
0.049498163234215464 0.12257014482698138 -0.6383418412312756 151 146 126
0.048875219326365044 0.12350428413050604 -0.6411062059187224 160 156 136
0.04850411743292002 0.12405749586811425 -0.6436235520389906 152 146 128
0.04872599063458344 0.12371384229020126 -0.6455464169598825 169 165 150
0.048668379369276676 0.12379288713838926 -0.6477540849466871 175 173 161
0.04891034562766605 0.12341883141807787 -0.649659918950822 184 181 171
0.048562006837352845 0.12393755690655502 -0.6521697013276688 201 199 189
0.048272588683013845 0.12436715175180807 -0.6546241670254286 212 209 204
0.04786827053071349 0.12497050247705599 -0.6572014033468769 216 214 213
0.04747233843375462 0.1255611498485003 -0.6597754347806127 217 216 219
0.04709519126545961 0.12612336726763929 -0.6623354293699963 218 217 219
0.04682068119270874 0.126530341509409 -0.6647941781949521 218 218 219
0.04560714777123462 0.12835741934426248 -0.6682352949617371 218 219 222
0.04581802732303003 0.12803027987759008 -0.6701993678945083 217 218 221
0.045513710722891176 0.1284822730992758 -0.6727047157924643 217 219 217
0.04503927313698819 0.12919152215276308 -0.6753937504615272 217 219 218
0.044764101450307736 0.12893900765367944 -0.8533501812745419 185 183 172
0.04474609388016146 0.12895708378295473 -0.8558021240342653 184 182 170
0.04481423596142586 0.12884495376285643 -0.8581427707409919 168 164 150
0.044867768842480865 0.1287548912719242 -0.8605056767288191 135 132 116
0.04540056834950951 0.1279405413187637 -0.8622298384765632 95 92 77
0.046601642227413725 0.12611629477679992 -0.8630561383288166 95 92 82
0.047352582810990584 0.12497230690882816 -0.8644826996793524 151 148 143
0.04539253507493923 0.12792510923645034 -0.8695667122099019 164 162 160
0.04506053396101378 0.12841760128716956 -0.8724647785373987 172 171 170
0.04710264012740048 0.12532244404472387 -0.8721457634703382 180 179 181
0.04813469143333646 0.12375366033430074 -0.8731896338102931 188 186 189
0.049710154509434556 0.12136373332086478 -0.8734872317419031 192 190 192
0.05026917066629413 0.12050979708982346 -0.8751675777328034 194 193 192
0.052713128050157376 0.11680754635210272 -0.8742596895503089 197 197 195
0.0584184699586523 0.10736101366030619 -0.288042236613 179 179 181
0.0602575377699395 0.10457633043549659 -0.28887605593657245 179 179 181
0.0614931673200087 0.1027027395227129 -0.289986773517919 178 179 178
0.062498623400674455 0.1011766776160699 -0.2912020596341282 175 174 170
0.06437943690819921 0.09832906329224583 -0.29199615123396455 159 153 142
0.06480181731049257 0.09768333509733149 -0.29348202589113187 137 128 107
0.06540734055281368 0.09676111371753632 -0.2948791785569654 129 115 86
0.06528809666374766 0.09693308642659647 -0.29662670449332135 120 104 74
0.0662813425516266 0.0954255248130998 -0.2978339697120429 122 108 78
0.06633272287338067 0.09533989870774151 -0.29949992340453985 115 102 70
0.06712792232839848 0.09413134249277415 -0.30080059925701425 105 92 60
0.0668970775551316 0.09447177365431533 -0.3026078325034112 97 84 54
0.06731674800868497 0.0938301423387314 -0.30409383763209197 94 81 51
0.06741715701620364 0.09367048009289967 -0.30573958255201455 88 75 47
0.06802763149648333 0.09274080628365591 -0.30712961022127616 97 83 58
0.06804041880264708 0.09271341164871821 -0.3088211687998883 92 78 55
0.06834347194428046 0.09224782453331928 -0.3103667131963589 70 56 32
0.06908806369984277 0.09111569762014747 -0.31168641025397886 91 78 53
0.06925004724766012 0.09086306751057523 -0.31330399652161134 82 68 41
0.06989975244978482 0.08987418951320535 -0.31467020155503184 85 70 42
0.07002561872677081 0.0896760760965246 -0.3163073899491636 91 78 51
0.07024296401361874 0.08933986639855646 -0.3178979958503502 91 78 52
0.07041325472609235 0.0890746826901787 -0.3195141101793836 93 80 50
0.07048258652173224 0.08896189192247567 -0.3211846068168155 97 83 55
0.07048893996131365 0.08894415885584046 -0.3228901380203508 95 81 54
0.07061475230768538 0.08874609608815412 -0.32453381046554425 93 79 52
0.06992520986269944 0.08977877626734045 -0.3266163465512915 96 82 55
0.06978092610710378 0.0899883876170844 -0.32841050146245887 97 83 56
0.06919647395979969 0.0908623928218397 -0.33044606303417956 95 81 55
0.06910657099459219 0.09098988831928491 -0.3322173257663971 95 81 55
0.06892963616164288 0.09124873897563283 -0.3340387277950874 93 81 54
0.0685845115870368 0.0917614409636189 -0.3359556612544438 91 80 52
0.06798155186764233 0.09266329714540962 -0.3380191088477077 94 83 55
0.0689322941216426 0.09122001255048033 -0.3392241480590812 89 78 50
0.06723577849578932 0.09377240754936914 -0.3419048971449433 95 83 57
0.0688583324993888 0.09131512241248209 -0.34273356700440755 91 79 54
0.06867465630746827 0.09158407378767254 -0.3445743531227609 89 77 51
0.06854993307026758 0.09176403187409149 -0.34638473895092264 94 82 56
0.06848679498708782 0.09185102618701374 -0.34816273963524813 101 89 63
0.06801604639855512 0.09255321316424897 -0.35017647279781794 93 81 55
0.06803977903713428 0.09250906724019574 -0.3519103647072602 96 84 58
0.06805660786220334 0.092475332001148 -0.3536501393455556 96 84 58
0.06793330507104867 0.09265308173039978 -0.3554732459544318 96 82 56
0.06770180538227118 0.09299411365278844 -0.3573622213275828 89 75 49
0.06698324647781627 0.09407021276342709 -0.35954016140841893 89 75 49
0.06702620305561514 0.09399699323947087 -0.36127543611474244 88 74 48
0.06693109757992173 0.09413212845187387 -0.3630942544285032 100 86 59
0.06717293161008832 0.09375874655944728 -0.36471522584530336 109 95 67
0.06669357692584212 0.09447376052595653 -0.3667679140395387 96 81 53
0.06668208707544593 0.094482668744965 -0.36854441432129115 109 94 65
0.06675814752993804 0.09435944055119601 -0.3702702224440618 115 101 72
0.06672736141392334 0.09439745032383677 -0.3720624246354465 108 93 66
0.06659010515590259 0.09459612566897416 -0.37392169792019625 104 88 62
0.06640075729402842 0.09487339925104203 -0.3758156825178487 100 85 59
0.06625595331411904 0.09508343697312348 -0.37768543712834757 114 99 73
0.06613069215008094 0.09526396921561842 -0.37954602454136793 100 85 59
0.06593593252497616 0.09554936594367652 -0.381452508457504 115 99 73
0.06624017332173572 0.09508172943952395 -0.38305128239831865 122 105 79
0.06532289011702244 0.0964574189950296 -0.3854149566224419 117 100 74
0.06623520402413757 0.09507216444976602 -0.38663561881047925 114 98 71
0.0661858327780622 0.09513811931842554 -0.38846056563302017 95 79 53
0.06631821084501553 0.09492980335670584 -0.39017258978461355 105 89 63
0.06606047795797002 0.09531015258022828 -0.39213457145999764 99 85 57
0.0661227871385272 0.09520755038313813 -0.39389526585648627 117 103 74
0.06587303646776646 0.09557582498770298 -0.3958583673252654 126 112 83
0.06534337513000597 0.0963664522879934 -0.39800579437107486 127 112 84
0.06487286643962648 0.09706779777985704 -0.4001200046523301 105 89 63
0.0651219607635753 0.09668329910022408 -0.40177016218905187 120 105 76
0.06512503468343776 0.09667001806544843 -0.4035820298396666 116 101 71
0.06485954999033618 0.09706195222718572 -0.405572545697419 112 97 68
0.06448806789284355 0.09761380583758457 -0.4076367088535663 104 89 60
0.06460430671003514 0.09742973542347753 -0.40938175563032003 101 86 57
0.06410722800166366 0.09817106111158318 -0.4115367324232658 102 86 58
0.06469239395307039 0.09727943467383636 -0.4129728628027666 93 75 51
0.06444221030908792 0.09764820694381218 -0.4149689140664202 98 81 55
0.06456673961360097 0.0974515924924012 -0.4167157744490408 92 75 47
0.06395194539773716 0.0983704574784727 -0.4189650028492006 104 87 59
0.0640776238313095 0.09817208526530555 -0.4207161139401013 91 74 49
0.06409194934020078 0.09814171163107545 -0.42254476168392696 85 67 43
0.06403260324722831 0.09822248017406952 -0.4244260611497706 88 71 45
0.06408745601368261 0.09813094054293472 -0.42623118402023463 94 77 49
0.06397006033578191 0.09829926737132418 -0.4281573835728682 94 77 50
0.06384259316104618 0.09848277547345925 -0.4300934569567394 107 90 62
0.06389817446643599 0.09839010505425806 -0.4319047125961428 117 101 71
0.06362261208204696 0.09879701628110604 -0.43394992566061497 106 91 60
0.0635302443026756 0.09892752945862078 -0.4358700238029267 106 89 61
0.06342384807442178 0.09907919362191377 -0.4378027839040781 103 86 61
0.06333964324649552 0.0991973654383693 -0.4397226306695651 115 99 67
0.06329888722007218 0.09924997634457114 -0.4416142253694517 142 126 93
0.0629484472894451 0.09976976843857731 -0.44372987135406006 119 103 70
0.06271022109001938 0.10012025467551695 -0.4457691811718841 121 105 72
0.06256669510141208 0.10032786036967235 -0.4477438041170299 124 108 75
0.06265305518721742 0.10018865215438269 -0.449554979080025 133 117 83
0.06241838196660693 0.10053373239574478 -0.4516013857001801 136 120 86
0.06235395409562222 0.10062197311503279 -0.4535270902653787 131 115 80
0.06254337472014845 0.10032726384003471 -0.4552692803100897 138 122 88
0.06255253023554244 0.10030448155271604 -0.4571453160857134 116 99 68
0.06234355568502595 0.10061073784723802 -0.4591847975221306 124 107 77
0.06203661830624374 0.10106475293195918 -0.46130048793329 126 109 81
0.062011793258066744 0.10109319026376573 -0.46321004586256126 112 96 64
0.062023673796601425 0.10106624729577303 -0.4650945577094344 129 113 80
0.06185181790475458 0.10131644968640738 -0.4671192831672999 140 120 88
0.06160606724399023 0.10167810129598003 -0.4692030387130941 153 133 99
0.061604978922009834 0.10167068292925144 -0.47110530485958657 141 121 85
0.061412677247177055 0.10195167981197607 -0.4731552093390374 139 119 86
0.06121996538253607 0.10223327901083115 -0.47520887046834415 139 118 87
0.06102690637830749 0.10251538537545127 -0.4772662498557436 128 109 77
0.06093786232929341 0.10264058358734574 -0.47924708781337044 106 89 57
0.06075875106032977 0.10290162047531341 -0.4813003116929883 122 104 70
0.06100103432095563 0.10252704001987371 -0.4830302731999898 143 126 92
0.0607279287189921 0.1029298235861899 -0.48516215344142266 152 136 101
0.06061336114301183 0.10309346545673119 -0.4871741500884025 155 137 99
0.05998652687159686 0.10402973706312499 -0.48959089911142706 159 141 103
0.05979490654945477 0.10430955915634729 -0.49167114469215684 154 136 98
0.05958234761018533 0.10462094538823738 -0.4937714335754173 152 134 96
0.05942772387916259 0.1048449340426747 -0.4958293895412318 147 130 91
0.05917020140576071 0.10522410171548119 -0.49797257489447594 140 123 88
0.0588741485733936 0.10566136269923078 -0.5001504780523369 117 99 70
0.0589501906550319 0.10553741107286478 -0.5020339447291854 122 104 75
0.05897916814809015 0.1054844324538931 -0.503957217134154 148 133 99
0.05900815549067506 0.10543142856752913 -0.5058826668976125 138 123 92
0.05903721396935491 0.10537830696563527 -0.5078102481674087 128 112 83
0.059072573502940706 0.10531567204436648 -0.5097348887770004 139 123 92
0.058861638434194175 0.10562446991103054 -0.5118630986037244 159 141 104
0.05854475609756607 0.10609303045269941 -0.5140819482647778 160 144 103
0.0584548695683938 0.10621923892177589 -0.5161181066053199 151 134 98
0.05817298767359472 0.10663497795925073 -0.5183159859559459 150 132 97
0.05817054329810098 0.10662928695556802 -0.5202860447898506 152 134 99
0.058017087880708834 0.10685131691288637 -0.5223843343186692 137 121 86
0.05782593340537945 0.10713018247187525 -0.5245175020301629 136 120 84
0.057714569628573575 0.10728870476252074 -0.5265872903806995 134 116 79
0.05743967519495202 0.10769381772760928 -0.5287979467891183 133 114 81
0.057180320436687304 0.10807547732396763 -0.530999587953411 138 120 83
0.05692043857456758 0.10845791255452604 -0.5332057116086071 148 129 90
0.056742403229091215 0.1087169069738918 -0.5353461686055228 144 124 90
0.05658270498834159 0.10894823310050773 -0.5374744938458604 130 111 81
0.056507391584731614 0.10905229613137811 -0.5395338551619975 115 99 72
0.05665785691722325 0.10881588930338691 -0.5414017156596437 72 60 36
0.056754358186090065 0.10866084789058612 -0.5433177237597022 63 51 27
0.05580917143226455 0.11007654741966905 -0.5461390859089128 115 103 78
0.05568822865706183 0.1102493510153294 -0.5482513413153058 91 79 54
0.05556379302935363 0.1104274059716353 -0.5503698735228644 78 66 42
0.05590228866338251 0.10990741728036676 -0.5520857841044403 97 84 58
0.055608619210927246 0.11034062381828239 -0.5543582816185196 138 123 95
0.055317228388907735 0.11077037398055188 -0.5566330955390416 126 111 81
0.05563517895925538 0.1102813391656768 -0.5583722396811579 134 117 84
0.05506911185829777 0.11112520976823646 -0.5608980655327175 124 105 72
0.055392621726387675 0.11062777487750534 -0.5626360129100525 159 140 108
0.05516533599904638 0.11096080203262959 -0.5648677442924847 160 143 108
0.054932454350597654 0.11130224757987742 -0.5671084500984837 158 141 105
0.054751119478038096 0.11156595583042904 -0.5693066481411624 160 141 107
0.05480618894291017 0.1114732177504962 -0.5712945267704447 163 145 107
0.05461544905322746 0.1117510744799267 -0.5735078586995386 157 139 103
0.05460309816770115 0.11175996015615047 -0.5755623232718656 148 129 96
0.05430689940721678 0.1121967803688973 -0.5778790394645612 163 144 111
0.0541761413221733 0.11238415319986732 -0.5800483223685984 170 151 115
0.05400102492830128 0.11263838597435633 -0.5822618414967339 153 135 98
0.053914047019942485 0.1127597221518643 -0.5843975618965296 130 112 76
0.05350551134450962 0.11336582471510047 -0.5868346376583669 135 116 83
0.05332085656399929 0.11363438269314467 -0.5890685233936379 154 136 99
0.05313592357331595 0.11390334222488316 -0.5913064189638659 175 157 117
0.05305540149234564 0.11401487851703615 -0.5934502267751742 166 148 110
0.05300256271335674 0.11408466635393133 -0.5955710966184048 159 143 107
0.05279141863657938 0.1143930895706728 -0.5978442597295934 155 139 103
0.05255864188043119 0.1147341054626244 -0.600141852585401 148 130 94
0.05223542223183744 0.11521144404188902 -0.6025294634868185 159 143 104
0.05192034693968067 0.1156764828345911 -0.6049139984604976 167 152 111
0.05183246601398628 0.11579901215477624 -0.6070858670174126 167 152 109
0.05199545851147089 0.11554334752688884 -0.6090201427754434 184 169 125
0.05172963120356813 0.11593409267689918 -0.6113689212710992 182 165 123
0.05146323130498057 0.11632568024751065 -0.6137226000431254 167 149 112
0.051196261461186915 0.11671810618538143 -0.6160811902821052 152 134 99
0.050839062091554754 0.1172465220801792 -0.6185319215209789 158 140 102
0.05042011028015497 0.11786799815163908 -0.6210478911724004 166 148 107
0.0499637709593625 0.11854580485618173 -0.6236058537657292 166 146 108
0.04988750001156084 0.11865069246170074 -0.625796018429039 155 135 102
0.049503394802881184 0.11921957110781484 -0.6282928078118474 149 132 100
0.04927858488393333 0.11954831788343982 -0.630637220282334 132 116 82
0.0493987246317833 0.1193571046540159 -0.6326434578408392 145 130 96
0.0492292324100721 0.11960243817532526 -0.6349399569008174 147 131 97
0.04914518606313356 0.11971896431270511 -0.6371548947558199 155 139 106
0.04917278184250476 0.1196672028593681 -0.6392611787912236 161 144 111
0.049140718401651046 0.11970534963865384 -0.641429961962936 148 129 96
0.04926988565734275 0.11950047330213268 -0.6434389950880708 168 152 118
0.049258851776172924 0.11950689915777968 -0.6455917808415272 168 156 123
0.04723554386144285 0.12254617712277502 -0.6497907505926032 166 154 121
0.04718789613133295 0.12260772787432704 -0.6519930733211794 164 150 118
0.04650840212646709 0.12362155216481097 -0.6548442511347373 163 153 123
0.047288467567597886 0.12243558790642299 -0.6562059995750033 170 162 138
0.04667538103961341 0.12334928219280225 -0.6589985108775287 178 173 154
0.04659944032392377 0.1234534094199152 -0.6612434648041019 185 183 168
0.046863199997878996 0.12304556276842456 -0.6631399378297521 196 194 183
0.04627864766701645 0.12391617871019177 -0.6659186023029324 207 206 200
0.04616769096053025 0.12407302769745591 -0.6682103941963203 215 215 212
0.045850820718568525 0.12454017993347004 -0.6707209698286336 216 217 214
0.04543205891570612 0.12516086188450543 -0.6733433075451977 216 217 218
0.045091983827878074 0.12566293567759274 -0.6758884429882974 217 217 221
0.04464175238805801 0.12633099006348666 -0.6785549242762827 218 218 221
0.04366952727371304 0.12778564870066528 -0.68177997042283 218 218 221
0.043017176862278184 0.12875822437370021 -0.6846745745725777 218 219 221
0.039900063155007104 0.1327051490810135 -0.8454824197014347 199 198 193
0.04126565022065046 0.130637304449069 -0.8461220059973065 187 185 175
0.04276736215370805 0.12836451803705407 -0.8465764938886285 171 165 148
0.043145546955090014 0.1277835367949157 -0.8484984301776544 164 155 131
0.04381070790843866 0.1267704399659656 -0.8500429009529448 157 146 118
0.044108439812343914 0.12631059999113398 -0.8520708752259368 152 140 113
0.04448776319162112 0.12572790186705435 -0.8539918309050366 157 143 115
0.04281618334890683 0.12823323465196074 -0.8586367244868423 155 142 113
0.04300920300781694 0.12793100922028056 -0.8608142602929957 121 112 82
0.04413213056024015 0.12622865125755917 -0.8617518132058162 80 76 51
0.04526126164065669 0.12451697737735246 -0.8626759446391677 71 69 52
0.04593003346248786 0.12349845563507392 -0.8642131123343237 107 106 93
0.04408196129699232 0.12626931553798043 -0.8691377830790223 133 131 121
0.04350083095760621 0.12713260226729278 -0.8723687401602352 150 147 143
0.04309634360455633 0.1277299042520715 -0.8753681528683512 167 164 165
0.04739978548685081 0.12123914587946544 -0.8719810985109496 178 176 179
0.04892908198686288 0.11892509519797123 -0.8723423630665049 185 183 187
0.049478112935964186 0.11808688888062768 -0.8740338622280858 192 190 190
0.05084661783152325 0.11601497048723985 -0.8746024991004538 194 194 192
0.05840921115509383 0.1043875094433212 -0.28736955372289 179 179 181
0.06007709452847207 0.10186741652904632 -0.2882817188794595 178 178 180
0.06103402681410286 0.10041740759524972 -0.2895216782514213 177 177 175
0.06222564533405803 0.09861419711317328 -0.29064734096284917 148 145 136
0.06356660369391459 0.09658624713070453 -0.2916974657152479 139 129 108
0.06487529510365035 0.09460689041994721 -0.2927578072305368 141 126 97
0.06528483887526344 0.09398080408619319 -0.29424600117298677 120 104 74
0.06506361805831767 0.09430402716065991 -0.2960393035633167 113 97 70
0.06596508398446217 0.0929375934954447 -0.29728915003790224 111 97 66
0.06711998937690992 0.09118975515210707 -0.29841202904272635 103 90 58
0.06749141414179918 0.09062105235001988 -0.2999162493593892 99 85 55
0.06777381335942886 0.09018632894307375 -0.30146444897607083 93 79 52
0.06773472670722343 0.0902354182590556 -0.30317300491026034 94 81 54
0.06780522299489893 0.09011958189168727 -0.3048288747644103 94 83 59
0.06752268104593323 0.09053502494787172 -0.3066638420118682 88 76 57
0.06719465689778391 0.09101889371765308 -0.308525256159073 87 76 57
0.06740246951538781 0.0906963754133135 -0.3101179957023921 67 57 38
0.06727819262510495 0.09087359945441381 -0.3118812530280971 74 63 42
0.06889549092942177 0.08843001494490198 -0.3127524331330086 59 46 25
0.06973380642108168 0.08715870270797958 -0.3140190903781976 79 67 44
0.07010170764757913 0.08659528939188774 -0.31552735569839785 80 68 47
0.07014536185232563 0.0865198013672571 -0.3172047755082499 76 64 45
0.07096835554009093 0.08527157032256363 -0.3184750842843545 83 72 45
0.07077514961514791 0.08555249311116138 -0.32027869435390255 90 77 50
0.07039373384402732 0.08611660681636153 -0.32218505717746776 98 84 57
0.07022114806750401 0.08636646426721917 -0.32398419928442457 96 82 55
0.06973849578479609 0.08708286691881534 -0.3259522689640264 93 79 52
0.06923687270146521 0.08782778844123071 -0.32793514554758596 99 85 58
0.06961068932953687 0.08725542264241135 -0.329449177991585 104 90 64
0.06862445515980219 0.0887294826000098 -0.3317025510091943 98 84 58
0.06778214130699423 0.08998694997303912 -0.3338846632604924 95 83 56
0.0682463462382735 0.08927854321469411 -0.33535589632879914 89 78 50
0.06819514598126515 0.08934562911161563 -0.3371110164310787 83 72 44
0.06805102902859797 0.08955250486278638 -0.33891994124300995 95 84 56
0.06813592031333841 0.08941480126658918 -0.34060399929923857 89 78 50
0.06810959853368452 0.08944441707816006 -0.34235188080102574 95 84 57
0.06795771714286493 0.08966293217800585 -0.3441725852648076 88 77 49
0.06779642208056784 0.08989559417007649 -0.346001455063288 93 82 54
0.06782019163623729 0.08984980503496405 -0.3477280214668589 103 92 64
0.06749614120148949 0.09032730356856072 -0.3496551475717127 98 87 59
0.06754290668679497 0.09024688999662867 -0.35137323618933425 94 83 56
0.06745409334304368 0.09037044160318754 -0.3531712798081553 90 78 52
0.06733040634903907 0.09054644478978692 -0.3549920481325136 88 75 49
0.0670184637168509 0.09100565269375314 -0.35692515607434855 85 71 45
0.06682130348498685 0.0912921568762111 -0.3587948682924644 96 82 56
0.06667471889345385 0.09150255634146558 -0.36063797863533054 96 82 55
0.06567566463227321 0.09299539240390747 -0.3629874978757816 103 89 62
0.06563169828572178 0.0930513682497771 -0.36477780263120435 109 95 66
0.06556255940997759 0.0931451995534337 -0.3665854109055258 111 96 64
0.06553183668933946 0.09318122550564042 -0.3683724425549368 109 94 62
0.06610084455030862 0.09231504428147744 -0.3698007227100177 126 111 79
0.06594451361503348 0.09254000876564848 -0.37166648457943996 126 111 81
0.06578796890955796 0.09276527788709221 -0.3735353155394899 106 91 62
0.06549917795668257 0.09318946596495715 -0.37548780673149196 107 92 64
0.06555375894720045 0.0930971093577756 -0.3772334539839943 110 95 66
0.06535881912082657 0.09338008467420807 -0.3791345649689341 99 84 57
0.06505372143056012 0.09382874503164142 -0.3811070194081154 103 87 61
0.06460224742854506 0.09449756549150418 -0.3831742719043282 112 95 69
0.06469526497064318 0.0943473335338818 -0.38490615295060626 120 104 77
0.06416157211907608 0.095139781818465 -0.38703272933544497 118 103 74
0.0637305582638753 0.0957777539110348 -0.3890997273332755 109 93 67
0.06392885368475129 0.09546912193524239 -0.390772937260303 94 78 53
0.06431503562984886 0.09487787720912193 -0.3923276615477558 99 85 58
0.06466252830417639 0.09434482635439725 -0.39390700308565885 110 96 69
0.06472495792156994 0.09424053936949787 -0.3956693459421258 117 103 74
0.06435760522473745 0.09478267268139152 -0.39771038479080156 124 109 81
0.06412710263018363 0.09511894935976935 -0.3996670656570952 116 100 74
0.06412371058260335 0.09511361945567051 -0.4014795436064628 118 103 76
0.06404520828948061 0.09522124589496633 -0.4033432100596772 116 101 70
0.06395878885318057 0.09534076502807018 -0.4052146481404378 108 93 62
0.0640339569237147 0.09521724051914973 -0.4069822784656282 114 99 69
0.06399900440948343 0.09525932632028684 -0.40882446636597897 109 94 63
0.06393149653395083 0.095350360987823 -0.4106906275207761 103 87 57
0.06382362806730513 0.09550208159591667 -0.4125862561753939 98 81 53
0.06371451627473693 0.09565565612263842 -0.41448548910229643 105 88 61
0.06354681563157591 0.09589732769781942 -0.41642694151426957 99 82 57
0.06345220586045056 0.09602905947149681 -0.41832211159304444 117 100 73
0.06328785407598846 0.09626565988529714 -0.42026733808894273 114 97 70
0.06317877097997036 0.09641912527676406 -0.4221780011854109 103 85 60
0.06312933737085334 0.09648287029837639 -0.4240506257293868 103 86 59
0.06314094017624419 0.09645481220193385 -0.42588374310867994 109 92 66
0.06306992401443086 0.09655098617495828 -0.42777602006098125 114 97 71
0.06311527327111725 0.09647215425129876 -0.42959020259052205 112 95 69
0.06326263676994434 0.0962399034048103 -0.4313352706302176 115 99 72
0.06288298044582744 0.09680016240873053 -0.4334501889677575 114 99 70
0.06301080827101853 0.0965972642156656 -0.4352131760230608 120 104 76
0.06267178144265709 0.09709638476024021 -0.4373067941313605 115 98 71
0.06258910391386101 0.0972100033075172 -0.4392230968352806 124 107 76
0.0624967027934977 0.09733822774803806 -0.4411490046719979 135 119 86
0.06226025898138732 0.09768303148803699 -0.44318049889073813 123 107 75
0.062121669188601944 0.09788067425941187 -0.4451454529687079 128 111 79
0.06185711003032279 0.09826771380114595 -0.4472041142773074 123 107 74
0.061792456103465995 0.09835414674852705 -0.4491220814147696 128 112 78
0.06172771232579277 0.0984406997505535 -0.45104272490345454 137 121 87
0.0616628797995859 0.09852737111833293 -0.4529660494061053 131 115 81
0.06159795962712811 0.09861415916297296 -0.45489205958546486 136 120 86
0.06150592632844437 0.09874169850778161 -0.45684061268507353 137 121 87
0.06144472651563801 0.0988228620372339 -0.45876921764217005 138 122 88
0.061481761016446396 0.09875631186147973 -0.46062769520700386 140 123 90
0.06137853707278507 0.09890063091176102 -0.46259248468221004 128 112 78
0.061616570590866726 0.0985318528674432 -0.4643054199518615 141 125 91
0.061686591962050924 0.09841567330297564 -0.4661451116496906 147 128 96
0.06096025489932724 0.09949678049896361 -0.46858583204797755 148 128 93
0.06087424382568993 0.09961515261168341 -0.470549467782183 150 131 94
0.06073634520146495 0.09981151799270792 -0.47255524525585 138 118 84
0.06056104320376554 0.10006409821637458 -0.474592607640664 144 128 94
0.06046412894359704 0.10019881135858885 -0.47657339007965904 133 115 82
0.060200639758232116 0.10058393323137244 -0.47868486900898644 133 114 81
0.060199043906006694 0.10057531228869616 -0.48059847168090364 139 119 86
0.060535655986970055 0.10005823496635656 -0.48225282196985086 140 123 88
0.06028661390065507 0.10042158590802591 -0.48436214522408105 155 139 103
0.06003705097309103 0.10078569788402338 -0.48647568377597916 152 133 98
0.05991495832057278 0.10095816274602225 -0.4884933060667746 149 131 94
0.05935160376903417 0.1017939480045131 -0.4908605711061581 150 132 94
0.05939567670291657 0.10171658023859012 -0.49275462901028294 152 134 96
0.05934113145219613 0.10178744740788288 -0.49472880492571025 146 128 91
0.058941728619359424 0.1023766969671723 -0.49697964545055595 136 117 85
0.05889149186159104 0.10244105082580272 -0.4989567644949184 146 127 96
0.059161963713702304 0.1020233041978751 -0.5006797691036606 142 123 90
0.05879150475684028 0.10256898157270129 -0.5029185617087458 152 135 100
0.05954312410643331 0.10142797751585163 -0.5042567790999471 141 124 91
0.05847572717726196 0.10302121329469917 -0.5070657224982345 151 133 101
0.05791496129418311 0.10385287197890944 -0.5094717512976823 156 139 103
0.057965303386417644 0.10376594102262206 -0.5113849928110473 142 124 91
0.057961027807718224 0.103761093015118 -0.5133450265038304 140 123 93
0.057889288091843294 0.10385763410566805 -0.5153629183533415 118 102 71
0.05758587316273581 0.10430237760839023 -0.5175747794774597 138 120 84
0.05768361386263418 0.1041441480670965 -0.519458677512054 147 130 94
0.05749504531389904 0.10441623424383559 -0.5215823508495055 121 105 70
0.05736795305760861 0.10459590145358695 -0.5236582915306829 124 107 74
0.05713382740984463 0.10493641890489733 -0.5258270447846887 127 108 75
0.05689371017549752 0.10528591926554187 -0.5280046851399098 128 108 81
0.05663411966474852 0.10566466434709361 -0.5302026479550525 129 111 77
0.05637405732758996 0.10604409536355862 -0.5324050334045032 148 130 92
0.05609734035571118 0.10644853346118628 -0.5346256048252422 148 130 97
0.0562172810860426 0.10625681616183275 -0.5365120235655965 100 85 59
0.05621472071892322 0.10624919219958344 -0.5385049867278084 59 45 26
0.05588316659222278 0.10673598260585235 -0.540783036317416 53 43 24
0.05536289175667866 0.1075063627035446 -0.5432283077860914 46 36 18
0.054988895327293036 0.10805688065434482 -0.5455526930603057 48 38 19
0.05467428672144406 0.10851812318170215 -0.5478302918571707 41 33 13
0.05446988242945283 0.1088137275036981 -0.5500162656241145 60 50 28
0.055267241688981394 0.10760389935219442 -0.5513297375378453 71 56 31
0.054841455175350884 0.10823215908183441 -0.5537144041200018 113 97 72
0.05485070574157841 0.10820664826928221 -0.5557209569780703 120 103 77
0.054820567030522904 0.10824031403721418 -0.5577647537828536 149 132 101
0.053996344603825325 0.10946722473245804 -0.5605157846275983 130 112 79
0.0542175418190321 0.10912317027137565 -0.5623436374277693 148 131 97
0.05429954367057119 0.10898827166721614 -0.5642969699049083 162 145 109
0.05415813103616504 0.1091890718086663 -0.5664526242679032 156 138 102
0.05403316916909659 0.10936513319809392 -0.5685968713526602 153 132 96
0.05389831080116217 0.10955604603444373 -0.570753354220228 161 143 106
0.05383140978026532 0.1096448281780562 -0.5728516201059005 153 135 99
0.05364108710339932 0.10991904190531232 -0.5750650677300351 157 139 104
0.05380600735069763 0.10965946654428443 -0.5769580620987742 162 143 109
0.053903919166478464 0.10950056444681673 -0.5789138987224143 165 145 111
0.05349711248136238 0.11009999381836935 -0.5813354502101441 166 148 114
0.05349433990050334 0.11009233746697134 -0.5833895611650366 150 134 101
0.053290017600779616 0.11038748856573168 -0.5856327313129382 142 125 94
0.05284263207347825 0.11104780794302181 -0.5881054446430127 157 141 106
0.05271468131409396 0.11122816704132898 -0.590285951313642 167 151 113
0.05254028109446349 0.11147829296674018 -0.5925132647115211 164 149 111
0.052447081864222034 0.11160640168635082 -0.5946680849528614 164 149 110
0.05206725879226429 0.11216510911259583 -0.5970958873716204 158 143 105
0.05186146753025145 0.11246232951074352 -0.5993643248939522 172 154 116
