ply
format ascii 1.0
element vertex 833
property float x
property float y
property float z
property float nx
property float ny
property float nz
property uchar diffuse_red
property uchar diffuse_green
property uchar diffuse_blue
property uchar class
property uchar detection
end_header
-0.0127 -0.1113 -0.2977 0.886 -0.425 0.185 82 57 33 0 0
-0.0125 -0.1122 -0.3068 0.884 -0.440 0.159 95 68 39 0 0
-0.0123 -0.1130 -0.3144 0.889 -0.457 -0.013 90 63 33 0 0
-0.0128 -0.1137 -0.3254 0.903 -0.262 0.342 86 58 29 0 0
-0.1065 -0.0726 -0.3696 -0.015 -0.848 0.530 107 100 89 0 0
-0.1094 -0.0714 -0.3723 0.283 -0.625 0.727 125 117 105 0 0
-0.1032 -0.0747 -0.3753 0.398 -0.312 0.863 109 102 91 0 0
-0.1033 -0.0748 -0.3771 0.561 -0.028 0.827 107 99 90 0 0
-0.0920 -0.0814 -0.3903 0.662 -0.637 0.394 33 26 20 0 0
-0.0916 -0.0817 -0.3919 0.702 -0.607 0.372 30 23 17 0 0
-0.0909 -0.0827 -0.3985 0.778 -0.586 0.228 22 17 13 0 0
-0.0922 -0.0823 -0.4008 0.944 -0.273 0.187 21 16 13 0 0
-0.0925 -0.0853 -0.4359 0.815 -0.574 0.083 91 76 53 0 0
-0.0925 -0.0855 -0.4377 0.801 -0.586 0.119 88 74 50 0 0
-0.0929 -0.0854 -0.4397 0.834 -0.548 -0.071 87 71 48 0 0
-0.0932 -0.0858 -0.4451 0.878 -0.478 -0.034 81 67 46 0 0
-0.0931 -0.0868 -0.4559 0.776 -0.584 0.240 68 58 42 0 0
-0.0993 -0.0849 -0.4676 0.797 -0.586 0.149 55 45 35 0 0
-0.1016 -0.0852 -0.4832 0.854 -0.511 0.104 29 22 12 0 0
-0.1015 -0.0854 -0.4850 0.854 -0.511 0.104 51 44 34 0 0
-0.1006 -0.0865 -0.4920 0.646 -0.474 0.599 33 27 18 0 0
-0.1007 -0.0866 -0.4939 0.832 -0.419 0.363 27 22 17 0 0
-0.0997 -0.0872 -0.4953 0.702 -0.638 0.314 21 16 11 0 0
-0.1161 -0.0830 -0.5370 0.879 -0.470 -0.081 26 25 20 0 0
-0.0286 -0.1285 -0.5731 0.841 -0.539 0.054 146 125 87 0 0
-0.0298 -0.1291 -0.5868 0.889 -0.457 0.033 140 122 85 0 0
-0.0303 -0.1292 -0.5908 0.903 -0.418 0.104 161 147 102 0 0
-0.0318 -0.1296 -0.6030 0.820 -0.476 0.318 169 152 109 0 0
-0.0325 -0.1316 -0.6282 0.892 -0.433 0.131 175 159 111 0 0
-0.0343 -0.1331 -0.6545 0.811 -0.553 0.192 172 157 111 0 0
-0.0348 -0.1330 -0.6568 0.950 -0.284 0.126 172 155 109 0 0
-0.0373 -0.1374 -0.7183 0.812 -0.482 0.329 94 73 39 0 0
-0.0369 -0.1377 -0.7200 0.812 -0.482 0.329 136 115 76 0 0
-0.0381 -0.1380 -0.7291 0.862 -0.494 -0.112 107 90 58 0 0
-0.0485 -0.1411 -0.8193 0.814 -0.483 0.323 117 102 72 0 0
-0.0473 -0.1422 -0.8249 0.775 -0.547 0.317 136 121 79 0 0
-0.0453 -0.1443 -0.8385 0.905 -0.422 -0.055 148 133 95 0 0
-0.0444 -0.1449 -0.8400 0.755 -0.650 0.084 160 146 106 0 0
-0.0439 -0.1455 -0.8439 0.845 -0.511 0.160 143 128 89 0 0
-0.0571 -0.1416 -0.8707 0.866 -0.409 0.287 45 43 37 0 0
-0.0108 -0.1091 -0.2447 0.651 -0.740 0.169 42 27 16 0 0
-0.0095 -0.1118 -0.2680 0.839 -0.395 0.373 75 50 27 0 0
-0.0091 -0.1121 -0.2694 0.690 -0.526 0.498 78 54 30 0 0
-0.0131 -0.1129 -0.2991 0.706 -0.518 0.483 79 54 30 0 0
-0.0139 -0.1127 -0.3008 0.663 -0.582 0.472 92 65 38 0 0
-0.0129 -0.1133 -0.3020 0.738 -0.584 0.337 93 66 37 0 0
-0.0136 -0.1133 -0.3053 0.775 -0.626 0.087 95 68 39 0 0
-0.0133 -0.1135 -0.3068 0.678 -0.654 0.335 95 68 39 0 0
-0.0135 -0.1151 -0.3253 0.946 -0.191 0.261 89 59 31 0 0
-0.1103 -0.0727 -0.3705 0.435 -0.861 0.262 102 93 82 0 0
-0.1107 -0.0727 -0.3723 0.467 -0.695 0.546 116 107 93 0 0
-0.1096 -0.0733 -0.3737 0.421 -0.583 0.695 131 122 108 0 0
-0.1039 -0.0762 -0.3752 0.582 -0.146 0.800 114 107 94 0 0
-0.1037 -0.0764 -0.3768 0.561 -0.028 0.827 108 101 91 0 0
-0.0937 -0.0823 -0.3888 0.733 -0.550 0.400 34 29 23 0 0
-0.0932 -0.0827 -0.3904 0.662 -0.637 0.394 34 28 22 0 0
-0.0931 -0.0829 -0.3921 0.695 -0.517 0.500 29 23 17 0 0
-0.0919 -0.0841 -0.3985 0.877 -0.381 0.293 23 18 14 0 0
-0.0936 -0.0868 -0.4378 0.861 -0.385 0.333 76 61 38 0 0
-0.0965 -0.0875 -0.4604 0.965 -0.179 -0.194 64 52 40 0 0
-0.1003 -0.0860 -0.4639 0.847 -0.480 -0.229 45 34 26 0 0
-0.1015 -0.0856 -0.4662 0.758 -0.596 0.264 43 33 26 0 0
-0.1026 -0.0868 -0.4850 0.555 -0.778 0.295 50 43 33 0 0
-0.1018 -0.0876 -0.4902 0.691 -0.550 0.469 41 35 23 0 0
-0.1011 -0.0881 -0.4917 0.530 -0.725 0.441 33 28 19 0 0
-0.1047 -0.0886 -0.5157 0.802 -0.541 0.254 35 30 21 0 0
-0.1173 -0.0844 -0.5371 0.766 -0.635 -0.097 25 22 17 0 0
-0.0311 -0.1312 -0.5963 0.961 -0.228 0.157 146 127 85 0 0
-0.0309 -0.1315 -0.5981 0.961 -0.228 0.157 152 133 92 0 0
-0.0321 -0.1322 -0.6120 0.878 -0.358 0.319 155 136 93 0 0
-0.0316 -0.1326 -0.6136 0.920 -0.212 0.331 153 134 89 0 0
-0.0311 -0.1329 -0.6152 0.685 -0.340 0.644 132 113 70 0 0
-0.0339 -0.1325 -0.6246 0.860 -0.496 0.118 153 136 94 0 0
-0.0353 -0.1347 -0.6564 0.895 -0.411 0.175 169 150 104 0 0
-0.0350 -0.1350 -0.6582 0.912 -0.354 0.207 168 149 104 0 0
-0.0350 -0.1351 -0.6602 0.947 -0.232 0.223 161 143 97 0 0
-0.0354 -0.1354 -0.6643 0.909 -0.289 0.300 153 134 83 0 0
-0.0352 -0.1356 -0.6662 0.915 -0.204 0.348 166 148 99 0 0
-0.0369 -0.1358 -0.6772 0.831 -0.058 0.554 148 127 85 0 0
-0.0359 -0.1368 -0.6824 0.924 -0.366 0.111 132 113 69 0 0
-0.0338 -0.1387 -0.6930 0.911 -0.278 0.304 127 108 65 0 0
-0.0382 -0.1389 -0.7182 0.797 -0.312 0.518 132 112 75 0 0
-0.0729 -0.1290 -0.7923 0.419 -0.705 0.573 111 100 73 0 0
-0.0720 -0.1295 -0.7938 0.237 -0.778 0.582 123 109 81 0 0
-0.0494 -0.1425 -0.8171 0.753 -0.601 0.269 125 108 75 0 0
-0.0490 -0.1428 -0.8189 0.753 -0.601 0.269 126 111 79 0 0
-0.0457 -0.1462 -0.8380 0.817 -0.543 0.195 130 114 80 0 0
-0.0454 -0.1465 -0.8399 0.817 -0.543 0.195 149 133 98 0 0
-0.0449 -0.1471 -0.8439 0.910 -0.415 0.009 134 120 83 0 0
-0.0462 -0.1467 -0.8472 0.892 -0.446 0.073 151 136 99 0 0
-0.0577 -0.1431 -0.8681 0.978 -0.204 0.035 25 25 20 0 0
-0.0115 -0.1101 -0.2417 0.904 -0.407 -0.134 62 52 34 0 0
-0.0120 -0.1101 -0.2448 0.780 -0.604 0.166 40 27 16 0 0
-0.0112 -0.1106 -0.2460 0.806 -0.475 0.354 44 30 16 0 0
-0.0113 -0.1122 -0.2637 0.902 -0.145 0.406 78 54 30 0 0
-0.0103 -0.1129 -0.2664 0.832 -0.394 0.391 70 43 23 0 0
-0.0129 -0.1148 -0.3002 0.596 -0.614 0.518 87 60 34 0 0
-0.0150 -0.1142 -0.3055 0.842 -0.528 0.110 95 68 39 0 0
-0.0128 -0.1156 -0.3094 0.864 -0.503 0.003 95 68 39 0 0
-0.0115 -0.1164 -0.3105 0.938 -0.321 -0.127 94 68 39 0 0
-0.0154 -0.1162 -0.3287 0.919 -0.383 0.096 88 62 30 0 0
-0.0153 -0.1164 -0.3303 0.919 -0.383 0.096 98 75 39 0 0
-0.0156 -0.1164 -0.3319 0.841 -0.536 -0.070 117 98 59 0 0
-0.1121 -0.0737 -0.3707 0.491 -0.802 0.340 104 92 76 0 0
-0.1116 -0.0741 -0.3723 0.521 -0.183 0.834 122 110 96 0 0
-0.1086 -0.0756 -0.3730 0.787 0.132 0.602 133 122 108 0 0
-0.1048 -0.0776 -0.3751 0.504 -0.286 0.815 122 113 98 0 0
-0.1043 -0.0780 -0.3767 0.443 -0.114 0.889 114 103 92 0 0
-0.0944 -0.0840 -0.3904 0.699 -0.587 0.408 34 29 23 0 0
-0.0939 -0.0844 -0.3920 0.714 -0.602 0.357 32 27 21 0 0
-0.0928 -0.0855 -0.3985 0.794 -0.479 0.374 29 24 20 0 0
-0.0931 -0.0855 -0.4003 0.952 -0.244 0.185 26 21 18 0 0
-0.1044 -0.0877 -0.4835 0.517 -0.781 0.351 66 59 48 0 0
-0.1044 -0.0879 -0.4853 0.521 -0.740 0.425 66 59 48 0 0
-0.1036 -0.0884 -0.4868 0.552 -0.764 0.334 46 39 28 0 0
-0.1031 -0.0889 -0.4903 0.797 -0.524 0.298 39 33 21 0 0
-0.1029 -0.0900 -0.5013 0.718 -0.585 0.377 35 28 19 0 0
-0.1024 -0.0904 -0.5029 0.718 -0.585 0.377 33 26 16 0 0
-0.1036 -0.0913 -0.5185 0.627 -0.520 0.580 19 15 11 0 0
-0.1072 -0.0900 -0.5240 0.838 -0.508 -0.197 24 23 16 0 0
-0.1151 -0.0875 -0.5374 0.579 -0.764 -0.285 22 19 14 0 0
-0.1327 -0.0808 -0.5558 0.466 -0.384 -0.797 31 31 29 0 0
-0.0340 -0.1273 -0.5475 0.805 0.163 0.570 98 81 51 0 0
-0.0301 -0.1294 -0.5508 0.920 -0.266 0.287 118 101 70 0 0
-0.0303 -0.1295 -0.5527 0.861 -0.373 0.347 119 102 69 0 0
-0.0298 -0.1299 -0.5543 0.772 -0.472 0.426 112 95 63 0 0
-0.0289 -0.1304 -0.5556 0.869 -0.474 0.145 131 113 78 0 0
-0.0316 -0.1298 -0.5626 0.871 -0.486 0.070 133 115 77 0 0
-0.0319 -0.1298 -0.5646 0.907 -0.368 0.206 137 119 81 0 0
-0.0316 -0.1301 -0.5663 0.804 -0.588 0.082 134 116 78 0 0
-0.0319 -0.1324 -0.5925 0.955 -0.295 0.025 153 137 93 0 0
-0.0345 -0.1330 -0.6129 0.912 -0.248 0.328 143 124 81 0 0
-0.0341 -0.1354 -0.6376 0.880 -0.296 0.370 170 150 102 0 0
-0.0356 -0.1362 -0.6540 0.934 -0.282 0.220 163 144 99 0 0
-0.0360 -0.1362 -0.6563 0.888 -0.306 0.343 170 149 104 0 0
-0.0352 -0.1368 -0.6577 0.864 -0.181 0.470 170 149 103 0 0
-0.0345 -0.1372 -0.6592 0.864 -0.181 0.470 151 133 86 0 0
-0.0338 -0.1377 -0.6606 0.847 -0.458 0.271 158 139 90 0 0
-0.0345 -0.1403 -0.6928 0.824 -0.544 0.157 118 99 56 0 0
-0.0388 -0.1403 -0.7159 0.827 -0.469 0.310 103 84 55 0 0
-0.0783 -0.1281 -0.7892 0.061 -0.841 0.538 41 27 11 0 0
-0.0509 -0.1438 -0.8175 0.890 -0.401 0.217 123 106 72 0 0
-0.0473 -0.1477 -0.8406 0.644 -0.735 0.211 140 127 93 0 0
-0.0574 -0.1452 -0.8669 0.727 -0.320 0.608 22 23 18 0 0
-0.0117 -0.1118 -0.2430 0.832 -0.542 -0.121 64 51 36 0 0
-0.0096 -0.1135 -0.2513 0.769 -0.299 0.566 48 32 18 0 0
-0.0102 -0.1134 -0.2529 0.794 -0.572 0.204 51 35 20 0 0
-0.0111 -0.1141 -0.2649 0.902 -0.145 0.406 73 48 25 0 0
-0.0116 -0.1140 -0.2665 0.597 -0.656 0.462 72 47 25 0 0
-0.0105 -0.1146 -0.2677 0.914 -0.407 0.008 73 48 26 0 0
-0.0155 -0.1158 -0.3068 0.772 -0.467 0.431 92 65 36 0 0
-0.0145 -0.1164 -0.3081 0.974 -0.224 -0.035 91 64 35 0 0
-0.0134 -0.1177 -0.3170 0.778 -0.562 0.281 103 77 50 0 0
-0.0160 -0.1177 -0.3302 0.890 -0.455 0.029 94 67 35 0 0
-0.0153 -0.1182 -0.3315 0.900 -0.376 0.222 107 86 51 0 0
-0.0138 -0.1191 -0.3341 0.361 -0.437 0.824 123 108 73 0 0
-0.1067 -0.0786 -0.3754 0.216 -0.594 0.775 105 99 85 0 0
-0.1010 -0.0816 -0.3786 0.535 -0.334 0.776 182 171 150 0 0
-0.0995 -0.0824 -0.3798 0.585 -0.364 0.725 165 155 134 0 0
-0.0957 -0.0848 -0.3853 0.729 -0.609 0.313 39 34 28 0 0
-0.0946 -0.0860 -0.3936 0.873 -0.474 0.113 29 24 20 0 0
-0.0947 -0.0861 -0.3953 0.736 -0.657 0.162 25 20 16 0 0
-0.0936 -0.0869 -0.3984 0.794 -0.479 0.374 25 20 17 0 0
-0.0937 -0.0896 -0.4281 0.847 -0.532 0.001 82 67 44 0 0
-0.0940 -0.0898 -0.4318 0.798 -0.597 -0.080 72 57 35 0 0
-0.1042 -0.0885 -0.4702 0.707 -0.580 0.404 33 29 23 0 0
-0.1048 -0.0911 -0.5017 0.832 -0.267 0.486 32 25 15 0 0
-0.1035 -0.0918 -0.5030 0.718 -0.585 0.377 30 23 15 0 0
-0.1040 -0.0923 -0.5107 0.825 -0.425 0.373 37 30 19 0 0
-0.1042 -0.0924 -0.5126 0.871 -0.479 -0.111 34 26 17 0 0
-0.1041 -0.0926 -0.5145 0.874 -0.479 0.085 33 26 18 0 0
-0.0307 -0.1310 -0.5506 0.897 -0.345 0.277 128 110 75 0 0
-0.0313 -0.1309 -0.5527 0.681 -0.688 0.250 118 98 63 0 0
-0.0318 -0.1308 -0.5548 0.921 -0.324 0.215 117 97 62 0 0
-0.0325 -0.1314 -0.5644 0.900 -0.413 0.140 118 98 65 0 0
-0.0314 -0.1339 -0.5860 0.889 -0.290 0.354 129 109 69 0 0
-0.0347 -0.1370 -0.6373 0.941 -0.178 0.286 155 137 92 0 0
-0.0344 -0.1387 -0.6546 0.761 -0.645 0.067 155 133 88 0 0
-0.0346 -0.1390 -0.6586 0.961 -0.258 0.096 157 141 92 0 0
-0.0403 -0.1422 -0.7223 0.820 -0.558 -0.127 159 139 95 0 0
-0.0854 -0.1266 -0.7872 0.070 -0.796 0.602 95 87 67 0 0
-0.0842 -0.1273 -0.7885 0.082 -0.835 0.544 77 69 48 0 0
-0.0830 -0.1280 -0.7898 0.139 -0.854 0.501 64 52 31 0 0
-0.0817 -0.1287 -0.7910 0.082 -0.835 0.544 53 36 16 0 0
-0.0709 -0.1349 -0.8022 0.010 -0.706 0.708 124 109 76 0 0
-0.0517 -0.1469 -0.8325 0.718 -0.655 -0.236 101 85 53 0 0
-0.0523 -0.1468 -0.8352 0.608 -0.787 0.103 115 100 71 0 0
-0.0580 -0.1470 -0.8665 0.830 -0.185 0.527 19 22 16 0 0
-0.0536 -0.1491 -0.8673 0.640 -0.756 0.140 86 83 73 0 0
-0.0467 -0.1529 -0.8724 0.962 -0.141 -0.232 185 185 184 0 0
-0.0127 -0.1131 -0.2445 0.840 -0.543 -0.020 69 54 38 0 0
-0.0126 -0.1132 -0.2459 0.886 -0.450 -0.111 45 30 19 0 0
-0.0103 -0.1167 -0.2719 0.952 -0.297 0.080 67 45 22 0 0
-0.0109 -0.1166 -0.2735 0.778 -0.456 0.432 79 56 33 0 0
-0.0227 -0.1132 -0.2980 0.014 -0.640 0.768 58 46 42 0 0
-0.0143 -0.1190 -0.3169 0.778 -0.562 0.281 97 71 42 0 0
-0.0155 -0.1197 -0.3313 0.849 -0.519 0.101 93 68 36 0 0
-0.0158 -0.1197 -0.3329 0.624 -0.571 0.533 110 89 52 0 0
-0.1082 -0.0797 -0.3756 0.229 -0.537 0.812 113 106 92 0 0
-0.0945 -0.0872 -0.3863 0.553 -0.627 0.549 37 32 26 0 0
-0.0958 -0.0868 -0.3885 0.781 -0.577 0.240 38 33 27 0 0
-0.0952 -0.0913 -0.4336 0.819 -0.574 -0.008 73 58 37 0 0
-0.1060 -0.0913 -0.4888 0.828 -0.497 0.259 45 36 27 0 0
-0.1052 -0.0919 -0.4922 0.707 -0.511 0.489 32 24 20 0 0
-0.1051 -0.0927 -0.4995 0.881 -0.415 0.228 37 30 21 0 0
-0.1054 -0.0927 -0.5015 0.888 -0.177 0.425 39 31 22 0 0
-0.1047 -0.0932 -0.5031 0.888 -0.177 0.425 36 28 19 0 0
-0.1045 -0.0942 -0.5123 0.768 -0.639 0.034 43 34 24 0 0
-0.1041 -0.0945 -0.5139 0.719 -0.693 0.050 37 29 20 0 0
-0.0332 -0.1329 -0.5642 0.913 -0.300 0.277 130 111 78 0 0
-0.0326 -0.1347 -0.5805 0.741 -0.524 0.419 151 132 88 0 0
-0.0322 -0.1350 -0.5821 0.823 -0.506 0.260 165 146 100 0 0
-0.0321 -0.1352 -0.5840 0.886 -0.428 0.181 152 133 92 0 0
-0.0319 -0.1355 -0.5857 0.921 -0.301 0.249 148 128 91 0 0
-0.0349 -0.1388 -0.6368 0.909 -0.373 0.184 147 128 89 0 0
-0.0343 -0.1394 -0.6403 0.903 -0.423 0.080 163 143 101 0 0
-0.0345 -0.1395 -0.6423 0.890 -0.452 -0.052 151 129 85 0 0
-0.0352 -0.1394 -0.6447 0.854 -0.520 -0.016 152 130 85 0 0
-0.0392 -0.1438 -0.7127 0.905 -0.421 -0.055 78 63 44 0 0
-0.0716 -0.1368 -0.8041 0.000 -0.611 0.791 136 122 87 0 0
-0.0534 -0.1481 -0.8330 0.602 -0.768 -0.220 111 94 61 0 0
-0.0539 -0.1481 -0.8357 0.608 -0.787 0.103 117 101 71 0 0
-0.0552 -0.1505 -0.8677 0.355 -0.404 0.843 83 80 69 0 0
-0.0501 -0.1533 -0.8722 0.718 0.366 0.592 180 180 178 0 0
-0.0123 -0.1151 -0.2470 0.784 -0.619 -0.040 52 41 29 0 0
-0.0123 -0.1152 -0.2485 0.797 -0.604 -0.021 37 25 12 0 0
-0.0124 -0.1153 -0.2500 0.797 -0.604 -0.021 38 24 11 0 0
-0.0114 -0.1162 -0.2541 0.800 -0.508 0.321 44 28 14 0 0
-0.0111 -0.1181 -0.2733 0.793 -0.336 0.509 73 51 28 0 0
-0.0212 -0.1156 -0.2972 0.137 -0.295 0.946 52 42 41 0 0
-0.0149 -0.1199 -0.3122 0.762 -0.621 0.183 98 73 43 0 0
-0.0147 -0.1204 -0.3167 0.804 -0.593 0.051 87 60 31 0 0
-0.0159 -0.1209 -0.3279 0.965 -0.263 0.003 94 66 38 0 0
-0.0162 -0.1209 -0.3296 0.926 -0.375 -0.036 87 57 29 0 0
-0.0163 -0.1211 -0.3312 0.949 -0.314 0.001 88 60 31 0 0
-0.0161 -0.1214 -0.3342 0.904 -0.365 0.221 114 93 56 0 0
-0.0159 -0.1217 -0.3357 0.904 -0.365 0.221 116 98 62 0 0
-0.0956 -0.0886 -0.3863 0.583 -0.712 0.391 37 32 26 0 0
-0.0958 -0.0886 -0.3881 0.755 -0.353 0.552 38 33 29 0 0
-0.0949 -0.0895 -0.3929 0.883 -0.455 0.116 26 21 18 0 0
-0.1043 -0.0923 -0.4711 0.979 -0.199 -0.033 41 35 31 0 0
-0.1072 -0.0912 -0.4742 0.680 -0.725 -0.106 33 25 23 0 0
-0.1062 -0.0934 -0.4921 0.727 -0.451 0.517 28 20 17 0 0
-0.1064 -0.0938 -0.4978 0.905 -0.221 0.363 34 27 19 0 0
-0.0339 -0.1342 -0.5622 0.944 -0.296 0.149 132 114 77 0 0
-0.0314 -0.1359 -0.5682 0.962 -0.247 0.117 133 114 78 0 0
-0.0341 -0.1355 -0.5771 0.752 -0.624 0.211 124 104 70 0 0
-0.0341 -0.1357 -0.5790 0.741 -0.524 0.419 121 101 66 0 0
-0.0336 -0.1361 -0.5805 0.741 -0.524 0.419 141 122 80 0 0
-0.0330 -0.1365 -0.5821 0.741 -0.524 0.419 145 126 84 0 0
-0.0329 -0.1367 -0.5839 0.839 -0.510 0.191 156 136 99 0 0
-0.0327 -0.1369 -0.5856 0.820 -0.518 0.242 148 128 93 0 0
-0.0338 -0.1372 -0.5937 0.970 -0.213 0.121 152 132 92 0 0
-0.0334 -0.1377 -0.5972 0.970 -0.213 0.121 145 126 84 0 0
-0.0351 -0.1407 -0.6382 0.959 -0.275 0.064 169 151 107 0 0
-0.0350 -0.1409 -0.6401 0.959 -0.275 0.064 163 145 103 0 0
-0.0359 -0.1409 -0.6445 0.890 -0.453 0.051 162 144 99 0 0
-0.0361 -0.1421 -0.6583 0.890 -0.437 0.131 137 118 74 0 0
-0.0359 -0.1424 -0.6601 0.735 -0.654 0.177 155 137 95 0 0
-0.0357 -0.1426 -0.6619 0.735 -0.654 0.177 141 122 77 0 0
-0.0368 -0.1431 -0.6725 0.925 -0.380 -0.008 151 132 86 0 0
-0.0397 -0.1454 -0.7124 0.792 -0.608 -0.056 58 44 26 0 0
-0.0814 -0.1336 -0.7978 0.181 -0.846 0.502 52 40 24 0 0
-0.0802 -0.1343 -0.7991 0.265 -0.774 0.575 63 51 33 0 0
-0.0792 -0.1349 -0.8004 0.265 -0.774 0.575 66 55 32 0 0
-0.0729 -0.1384 -0.8064 0.120 -0.815 0.567 135 120 85 0 0
-0.0691 -0.1404 -0.8078 0.022 -0.748 0.663 128 114 79 0 0
-0.0678 -0.1411 -0.8089 0.122 -0.832 0.541 127 112 78 0 0
-0.0647 -0.1429 -0.8130 0.336 -0.924 0.183 132 116 81 0 0
-0.0641 -0.1434 -0.8147 0.408 -0.903 0.134 133 117 83 0 0
-0.0638 -0.1437 -0.8166 0.394 -0.899 0.191 133 116 84 0 0
-0.0530 -0.1517 -0.8472 0.879 -0.399 0.262 131 119 81 0 0
-0.0556 -0.1523 -0.8672 0.443 -0.215 0.870 83 79 70 0 0
-0.0518 -0.1542 -0.8683 0.753 0.277 0.597 155 155 154 0 0
-0.0499 -0.1554 -0.8712 0.718 0.366 0.592 180 180 178 0 0
-0.0125 -0.1172 -0.2527 0.835 -0.489 0.251 38 25 13 0 0
-0.0121 -0.1175 -0.2541 0.728 -0.493 0.475 42 26 14 0 0
-0.0142 -0.1167 -0.2561 0.872 -0.490 -0.007 43 27 13 0 0
-0.0140 -0.1169 -0.2575 0.807 -0.584 0.089 47 31 15 0 0
-0.0148 -0.1171 -0.2636 0.612 -0.434 0.661 69 46 23 0 0
-0.0118 -0.1194 -0.2732 0.793 -0.336 0.509 69 44 23 0 0
-0.0165 -0.1207 -0.3108 0.665 -0.634 0.394 85 59 30 0 0
-0.0160 -0.1211 -0.3122 0.839 -0.367 0.402 91 65 35 0 0
-0.0170 -0.1227 -0.3342 0.848 -0.447 0.283 104 81 46 0 0
-0.0967 -0.0902 -0.3897 0.835 -0.445 0.324 35 30 26 0 0
-0.0963 -0.0906 -0.3913 0.900 -0.369 0.231 29 24 21 0 0
-0.0959 -0.0911 -0.3946 0.886 -0.318 0.337 30 25 22 0 0
-0.0961 -0.0916 -0.4016 0.745 -0.535 0.397 18 15 11 0 0
-0.0950 -0.0924 -0.4047 0.794 -0.492 0.357 28 20 15 0 0
-0.0949 -0.0936 -0.4168 0.521 -0.851 0.060 69 54 32 0 0
-0.1049 -0.0938 -0.4691 0.961 -0.269 -0.066 42 35 31 0 0
-0.1089 -0.0924 -0.4745 0.852 -0.515 0.092 40 32 30 0 0
-0.1087 -0.0926 -0.4762 0.826 -0.563 -0.017 48 41 33 0 0
-0.1092 -0.0926 -0.4783 0.868 -0.489 -0.090 64 56 46 0 0
-0.1085 -0.0948 -0.4983 0.801 -0.592 0.088 41 33 24 0 0
-0.1079 -0.0952 -0.4998 0.912 -0.372 0.175 45 37 27 0 0
-0.0351 -0.1371 -0.5790 0.784 -0.417 0.459 132 112 75 0 0
-0.0344 -0.1375 -0.5805 0.784 -0.417 0.459 161 142 102 0 0
-0.0340 -0.1379 -0.5821 0.822 -0.402 0.404 157 138 100 0 0
-0.0337 -0.1382 -0.5837 0.885 -0.413 0.217 137 117 82 0 0
-0.0334 -0.1385 -0.5854 0.886 -0.428 0.181 112 91 55 0 0
-0.0334 -0.1390 -0.5910 0.904 -0.423 0.063 163 147 105 0 0
-0.0367 -0.1405 -0.6232 0.880 -0.350 0.321 182 166 119 0 0
-0.0370 -0.1427 -0.6484 0.818 -0.108 0.565 151 134 85 0 0
-0.0370 -0.1434 -0.6563 0.790 -0.531 0.308 166 150 103 0 0
-0.0371 -0.1435 -0.6583 0.761 -0.631 0.151 157 140 95 0 0
-0.0370 -0.1437 -0.6602 0.735 -0.654 0.177 163 146 102 0 0
-0.0368 -0.1440 -0.6620 0.735 -0.654 0.177 155 137 93 0 0
-0.0376 -0.1444 -0.6704 0.768 -0.554 0.320 143 123 81 0 0
-0.0370 -0.1449 -0.6719 0.883 -0.371 0.289 164 144 100 0 0
-0.0371 -0.1452 -0.6759 0.940 -0.217 0.264 127 107 67 0 0
-0.0400 -0.1457 -0.6958 0.844 -0.519 0.134 132 109 72 0 0
-0.0390 -0.1468 -0.7031 0.933 -0.321 0.161 131 112 77 0 0
-0.0394 -0.1469 -0.7054 0.919 -0.386 -0.081 154 134 93 0 0
-0.0421 -0.1459 -0.7094 0.918 -0.152 0.367 149 127 91 0 0
-0.0834 -0.1348 -0.7985 0.132 -0.850 0.510 63 51 34 0 0
-0.0822 -0.1355 -0.7998 0.265 -0.774 0.575 49 38 21 0 0
-0.0811 -0.1361 -0.8011 0.265 -0.774 0.575 58 46 29 0 0
-0.0801 -0.1367 -0.8025 0.227 -0.684 0.693 71 60 39 0 0
-0.0785 -0.1376 -0.8034 0.250 -0.641 0.725 82 70 46 0 0
-0.0755 -0.1394 -0.8077 0.341 -0.716 0.609 133 118 84 0 0
-0.0713 -0.1417 -0.8108 0.124 -0.972 0.202 135 120 85 0 0
-0.0701 -0.1423 -0.8121 0.121 -0.987 0.104 133 118 84 0 0
-0.0659 -0.1448 -0.8175 0.298 -0.915 0.272 113 98 67 0 0
-0.0649 -0.1454 -0.8189 0.438 -0.752 0.492 112 97 66 0 0
-0.0643 -0.1459 -0.8205 0.334 -0.706 0.625 124 109 76 0 0
-0.0634 -0.1465 -0.8220 0.253 -0.673 0.695 127 113 78 0 0
-0.0621 -0.1472 -0.8231 0.098 -0.559 0.823 150 136 101 0 0
-0.0600 -0.1526 -0.8700 0.372 -0.660 0.652 86 82 75 0 0
-0.0526 -0.1561 -0.8704 0.940 -0.274 0.205 172 172 172 0 0
-0.0526 -0.1563 -0.8726 0.740 -0.666 0.096 182 182 181 0 0
-0.0142 -0.1182 -0.2544 0.723 -0.545 0.425 39 23 14 0 0
-0.0157 -0.1176 -0.2562 0.963 -0.267 -0.027 42 26 12 0 0
-0.0149 -0.1181 -0.2575 0.807 -0.584 0.089 45 29 14 0 0
-0.0141 -0.1191 -0.2632 0.909 -0.362 0.205 66 44 21 0 0
-0.0160 -0.1187 -0.2696 0.901 -0.383 0.202 69 44 24 0 0
-0.0122 -0.1208 -0.2731 0.776 -0.209 0.595 71 45 24 0 0
-0.0147 -0.1199 -0.2752 0.917 -0.224 0.329 64 44 27 0 0
-0.0143 -0.1202 -0.2766 0.917 -0.224 0.329 77 63 53 0 0
-0.0142 -0.1204 -0.2781 0.934 -0.309 0.179 128 122 117 0 0
-0.0241 -0.1176 -0.2975 0.344 -0.263 0.902 66 61 55 0 0
-0.0172 -0.1220 -0.3108 0.831 -0.461 0.312 85 58 29 0 0
-0.0161 -0.1227 -0.3120 0.856 -0.345 0.385 87 59 30 0 0
-0.0158 -0.1230 -0.3134 0.875 -0.452 0.172 92 65 36 0 0
-0.0156 -0.1233 -0.3164 0.876 -0.469 0.109 92 65 35 0 0
-0.0169 -0.1234 -0.3230 0.832 -0.531 0.161 96 69 40 0 0
-0.0177 -0.1240 -0.3341 0.879 -0.449 0.162 96 71 39 0 0
-0.0217 -0.1224 -0.3370 0.290 -0.903 0.316 97 73 41 0 0
-0.0218 -0.1228 -0.3418 -0.049 -0.953 -0.300 119 105 75 0 0
-0.1001 -0.0897 -0.3820 0.742 -0.325 0.587 88 76 60 0 0
-0.0986 -0.0909 -0.3866 0.835 -0.349 0.426 47 40 33 0 0
-0.0980 -0.0913 -0.3881 0.835 -0.349 0.426 44 38 33 0 0
-0.0978 -0.0915 -0.3898 0.887 -0.360 0.288 32 27 24 0 0
-0.0971 -0.0920 -0.3912 0.820 -0.496 0.286 31 26 23 0 0
-0.0968 -0.0923 -0.3928 0.783 -0.552 0.287 29 24 20 0 0
-0.0965 -0.0926 -0.3944 0.908 -0.399 0.128 28 24 20 0 0
-0.0959 -0.0935 -0.4011 0.880 -0.468 0.075 19 14 12 0 0
-0.0959 -0.0937 -0.4029 0.855 -0.497 0.148 26 20 16 0 0
-0.0956 -0.0941 -0.4063 0.711 -0.681 0.176 46 35 24 0 0
-0.0958 -0.0944 -0.4098 0.705 -0.703 0.096 64 45 30 0 0
-0.1009 -0.0945 -0.4364 0.953 -0.297 -0.064 66 51 32 0 0
-0.1066 -0.0949 -0.4694 0.690 -0.713 -0.123 50 44 41 0 0
-0.1060 -0.0953 -0.4709 0.893 -0.437 -0.112 50 44 40 0 0
-0.1095 -0.0961 -0.4964 0.793 -0.596 0.127 42 33 25 0 0
-0.1096 -0.0962 -0.4983 0.773 -0.608 0.181 45 37 27 0 0
-0.1090 -0.0966 -0.4999 0.648 -0.656 0.387 44 36 24 0 0
-0.1082 -0.0971 -0.5014 0.778 -0.436 0.452 41 32 22 0 0
-0.1075 -0.0976 -0.5029 0.771 -0.358 0.527 34 25 16 0 0
-0.1070 -0.0980 -0.5045 0.756 -0.567 0.329 50 41 32 0 0
-0.1083 -0.0989 -0.5201 0.809 -0.587 -0.016 43 35 22 0 0
-0.1084 -0.0990 -0.5220 0.809 -0.587 -0.016 43 35 22 0 0
-0.1092 -0.0990 -0.5262 0.826 -0.513 -0.233 46 40 27 0 0
-0.1204 -0.0955 -0.5450 0.994 -0.005 0.112 33 28 21 0 0
-0.0341 -0.1362 -0.5449 0.971 -0.220 0.093 137 117 82 0 0
-0.0341 -0.1365 -0.5485 0.912 -0.351 0.211 133 113 79 0 0
-0.0337 -0.1370 -0.5519 0.818 -0.563 0.117 113 94 61 0 0
-0.0347 -0.1394 -0.5819 0.900 -0.210 0.381 172 155 112 0 0
-0.0368 -0.1421 -0.6208 0.959 -0.261 0.112 176 162 115 0 0
-0.0362 -0.1432 -0.6300 0.831 -0.531 0.166 156 138 95 0 0
-0.0379 -0.1441 -0.6484 0.845 -0.483 0.229 158 142 92 0 0
-0.0382 -0.1447 -0.6564 0.733 -0.609 0.303 153 135 89 0 0
-0.0383 -0.1449 -0.6584 0.761 -0.631 0.151 168 150 103 0 0
-0.0390 -0.1457 -0.6706 0.818 -0.557 0.143 125 108 66 0 0
-0.0372 -0.1470 -0.6753 0.761 -0.432 0.484 130 111 69 0 0
-0.0393 -0.1467 -0.6827 0.852 -0.473 0.225 132 113 72 0 0
-0.0403 -0.1476 -0.6973 0.853 -0.484 0.195 139 112 68 0 0
-0.0405 -0.1477 -0.6994 0.785 -0.593 0.178 149 126 78 0 0
-0.0831 -0.1373 -0.8018 0.265 -0.774 0.575 82 68 45 0 0
-0.0820 -0.1380 -0.8031 0.375 -0.711 0.595 63 51 26 0 0
-0.0809 -0.1386 -0.8045 0.375 -0.711 0.595 94 80 55 0 0
-0.0797 -0.1393 -0.8057 0.313 -0.674 0.669 83 68 43 0 0
-0.0739 -0.1428 -0.8143 0.136 -0.976 0.171 138 124 88 0 0
-0.0715 -0.1440 -0.8145 -0.010 -0.926 0.378 139 125 90 0 0
-0.0688 -0.1457 -0.8189 0.039 -0.861 0.507 115 101 70 0 0
-0.0677 -0.1463 -0.8203 0.112 -0.831 0.545 114 100 70 0 0
-0.0659 -0.1472 -0.8210 0.400 -0.754 0.521 117 102 69 0 0
-0.0650 -0.1478 -0.8224 0.437 -0.745 0.504 111 97 62 0 0
-0.0639 -0.1484 -0.8237 0.541 -0.495 0.680 133 119 82 0 0
-0.0628 -0.1491 -0.8250 0.719 -0.493 0.491 146 132 97 0 0
-0.0632 -0.1491 -0.8276 0.260 -0.935 0.241 132 118 84 0 0
-0.0561 -0.1554 -0.8591 0.998 -0.065 -0.009 99 94 75 0 0
-0.0558 -0.1560 -0.8633 0.985 -0.068 0.159 48 46 40 0 0
-0.0539 -0.1575 -0.8706 0.740 -0.666 0.096 174 174 174 0 0
-0.0538 -0.1578 -0.8728 0.740 -0.666 0.096 183 183 183 0 0
-0.0509 -0.1591 -0.8725 0.091 -0.564 0.821 188 188 188 0 0
-0.0476 -0.1606 -0.8718 0.268 -0.780 0.566 190 190 190 0 0
-0.0152 -0.1193 -0.2544 0.584 -0.534 0.611 48 31 17 0 0
-0.0152 -0.1195 -0.2558 0.608 -0.664 0.435 42 26 11 0 0
-0.0149 -0.1197 -0.2572 0.726 -0.551 0.412 44 28 13 0 0
-0.0143 -0.1201 -0.2585 0.723 -0.409 0.557 46 29 15 0 0
-0.0163 -0.1202 -0.2694 0.945 -0.297 0.138 64 42 21 0 0
-0.0160 -0.1205 -0.2709 0.961 -0.183 0.209 65 42 21 0 0
-0.0151 -0.1213 -0.2751 0.912 -0.136 0.387 66 46 32 0 0
-0.0148 -0.1219 -0.2795 0.869 -0.486 -0.095 171 171 173 0 0
-0.0136 -0.1246 -0.3017 0.755 -0.560 0.340 72 50 26 0 0
-0.0136 -0.1247 -0.3033 0.835 -0.508 0.213 80 51 27 0 0
-0.0134 -0.1250 -0.3047 0.835 -0.508 0.213 82 54 28 0 0
-0.0181 -0.1234 -0.3123 0.802 -0.388 0.454 86 57 28 0 0
-0.0177 -0.1238 -0.3137 0.835 -0.399 0.378 86 59 30 0 0
-0.0214 -0.1242 -0.3366 0.643 -0.757 0.115 97 72 41 0 0
-0.0228 -0.1240 -0.3418 0.179 -0.852 -0.492 118 102 68 0 0
-0.0316 -0.1203 -0.3464 -0.132 -0.978 -0.158 119 104 75 0 0
-0.0986 -0.0927 -0.3862 0.565 -0.652 0.505 55 45 37 0 0
-0.0987 -0.0928 -0.3880 0.717 -0.492 0.494 51 43 36 0 0
-0.0986 -0.0930 -0.3897 0.734 -0.588 0.341 30 25 19 0 0
-0.0980 -0.0934 -0.3912 0.802 -0.569 0.179 33 28 24 0 0
-0.0969 -0.0941 -0.3925 0.626 -0.776 0.073 34 29 25 0 0
-0.0969 -0.0942 -0.3942 0.626 -0.776 0.073 37 34 29 0 0
-0.1004 -0.0954 -0.4234 0.955 -0.179 0.236 75 61 36 0 0
-0.1005 -0.0961 -0.4323 0.740 -0.672 0.013 71 56 33 0 0
-0.1012 -0.0960 -0.4343 0.725 -0.683 0.090 72 57 37 0 0
-0.1007 -0.0964 -0.4359 0.727 -0.625 0.283 71 56 37 0 0
-0.1047 -0.0962 -0.4536 0.953 -0.290 -0.089 54 47 35 0 0
-0.1066 -0.0967 -0.4689 0.680 -0.729 -0.079 50 46 42 0 0
-0.1197 -0.0976 -0.5422 0.699 -0.678 -0.230 45 38 28 0 0
-0.0331 -0.1378 -0.5384 0.842 -0.213 0.496 106 89 59 0 0
-0.0337 -0.1381 -0.5441 0.948 -0.288 0.133 127 106 75 0 0
-0.0334 -0.1384 -0.5457 0.908 -0.171 0.382 127 107 73 0 0
-0.0335 -0.1389 -0.5512 0.971 -0.192 0.141 128 108 74 0 0
-0.0338 -0.1389 -0.5533 0.955 -0.242 0.169 134 115 78 0 0
-0.0402 -0.1482 -0.6826 0.611 -0.644 0.460 160 141 99 0 0
-0.0400 -0.1487 -0.6864 0.838 -0.543 0.055 119 100 59 0 0
-0.0417 -0.1485 -0.6936 0.853 -0.484 0.195 127 108 71 0 0
-0.0414 -0.1488 -0.6954 0.853 -0.484 0.195 126 103 62 0 0
-0.0412 -0.1491 -0.6972 0.853 -0.484 0.195 157 132 87 0 0
-0.0409 -0.1494 -0.6991 0.853 -0.484 0.195 163 142 93 0 0
-0.0835 -0.1393 -0.8035 0.462 -0.837 0.293 101 86 57 0 0
-0.0831 -0.1397 -0.8054 0.315 -0.858 0.405 107 92 64 0 0
-0.0819 -0.1404 -0.8066 0.270 -0.795 0.544 102 85 60 0 0
-0.0676 -0.1491 -0.8281 0.137 -0.873 0.469 124 110 75 0 0
-0.0674 -0.1494 -0.8301 0.507 -0.815 0.282 140 125 92 0 0
-0.0659 -0.1502 -0.8311 0.569 -0.817 0.097 133 117 84 0 0
-0.0643 -0.1519 -0.8408 0.472 -0.865 0.169 148 133 95 0 0
-0.0572 -0.1570 -0.8592 0.748 -0.663 0.039 108 101 82 0 0
-0.0527 -0.1604 -0.8732 0.091 -0.564 0.821 189 189 189 0 0
-0.0506 -0.1614 -0.8735 0.265 -0.435 0.860 191 191 191 0 0
-0.0500 -0.1621 -0.8775 0.315 -0.652 0.690 195 195 195 0 0
-0.0162 -0.1205 -0.2544 0.584 -0.534 0.611 70 53 35 0 0
-0.0163 -0.1206 -0.2559 0.608 -0.664 0.435 58 41 26 0 0
-0.0158 -0.1209 -0.2572 0.608 -0.664 0.435 43 27 13 0 0
-0.0153 -0.1213 -0.2585 0.636 -0.535 0.556 43 27 14 0 0
-0.0167 -0.1217 -0.2693 0.945 -0.297 0.138 63 41 20 0 0
-0.0164 -0.1220 -0.2707 0.961 -0.183 0.209 62 40 19 0 0
-0.0163 -0.1230 -0.2811 0.911 -0.413 0.018 173 173 174 0 0
-0.0146 -0.1259 -0.3033 0.622 -0.606 0.496 75 45 24 0 0
-0.0140 -0.1263 -0.3046 0.622 -0.606 0.496 86 57 33 0 0
-0.0188 -0.1248 -0.3122 0.802 -0.388 0.454 86 56 28 0 0
-0.1008 -0.0933 -0.3849 0.697 -0.604 0.387 58 45 34 0 0
-0.0998 -0.0940 -0.3863 0.709 -0.606 0.360 58 46 35 0 0
-0.0993 -0.0943 -0.3878 0.709 -0.606 0.360 54 44 34 0 0
-0.0996 -0.0944 -0.3897 0.734 -0.588 0.341 39 32 24 0 0
-0.0978 -0.0956 -0.3942 0.530 -0.844 0.078 37 30 23 0 0
-0.0997 -0.0963 -0.4105 0.856 -0.516 0.002 59 44 30 0 0
-0.1006 -0.0967 -0.4196 0.787 -0.600 0.147 66 51 33 0 0
-0.1033 -0.0980 -0.4454 0.656 -0.735 -0.173 80 71 53 0 0
-0.1043 -0.0981 -0.4512 0.732 -0.677 -0.074 69 60 46 0 0
-0.1051 -0.0978 -0.4534 0.953 -0.290 -0.089 68 60 47 0 0
-0.1065 -0.0983 -0.4648 0.851 -0.470 -0.234 65 61 52 0 0
-0.1080 -0.0980 -0.4691 0.680 -0.729 -0.079 66 59 52 0 0
-0.1119 -0.0984 -0.4928 0.488 -0.740 0.463 66 55 36 0 0
-0.1120 -0.0988 -0.4966 0.853 -0.508 0.124 56 45 31 0 0
-0.1119 -0.0990 -0.4984 0.841 -0.535 0.074 72 60 46 0 0
-0.1116 -0.0993 -0.5001 0.648 -0.656 0.387 82 70 55 0 0
-0.1119 -0.1006 -0.5152 0.544 -0.814 0.202 57 51 33 0 0
-0.1126 -0.1008 -0.5212 0.818 -0.562 0.126 46 39 21 0 0
-0.0336 -0.1397 -0.5417 0.927 -0.375 0.026 116 95 63 0 0
-0.0336 -0.1399 -0.5435 0.931 -0.357 0.070 122 101 71 0 0
-0.0338 -0.1400 -0.5454 0.908 -0.171 0.382 115 96 62 0 0
-0.0340 -0.1403 -0.5492 0.953 -0.292 0.082 134 114 79 0 0
-0.0350 -0.1413 -0.5643 0.885 -0.454 0.098 147 130 89 0 0
-0.0353 -0.1415 -0.5682 0.925 -0.364 0.104 134 114 77 0 0
-0.0369 -0.1428 -0.5895 0.880 -0.256 0.401 149 132 95 0 0
-0.0372 -0.1435 -0.5990 0.923 -0.108 0.368 174 160 114 0 0
-0.0371 -0.1438 -0.6008 0.957 -0.184 0.224 172 158 114 0 0
-0.0372 -0.1443 -0.6065 0.807 -0.553 0.205 161 142 100 0 0
-0.0371 -0.1445 -0.6084 0.779 -0.485 0.397 172 157 110 0 0
-0.0372 -0.1448 -0.6122 0.637 -0.762 0.118 180 163 118 0 0
-0.0395 -0.1473 -0.6501 0.914 -0.369 0.168 158 141 94 0 0
-0.0414 -0.1503 -0.6907 0.928 -0.315 0.200 127 107 65 0 0
-0.0423 -0.1503 -0.6953 0.853 -0.484 0.195 148 126 83 0 0
-0.0419 -0.1509 -0.6990 0.859 -0.505 0.089 154 134 87 0 0
-0.0882 -0.1397 -0.8085 0.244 -0.835 0.493 121 107 77 0 0
-0.0691 -0.1507 -0.8307 0.507 -0.815 0.282 130 115 82 0 0
-0.0680 -0.1514 -0.8320 0.414 -0.880 0.234 155 139 104 0 0
-0.0675 -0.1518 -0.8338 0.442 -0.897 -0.010 128 111 81 0 0
-0.0678 -0.1519 -0.8362 0.442 -0.897 -0.010 135 118 88 0 0
-0.0582 -0.1581 -0.8547 0.750 -0.657 -0.076 119 107 86 0 0
-0.0582 -0.1583 -0.8569 0.629 -0.777 0.004 120 112 90 0 0
-0.0584 -0.1585 -0.8593 0.629 -0.777 0.004 110 103 86 0 0
-0.0596 -0.1593 -0.8737 0.559 -0.826 -0.072 180 180 180 0 0
-0.0165 -0.1221 -0.2557 0.663 -0.559 0.498 92 76 58 0 0
-0.0172 -0.1231 -0.2691 0.945 -0.297 0.138 64 42 21 0 0
-0.0185 -0.1236 -0.2814 0.892 -0.384 -0.240 171 171 171 0 0
-0.0333 -0.1182 -0.2962 0.596 -0.058 0.801 96 94 88 0 0
-0.0318 -0.1189 -0.2974 0.596 -0.058 0.801 95 89 80 0 0
-0.0264 -0.1216 -0.2988 0.206 -0.139 0.969 74 70 64 0 0
-0.0197 -0.1260 -0.3122 0.611 -0.398 0.684 87 57 29 0 0
-0.0193 -0.1264 -0.3136 0.703 -0.674 0.227 92 62 34 0 0
-0.0192 -0.1276 -0.3259 0.728 -0.631 0.270 96 67 39 0 0
-0.0262 -0.1263 -0.3470 0.031 -0.857 -0.515 118 100 64 0 0
-0.1035 -0.0938 -0.3838 0.838 -0.540 0.080 83 70 48 0 0
-0.1004 -0.0957 -0.3878 0.724 -0.644 0.248 66 53 40 0 0
-0.0993 -0.0975 -0.4012 0.784 -0.432 0.445 39 30 21 0 0
-0.1006 -0.0979 -0.4122 0.856 -0.516 0.002 63 50 31 0 0
-0.1011 -0.0982 -0.4176 0.946 -0.320 -0.044 70 57 36 0 0
-0.1012 -0.0983 -0.4194 0.949 -0.283 0.141 77 62 39 0 0
-0.1010 -0.0986 -0.4211 0.949 -0.283 0.141 84 69 45 0 0
-0.1007 -0.0990 -0.4245 0.960 -0.260 0.107 82 70 46 0 0
-0.1013 -0.0990 -0.4265 0.913 -0.388 -0.126 81 69 47 0 0
-0.1015 -0.0997 -0.4354 0.868 -0.445 0.220 91 80 56 0 0
-0.1077 -0.0996 -0.4649 0.742 -0.663 -0.100 73 64 55 0 0
-0.1084 -0.0995 -0.4670 0.809 -0.588 0.010 74 66 56 0 0
-0.1095 -0.0992 -0.4693 0.590 -0.808 0.001 88 81 69 0 0
-0.1135 -0.0997 -0.4930 0.733 -0.530 0.426 63 51 30 0 0
-0.1123 -0.1003 -0.4944 0.974 -0.222 -0.047 65 53 37 0 0
-0.1125 -0.1004 -0.4963 0.930 -0.364 0.056 52 43 27 0 0
-0.1123 -0.1010 -0.5018 0.826 -0.527 0.202 73 66 47 0 0
-0.1132 -0.1017 -0.5134 0.806 -0.583 0.103 78 68 50 0 0
-0.1128 -0.1024 -0.5189 0.783 -0.621 0.020 59 50 33 0 0
-0.0343 -0.1409 -0.5380 0.695 -0.673 0.252 113 99 62 0 0
-0.0357 -0.1417 -0.5532 0.764 -0.575 0.294 121 100 69 0 0
-0.0357 -0.1420 -0.5569 0.913 -0.368 0.178 130 110 77 0 0
-0.0357 -0.1427 -0.5642 0.885 -0.454 0.098 145 129 92 0 0
-0.0357 -0.1429 -0.5660 0.885 -0.454 0.098 129 114 75 0 0
-0.0359 -0.1430 -0.5680 0.925 -0.364 0.104 117 99 64 0 0
-0.0358 -0.1432 -0.5698 0.952 -0.304 0.031 143 125 86 0 0
-0.0358 -0.1434 -0.5716 0.952 -0.304 0.031 167 149 109 0 0
-0.0380 -0.1430 -0.5784 0.877 -0.472 0.090 176 162 115 0 0
-0.0382 -0.1453 -0.6028 0.853 -0.506 0.129 172 154 110 0 0
-0.0388 -0.1452 -0.6051 0.902 -0.335 0.271 141 122 80 0 0
-0.0385 -0.1456 -0.6067 0.902 -0.335 0.271 169 150 108 0 0
-0.0381 -0.1459 -0.6084 0.899 -0.272 0.342 157 137 94 0 0
-0.0376 -0.1463 -0.6100 0.899 -0.272 0.342 144 125 80 0 0
-0.0406 -0.1487 -0.6502 0.870 -0.455 0.191 141 126 77 0 0
-0.0410 -0.1497 -0.6621 0.841 -0.541 -0.006 151 132 88 0 0
-0.0902 -0.1409 -0.8092 0.147 -0.784 0.603 126 111 80 0 0
-0.0709 -0.1520 -0.8313 0.507 -0.815 0.282 148 134 99 0 0
-0.0700 -0.1525 -0.8328 0.414 -0.880 0.234 156 138 105 0 0
-0.0694 -0.1532 -0.8366 0.410 -0.869 0.276 102 87 60 0 0
-0.0689 -0.1536 -0.8385 0.410 -0.869 0.276 128 114 83 0 0
-0.0643 -0.1564 -0.8457 -0.092 -0.879 0.468 158 141 101 0 0
-0.0600 -0.1594 -0.8553 0.358 -0.931 0.069 118 108 87 0 0
-0.0616 -0.1605 -0.8745 0.683 -0.719 0.127 181 182 181 0 0
-0.0545 -0.1638 -0.8751 0.385 -0.181 0.905 194 194 194 0 0
-0.0529 -0.1647 -0.8759 0.385 -0.181 0.905 195 195 195 0 0
-0.0177 -0.1232 -0.2557 0.617 -0.594 0.517 90 76 57 0 0
-0.0201 -0.1246 -0.2816 0.780 -0.553 -0.291 171 171 172 0 0
-0.0237 -0.1231 -0.2841 0.872 -0.207 -0.444 173 173 175 0 0
-0.0328 -0.1194 -0.2897 0.526 -0.632 -0.570 174 174 176 0 0
-0.0376 -0.1176 -0.2941 0.383 -0.216 0.898 173 173 172 0 0
-0.0339 -0.1195 -0.2962 0.835 -0.246 0.492 111 108 104 0 0
-0.0330 -0.1201 -0.2974 0.767 -0.216 0.605 94 89 80 0 0
-0.0202 -0.1288 -0.3259 0.728 -0.631 0.270 93 64 36 0 0
-0.0308 -0.1262 -0.3498 0.549 0.646 0.530 119 101 67 0 0
-0.1067 -0.0942 -0.3845 0.950 -0.125 0.287 81 68 44 0 0
-0.1012 -0.0978 -0.3946 0.761 -0.635 0.135 56 43 29 0 0
-0.1005 -0.0983 -0.3961 0.803 -0.596 0.014 55 41 28 0 0
-0.1009 -0.0993 -0.4084 0.624 -0.781 -0.029 63 47 27 0 0
-0.1009 -0.0994 -0.4101 0.478 -0.877 -0.043 75 59 37 0 0
-0.1012 -0.0994 -0.4120 0.418 -0.900 -0.126 80 64 42 0 0
-0.0995 -0.1015 -0.4254 0.740 -0.542 0.399 94 82 61 0 0
-0.1105 -0.1003 -0.4656 0.596 -0.782 -0.183 81 73 62 0 0
-0.1102 -0.1006 -0.4673 0.506 -0.861 0.045 91 83 70 0 0
-0.1159 -0.1007 -0.4955 0.583 -0.769 0.261 85 72 55 0 0
-0.1132 -0.1020 -0.4962 0.930 -0.364 0.056 68 57 41 0 0
-0.1146 -0.1018 -0.5005 0.520 -0.702 0.487 64 54 36 0 0
-0.1139 -0.1022 -0.5021 0.596 -0.625 0.504 75 66 46 0 0
-0.1135 -0.1028 -0.5056 0.779 -0.609 0.147 77 69 49 0 0
-0.1134 -0.1032 -0.5093 0.802 -0.577 0.155 81 70 52 0 0
-0.1145 -0.1029 -0.5117 0.746 -0.647 0.157 69 58 40 0 0
-0.1143 -0.1032 -0.5134 0.771 -0.621 0.139 73 62 44 0 0
-0.1121 -0.1055 -0.5274 0.984 0.059 0.168 61 51 37 0 0
-0.1118 -0.1059 -0.5292 0.984 0.059 0.168 64 55 41 0 0
-0.1125 -0.1057 -0.5314 0.965 0.210 0.155 69 59 45 0 0
-0.0348 -0.1435 -0.5486 0.876 -0.481 0.043 136 119 80 0 0
-0.0348 -0.1437 -0.5504 0.876 -0.481 0.043 134 116 79 0 0
-0.0389 -0.1443 -0.5765 0.877 -0.472 0.090 154 139 92 0 0
-0.0382 -0.1448 -0.5779 0.906 -0.422 -0.026 180 168 119 0 0
-0.0391 -0.1467 -0.6028 0.853 -0.506 0.129 173 156 111 0 0
-0.0395 -0.1468 -0.6049 0.902 -0.335 0.271 161 143 100 0 0
-0.0391 -0.1471 -0.6065 0.902 -0.335 0.271 167 149 105 0 0
-0.0379 -0.1481 -0.6115 0.891 -0.292 0.349 174 159 113 0 0
-0.0411 -0.1487 -0.6325 0.913 -0.329 0.243 163 144 99 0 0
-0.0406 -0.1491 -0.6341 0.923 -0.296 0.248 151 131 86 0 0
-0.0403 -0.1494 -0.6358 0.950 -0.282 0.136 165 144 100 0 0
-0.0421 -0.1513 -0.6642 0.837 -0.547 -0.012 162 143 99 0 0
-0.0926 -0.1419 -0.8103 0.103 -0.837 0.537 134 120 89 0 0
-0.0631 -0.1619 -0.8749 0.683 -0.719 0.127 185 185 187 0 0
-0.0589 -0.1637 -0.8735 0.408 -0.537 0.738 189 189 190 0 0
-0.0561 -0.1652 -0.8756 0.199 -0.634 0.747 195 195 195 0 0
-0.0188 -0.1243 -0.2557 0.610 -0.675 0.415 103 90 72 0 0
-0.0136 -0.1273 -0.2618 0.654 -0.429 0.623 47 29 12 0 0
-0.0240 -0.1246 -0.2839 0.764 0.002 -0.645 173 172 175 0 0
-0.0151 -0.1308 -0.3056 0.641 -0.547 0.539 84 54 28 0 0
-0.0157 -0.1307 -0.3073 0.796 -0.532 0.289 82 52 26 0 0
-0.0152 -0.1321 -0.3194 0.671 -0.339 0.659 85 55 27 0 0
-0.0212 -0.1299 -0.3244 0.950 -0.283 0.134 87 57 29 0 0
-0.0210 -0.1301 -0.3258 0.897 -0.104 0.429 91 62 34 0 0
-0.0226 -0.1308 -0.3404 0.975 -0.051 0.217 95 68 39 0 0
-0.1089 -0.0951 -0.3849 0.424 -0.757 0.496 83 70 47 0 0
-0.1029 -0.0987 -0.3931 0.615 -0.788 0.028 67 52 31 0 0
-0.1011 -0.0998 -0.3960 0.533 -0.835 0.137 65 50 31 0 0
-0.1049 -0.1028 -0.4448 0.635 -0.715 -0.292 113 106 90 0 0
-0.1066 -0.1022 -0.4473 0.385 -0.905 -0.179 111 104 87 0 0
-0.1076 -0.1020 -0.4495 0.323 -0.935 -0.146 105 97 80 0 0
-0.1090 -0.1016 -0.4519 0.334 -0.907 -0.254 99 90 71 0 0
-0.1240 -0.0972 -0.4783 0.211 -0.843 0.494 113 103 78 0 0
-0.1230 -0.0978 -0.4797 0.211 -0.843 0.494 115 105 77 0 0
-0.1167 -0.1026 -0.4992 0.601 -0.711 0.365 67 54 37 0 0
-0.1160 -0.1031 -0.5007 0.573 -0.536 0.620 64 52 33 0 0
-0.1152 -0.1036 -0.5022 0.596 -0.625 0.504 71 60 40 0 0
-0.1143 -0.1041 -0.5036 0.718 -0.593 0.365 71 61 40 0 0
-0.1138 -0.1045 -0.5053 0.718 -0.593 0.365 81 70 49 0 0
-0.0356 -0.1451 -0.5503 0.876 -0.481 0.043 132 115 79 0 0
-0.0359 -0.1453 -0.5541 0.813 -0.579 0.057 154 135 99 0 0
-0.0371 -0.1459 -0.5657 0.966 -0.249 0.063 107 90 56 0 0
-0.0390 -0.1460 -0.5760 0.931 -0.248 0.268 166 151 106 0 0
-0.0388 -0.1463 -0.5777 0.953 -0.238 0.187 169 156 112 0 0
-0.0380 -0.1499 -0.6110 0.887 -0.099 0.451 167 152 106 0 0
-0.0392 -0.1503 -0.6211 0.711 -0.286 0.643 177 159 113 0 0
-0.0386 -0.1508 -0.6226 0.844 -0.340 0.416 143 126 83 0 0
-0.0409 -0.1507 -0.6337 0.902 -0.309 0.302 162 143 95 0 0
-0.0408 -0.1510 -0.6355 0.950 -0.282 0.136 152 131 87 0 0
-0.0428 -0.1519 -0.6542 0.892 -0.453 -0.003 148 129 86 0 0
-0.0636 -0.1630 -0.8677 0.170 -0.912 0.372 152 150 146 0 0
-0.0604 -0.1648 -0.8717 0.450 -0.826 0.338 187 187 190 0 0
-0.0585 -0.1658 -0.8723 0.396 -0.671 0.627 192 192 194 0 0
-0.0565 -0.1668 -0.8728 0.315 -0.919 0.238 194 194 194 0 0
-0.0144 -0.1285 -0.2617 0.667 -0.335 0.665 49 31 15 0 0
-0.0200 -0.1273 -0.2751 0.688 -0.558 0.463 85 72 59 0 0
-0.0198 -0.1275 -0.2765 0.879 -0.216 0.425 135 130 126 0 0
-0.0343 -0.1221 -0.2896 0.581 -0.536 -0.613 173 173 176 0 0
-0.0165 -0.1320 -0.3072 0.796 -0.532 0.289 82 52 25 0 0
-0.0169 -0.1329 -0.3181 0.691 -0.425 0.585 92 62 35 0 0
-0.0229 -0.1321 -0.3386 0.920 -0.384 0.080 93 64 36 0 0
-0.1114 -0.0987 -0.4151 0.506 -0.861 0.045 98 88 71 0 0
-0.1115 -0.0989 -0.4169 0.506 -0.861 0.045 99 92 75 0 0
-0.1143 -0.1013 -0.4555 0.165 -0.977 -0.134 106 97 80 0 0
-0.1147 -0.1013 -0.4575 0.103 -0.993 0.064 105 97 79 0 0
-0.1148 -0.1015 -0.4593 0.103 -0.993 0.064 105 97 78 0 0
-0.1157 -0.1013 -0.4615 0.026 -0.996 0.085 104 96 76 0 0
-0.1218 -0.0991 -0.4677 0.190 -0.852 -0.488 104 92 75 0 0
-0.1238 -0.1001 -0.4870 0.436 -0.898 -0.058 95 86 64 0 0
-0.1214 -0.1012 -0.4878 0.187 -0.964 0.189 79 69 47 0 0
-0.1155 -0.1062 -0.5111 0.799 -0.588 0.130 76 64 46 0 0
-0.1159 -0.1063 -0.5132 0.891 -0.438 0.115 78 67 48 0 0
-0.1168 -0.1060 -0.5155 0.857 -0.413 0.308 75 63 45 0 0
-0.0369 -0.1465 -0.5523 0.903 -0.398 0.160 134 115 82 0 0
-0.0367 -0.1468 -0.5540 0.903 -0.398 0.160 119 100 67 0 0
-0.0377 -0.1473 -0.5636 0.965 -0.256 0.063 127 108 72 0 0
-0.0395 -0.1476 -0.5757 0.953 -0.238 0.187 164 148 104 0 0
-0.0402 -0.1505 -0.6079 0.893 -0.408 0.192 152 136 92 0 0
-0.0419 -0.1505 -0.6165 0.814 -0.538 0.218 172 153 109 0 0
-0.0413 -0.1509 -0.6180 0.852 -0.324 0.410 166 147 102 0 0
-0.0393 -0.1523 -0.6225 0.844 -0.340 0.416 139 122 78 0 0
-0.0387 -0.1527 -0.6240 0.844 -0.340 0.416 164 147 103 0 0
-0.0393 -0.1526 -0.6263 0.947 -0.256 0.196 157 140 93 0 0
-0.0384 -0.1532 -0.6276 0.981 -0.169 0.094 154 136 88 0 0
-0.0420 -0.1527 -0.6395 0.833 -0.550 -0.061 149 131 85 0 0
-0.0426 -0.1530 -0.6457 0.877 -0.422 0.230 173 157 109 0 0
-0.0659 -0.1641 -0.8688 0.133 -0.832 0.538 162 161 159 0 0
-0.0623 -0.1661 -0.8724 0.450 -0.826 0.338 190 190 191 0 0
-0.0150 -0.1299 -0.2616 0.709 -0.362 0.605 47 30 14 0 0
-0.0209 -0.1285 -0.2750 0.688 -0.558 0.463 70 55 42 0 0
-0.0201 -0.1290 -0.2763 0.882 -0.416 0.224 119 111 106 0 0
-0.0198 -0.1292 -0.2777 0.864 -0.296 0.407 168 167 166 0 0
-0.0390 -0.1218 -0.2922 0.263 -0.905 0.335 173 173 174 0 0
-0.0386 -0.1222 -0.2936 0.315 -0.902 0.296 174 172 173 0 0
-0.0382 -0.1226 -0.2965 0.368 -0.910 0.189 118 115 112 0 0
-0.0317 -0.1257 -0.2977 0.423 0.111 0.899 75 73 66 0 0
-0.0242 -0.1294 -0.3001 0.628 -0.581 0.518 88 81 65 0 0
-0.0236 -0.1298 -0.3014 0.653 -0.651 0.387 97 90 65 0 0
-0.0187 -0.1321 -0.3015 0.739 -0.438 0.512 75 60 36 0 0
-0.0180 -0.1325 -0.3028 0.739 -0.438 0.512 61 35 15 0 0
-0.0171 -0.1332 -0.3056 0.799 -0.270 0.538 83 54 28 0 0
-0.0193 -0.1324 -0.3078 0.760 -0.316 0.569 82 52 24 0 0
-0.0177 -0.1342 -0.3180 0.691 -0.425 0.585 90 60 34 0 0
-0.0238 -0.1348 -0.3527 1.000 -0.012 -0.007 114 101 70 0 0
-0.1288 -0.0982 -0.4721 0.319 -0.814 -0.486 106 94 74 0 0
-0.1306 -0.0978 -0.4766 0.039 -0.896 0.443 117 105 80 0 0
-0.1289 -0.0989 -0.4795 -0.001 -0.842 0.539 141 130 101 0 0
-0.1243 -0.1015 -0.4849 0.051 -0.964 0.260 125 113 86 0 0
-0.1248 -0.1015 -0.4870 0.392 -0.917 0.074 90 80 54 0 0
-0.1248 -0.1017 -0.4888 0.392 -0.917 0.074 84 74 50 0 0
-0.1195 -0.1044 -0.4920 0.461 -0.790 0.404 82 69 48 0 0
-0.1192 -0.1047 -0.4937 0.493 -0.851 0.180 73 61 40 0 0
-0.1193 -0.1054 -0.5012 0.492 -0.750 0.442 74 61 44 0 0
-0.1184 -0.1060 -0.5027 0.440 -0.166 0.883 75 62 43 0 0
-0.1169 -0.1068 -0.5038 0.851 -0.257 0.458 74 61 41 0 0
-0.1161 -0.1073 -0.5054 0.888 -0.256 0.381 75 63 43 0 0
-0.0371 -0.1473 -0.5428 0.877 -0.480 0.027 135 115 83 0 0
-0.0373 -0.1478 -0.5483 0.918 -0.391 0.071 154 134 96 0 0
-0.0381 -0.1485 -0.5597 0.792 -0.607 0.065 138 121 81 0 0
-0.0388 -0.1484 -0.5619 0.909 -0.289 0.299 141 123 86 0 0
-0.0384 -0.1488 -0.5635 0.879 -0.281 0.386 122 104 68 0 0
-0.0384 -0.1489 -0.5653 0.900 -0.371 0.228 145 126 89 0 0
-0.0412 -0.1486 -0.5743 0.903 -0.427 0.049 136 117 79 0 0
-0.0415 -0.1508 -0.5987 0.843 -0.535 0.046 171 156 111 0 0
-0.0416 -0.1511 -0.6025 0.908 -0.340 0.246 163 145 100 0 0
-0.0404 -0.1520 -0.6056 0.896 -0.425 0.129 151 136 94 0 0
-0.0413 -0.1518 -0.6080 0.496 -0.785 0.371 146 131 89 0 0
-0.0404 -0.1523 -0.6093 0.595 -0.700 0.395 151 136 94 0 0
-0.0424 -0.1538 -0.6334 0.880 -0.418 0.225 165 147 99 0 0
-0.1026 -0.1444 -0.8199 -0.028 -0.740 0.672 146 133 98 0 0
-0.1014 -0.1451 -0.8212 0.110 -0.824 0.555 145 132 99 0 0
-0.0989 -0.1463 -0.8215 0.277 -0.884 0.378 133 121 93 0 0
-0.0982 -0.1468 -0.8231 0.277 -0.884 0.378 132 120 93 0 0
-0.0925 -0.1505 -0.8342 0.452 -0.791 0.413 144 130 100 0 0
-0.0921 -0.1509 -0.8360 0.632 -0.722 0.282 146 132 102 0 0
-0.0872 -0.1538 -0.8432 0.187 -0.982 0.035 133 121 94 0 0
-0.0682 -0.1652 -0.8699 0.089 -0.716 0.692 170 170 170 0 0
-0.0212 -0.1301 -0.2763 0.884 -0.460 0.081 100 90 81 0 0
-0.0194 -0.1310 -0.2774 0.174 -0.715 0.677 151 145 142 0 0
-0.0410 -0.1228 -0.2940 0.171 -0.574 0.801 173 172 172 0 0
-0.0392 -0.1237 -0.2950 0.171 -0.574 0.801 155 155 155 0 0
-0.0374 -0.1246 -0.2960 0.171 -0.574 0.801 107 104 102 0 0
-0.0258 -0.1303 -0.3003 0.943 0.119 0.311 90 81 66 0 0
-0.0200 -0.1330 -0.3001 0.559 -0.516 0.649 90 76 58 0 0
-0.0191 -0.1335 -0.3013 0.559 -0.516 0.649 58 37 18 0 0
-0.0181 -0.1341 -0.3026 0.559 -0.516 0.649 65 38 18 0 0
-0.0198 -0.1338 -0.3076 0.679 -0.479 0.557 82 53 24 0 0
-0.0219 -0.1345 -0.3236 0.970 -0.229 0.077 90 60 32 0 0
-0.0242 -0.1350 -0.3400 0.951 -0.200 0.236 93 64 32 0 0
-0.1126 -0.1010 -0.4060 0.333 -0.930 -0.152 94 87 72 0 0
-0.1111 -0.1028 -0.4177 0.838 0.443 0.318 181 182 184 0 0
-0.1332 -0.0984 -0.4754 0.660 -0.329 -0.675 119 106 80 0 0
-0.1336 -0.0984 -0.4774 0.078 -0.886 0.457 136 124 97 0 0
-0.1256 -0.1030 -0.4869 0.298 -0.953 0.051 83 72 45 0 0
-0.1194 -0.1078 -0.5064 0.531 -0.821 0.211 68 55 36 0 0
-0.0380 -0.1491 -0.5464 0.869 -0.485 0.094 147 127 85 0 0
-0.0381 -0.1492 -0.5482 0.780 -0.624 0.050 149 130 92 0 0
-0.0382 -0.1494 -0.5501 0.780 -0.624 0.050 113 93 59 0 0
-0.0385 -0.1496 -0.5539 0.836 -0.549 0.007 124 105 72 0 0
-0.0387 -0.1504 -0.5631 0.966 -0.183 0.181 124 108 73 0 0
-0.0387 -0.1508 -0.5668 0.750 -0.657 -0.082 161 144 102 0 0
-0.0424 -0.1522 -0.5986 0.843 -0.535 0.046 167 151 109 0 0
-0.0419 -0.1530 -0.6039 0.908 -0.340 0.246 144 128 83 0 0
-0.0412 -0.1535 -0.6054 0.896 -0.425 0.129 158 143 101 0 0
-0.0423 -0.1532 -0.6080 0.595 -0.700 0.395 150 135 93 0 0
-0.0429 -0.1541 -0.6197 0.621 -0.565 0.544 163 145 98 0 0
-0.0445 -0.1550 -0.6360 0.837 -0.412 0.360 164 145 98 0 0
-0.0440 -0.1554 -0.6376 0.837 -0.412 0.360 153 132 85 0 0
-0.0435 -0.1558 -0.6392 0.837 -0.412 0.360 164 143 97 0 0
-0.0430 -0.1561 -0.6408 0.837 -0.412 0.360 159 138 96 0 0
-0.0437 -0.1584 -0.6665 0.985 0.062 0.158 156 135 91 0 0
-0.0944 -0.1520 -0.8370 0.258 -0.930 0.263 139 125 96 0 0
-0.0917 -0.1539 -0.8438 0.145 -0.956 0.256 136 122 94 0 0
-0.0907 -0.1547 -0.8475 0.121 -0.904 0.410 131 119 94 0 0
-0.0895 -0.1554 -0.8487 -0.005 -0.849 0.529 130 119 92 0 0
-0.0881 -0.1561 -0.8498 -0.122 -0.787 0.605 129 117 89 0 0
-0.0863 -0.1570 -0.8506 -0.173 -0.791 0.587 131 119 93 0 0
-0.0704 -0.1663 -0.8709 0.074 -0.699 0.712 177 177 179 0 0
-0.0209 -0.1320 -0.2775 0.397 -0.815 0.423 118 109 104 0 0
-0.0385 -0.1258 -0.2960 0.327 -0.426 0.843 99 96 91 0 0
-0.0198 -0.1347 -0.2998 0.563 -0.366 0.741 66 47 29 0 0
-0.0196 -0.1349 -0.3012 0.517 -0.613 0.597 54 30 10 0 0
-0.0195 -0.1351 -0.3027 0.521 -0.697 0.494 65 38 17 0 0
-0.0207 -0.1351 -0.3076 0.679 -0.479 0.557 83 53 26 0 0
-0.0189 -0.1363 -0.3116 0.710 -0.611 0.351 82 52 26 0 0
-0.0184 -0.1367 -0.3130 0.682 -0.672 0.289 84 52 26 0 0
-0.0248 -0.1360 -0.3351 0.900 -0.254 0.354 89 62 30 0 0
-0.0236 -0.1369 -0.3394 0.837 -0.547 0.009 92 63 30 0 0
-0.0252 -0.1370 -0.3478 0.673 -0.704 0.229 87 65 34 0 0
-0.0250 -0.1373 -0.3493 0.673 -0.704 0.229 103 79 47 0 0
-0.0243 -0.1377 -0.3506 0.845 -0.511 0.157 114 94 58 0 0
-0.0237 -0.1381 -0.3520 0.781 -0.540 0.313 118 102 70 0 0
-0.1135 -0.1021 -0.4024 0.229 -0.964 -0.134 94 87 74 0 0
-0.1138 -0.1022 -0.4043 0.391 -0.910 -0.138 105 103 93 0 0
-0.1100 -0.1048 -0.4134 0.684 0.663 0.305 183 184 187 0 0
-0.1288 -0.1039 -0.4916 0.580 -0.812 -0.055 88 76 50 0 0
-0.1263 -0.1052 -0.4923 0.264 -0.841 0.473 95 83 59 0 0
-0.1267 -0.1052 -0.4943 0.432 -0.378 0.819 86 74 50 0 0
-0.1251 -0.1060 -0.4955 0.432 -0.378 0.819 95 83 59 0 0
-0.0380 -0.1491 -0.5278 0.913 -0.190 0.362 145 123 83 0 0
-0.0374 -0.1495 -0.5293 0.913 -0.190 0.362 133 114 76 0 0
-0.0373 -0.1499 -0.5328 0.907 -0.395 0.146 137 121 85 0 0
-0.0387 -0.1513 -0.5535 0.907 -0.420 0.034 139 121 84 0 0
-0.0391 -0.1515 -0.5573 0.952 -0.300 0.068 144 126 84 0 0
-0.0406 -0.1536 -0.5858 0.749 -0.648 0.136 86 72 47 0 0
-0.0433 -0.1537 -0.5986 0.843 -0.535 0.046 175 159 116 0 0
-0.0433 -0.1539 -0.6005 0.843 -0.535 0.046 143 125 85 0 0
-0.0440 -0.1555 -0.6197 0.918 -0.382 0.109 174 156 108 0 0
-0.0449 -0.1566 -0.6356 0.879 -0.386 0.280 165 146 99 0 0
-0.0447 -0.1571 -0.6394 0.739 -0.475 0.477 158 138 90 0 0
-0.0441 -0.1575 -0.6409 0.739 -0.475 0.477 160 139 96 0 0
-0.0434 -0.1580 -0.6424 0.831 -0.462 0.308 165 146 101 0 0
-0.0440 -0.1601 -0.6660 0.815 -0.554 0.172 155 133 86 0 0
-0.0436 -0.1604 -0.6678 0.778 -0.553 0.299 153 131 82 0 0
-0.0430 -0.1608 -0.6693 0.862 -0.430 0.267 160 141 93 0 0
-0.0430 -0.1611 -0.6712 0.900 -0.431 0.060 136 117 69 0 0
-0.0795 -0.1636 -0.8642 0.002 -0.916 0.401 102 100 87 0 0
-0.0725 -0.1675 -0.8718 0.089 -0.716 0.692 181 183 183 0 0
-0.0238 -0.1315 -0.2691 0.681 -0.381 0.625 59 40 23 0 0
-0.0237 -0.1318 -0.2720 0.731 -0.600 0.327 56 37 19 0 0
-0.0225 -0.1324 -0.2732 0.832 -0.554 -0.032 53 37 19 0 0
-0.0234 -0.1322 -0.2749 0.945 -0.190 0.266 50 33 18 0 0
-0.0226 -0.1329 -0.2777 0.812 -0.572 0.118 81 66 55 0 0
-0.0222 -0.1332 -0.2791 0.276 -0.816 0.508 120 111 103 0 0
-0.0453 -0.1245 -0.2977 0.910 -0.378 -0.171 81 75 67 0 0
-0.0282 -0.1323 -0.2974 0.552 0.190 0.812 74 64 52 0 0
-0.0208 -0.1360 -0.3013 0.517 -0.613 0.597 59 34 13 0 0
-0.0209 -0.1362 -0.3028 0.521 -0.697 0.494 65 38 16 0 0
-0.0215 -0.1364 -0.3076 0.712 -0.456 0.535 85 54 28 0 0
-0.0200 -0.1375 -0.3117 0.735 -0.490 0.469 90 65 38 0 0
-0.0200 -0.1376 -0.3132 0.843 -0.532 0.086 81 49 23 0 0
-0.0220 -0.1378 -0.3246 0.933 -0.183 0.311 94 68 38 0 0
-0.0244 -0.1381 -0.3378 0.772 -0.319 0.550 93 67 35 0 0
-0.0245 -0.1382 -0.3394 0.837 -0.547 0.009 91 66 32 0 0
-0.0247 -0.1392 -0.3505 0.879 -0.406 0.251 108 85 48 0 0
-0.0259 -0.1389 -0.3524 0.924 -0.373 0.083 110 93 59 0 0
-0.0258 -0.1390 -0.3540 0.924 -0.373 0.083 115 101 73 0 0
-0.0252 -0.1395 -0.3554 0.597 -0.715 0.364 105 94 72 0 0
-0.1141 -0.1037 -0.4023 0.338 -0.940 0.043 128 126 120 0 0
