ply
format ascii 1.0
element vertex 677
property float x
property float y
property float z
property uchar diffuse_red
property uchar diffuse_green
property uchar diffuse_blue
end_header
0.014716105564704256 0.09619775303054023 -0.6284352189875144 32 24 18
0.014865430835433562 0.0961280466176816 -0.630503199391109 34 27 19
0.01473163690759384 0.09675681033777334 -0.6320998718036903 32 24 15
0.014850563519029941 0.09676272265321309 -0.6341210462741956 39 31 21
0.014563211229038496 0.09777007741803309 -0.6354605942933077 50 41 32
0.014206224874268036 0.09894873582758329 -0.6366812543178885 54 45 35
0.01374517288096437 0.1003833197447202 -0.6377237427320288 48 39 29
0.013728114954746733 0.10072448873451953 -0.6395171769970098 51 42 30
0.013502666582838475 0.10157867105636395 -0.6409570219640697 55 43 31
0.013570268579832609 0.10171181557106107 -0.6428964821647171 52 41 27
0.013562541048292527 0.10203054918700527 -0.6447090012189748 64 52 37
0.013665782718203706 0.10207668164777253 -0.6467133515829607 66 54 38
0.01337234329311019 0.10309813748412408 -0.6480371853995691 52 41 24
0.013416736644002149 0.10328932859994083 -0.6499428201381716 52 42 25
0.013206592380970217 0.10410600802428804 -0.6514096838672634 50 40 25
0.013238317097129984 0.10432870533559332 -0.6532957641627205 44 35 19
0.0132652387344101 0.10456347161744134 -0.6551751859448113 49 39 22
0.013373451204108176 0.10459903441515878 -0.6571981272390992 58 48 30
0.013360217637621498 0.104932911974082 -0.6590109844656086 44 36 20
0.013346040262404324 0.10526931428212341 -0.6608234664007878 39 31 19
0.012033284543018705 0.1087894117194475 -0.6603525834047311 51 42 32
0.01177782680526765 0.10971653521479027 -0.661735810796645 51 42 31
0.012050547356033475 0.10934947683501853 -0.6640522773546362 50 38 24
0.01218331540123891 0.10932584352685279 -0.6661245254780064 72 59 41
0.012300084147960556 0.10934182160227962 -0.6681709939845291 76 63 47
0.011994422409252775 0.11039216087400305 -0.669466747411939 58 46 32
0.011660652332375572 0.11151103042055141 -0.6707107476106826 56 45 34
0.011569221936365469 0.11203683473591197 -0.6723874065008395 53 44 35
0.011693586107414514 0.11203505289727395 -0.6744524788588262 43 36 25
0.012166183608369269 0.11118244838840918 -0.6771477363622302 39 33 21
0.012426244975007106 0.11085019225200266 -0.6794648835223239 41 35 23
0.012418501537789173 0.1111728014611256 -0.6813007445644641 39 32 22
0.012490694871336451 0.11130041655756656 -0.6832831633348395 39 32 24
0.012586236132357077 0.11137137899187946 -0.6853102234288637 29 24 19
0.012955189444420694 0.11077544956773502 -0.6878389102092247 20 17 12
0.012923182399417317 0.11115858515910396 -0.6896384411831444 24 21 16
0.013053357906158435 0.11114634592784048 -0.6917368188382862 41 37 33
0.013203537421857772 0.11108577394328492 -0.6938746993240333 20 16 14
0.01362787816790418 0.11035743460277253 -0.6965213790960318 14 10 10
0.013556309575178248 0.11083833889363731 -0.6982560769350887 15 11 12
0.012676992528435072 0.11328689488415733 -0.6984931842429001 17 13 14
0.012259953872270357 0.11460863595169785 -0.6995829949504975 20 16 16
0.012980986080268063 0.11315962142536207 -0.7027922770775812 16 12 11
0.014433388055209315 0.10993224026306381 -0.7073772090046961 14 10 9
0.014265427319569354 0.1106491743412453 -0.7089406323896885 14 10 9
0.013173434448600543 0.11361319288968466 -0.7087675365307504 13 10 9
0.013628820828000765 0.11281394179713888 -0.7115004934452112 11 10 8
0.013588819176163544 0.11321957779441458 -0.7133036331546518 7 6 6
0.014208420050169139 0.11202290409553262 -0.7163568808715146 7 4 5
0.014178640633538964 0.11240458941580714 -0.7181847620535291 14 10 9
0.014025568377115667 0.1130858069703104 -0.7197791477589174 32 26 26
0.013214482221806371 0.1153640728733768 -0.7201178947524958 47 43 42
0.01256925363212616 0.11723886718665197 -0.7207675128971271 58 54 51
0.010778411261009466 0.12189153803944952 -0.7192151268404259 63 58 56
0.008966531748924249 0.12659259438666345 -0.717606313849777 70 65 61
0.007515482024815487 0.1304163814802898 -0.716676855384549 76 70 63
0.006069585895746861 0.13422559595657801 -0.715744655837688 97 87 75
0.004883076008717485 0.13740442448028856 -0.7153023290031431 117 102 85
0.004758441909154788 0.13801027557382303 -0.7169123319562095 105 90 71
0.004549950206619954 0.13881915542151776 -0.7183592710063579 64 53 38
0.004995571672231372 0.13804506480932172 -0.7210824895052887 85 74 56
0.006762260178650739 0.1340761714548032 -0.7263968013184056 126 113 86
0.007068790397348201 0.1336414104361404 -0.728865230904249 143 126 96
0.007450676783102801 0.13302521093530048 -0.7314863290572142 129 114 86
0.007699408165444899 0.13273165587971159 -0.7338500933226693 96 84 59
0.008408755358346558 0.1313259625528523 -0.7371282089043973 99 87 69
0.007187312319244937 0.1345845973594231 -0.7365888926959078 99 86 69
0.007821494047994398 0.1333615834768986 -0.7397250820853072 113 100 77
0.008617884988492253 0.1317483545878248 -0.7431919932803676 130 115 88
0.0096384147611897 0.12959589306675426 -0.7471156605973396 112 99 73
0.010812896451342278 0.12707402243899782 -0.7513589518093535 112 100 79
0.011981252101878594 0.1245690670516536 -0.7556030214244789 106 94 75
0.014860084956863598 0.11794367449617219 -0.7633000036636733 101 89 67
0.01564429385992845 0.11636994008731028 -0.7668041420755004 91 80 58
0.01817353924288375 0.11059468874354747 -0.773844184416271 91 82 59
0.019564096924661142 0.10756547554386112 -0.7786038969243732 90 78 53
0.019137751556202093 0.10891195255119152 -0.7796890316470937 129 115 88
0.01861335157526465 0.11049391846397161 -0.780571846761251 132 119 89
0.01830067165052625 0.11156602808293498 -0.7818830606260679 132 120 87
0.017818717484486823 0.11304489848254612 -0.7828464066323483 161 148 116
0.017786111041537926 0.11344314431987595 -0.7847279736572025 135 121 92
0.017592758087040777 0.11422784022662899 -0.7862803012824646 126 113 83
0.017078333683992274 0.11578370087479561 -0.7871706162977334 123 108 81
0.016773382293211472 0.11683597848989571 -0.7884900341535194 99 87 60
0.016545763935690606 0.11770237715606247 -0.7899680707348983 94 82 54
0.01615099064801711 0.11896975855889272 -0.7910984197371906 88 76 47
0.015905801224537365 0.11987792646495812 -0.7925375844615511 90 79 51
0.015151737577747196 0.12200620127621037 -0.7929145250073457 71 59 33
0.014898078736373527 0.1229339525493548 -0.7943316041445287 77 65 38
0.015109253655521071 0.1227476516422007 -0.7967217837156244 88 77 49
0.014942709823511292 0.1234667713795621 -0.7983221720609437 82 71 44
0.014107043335835068 0.12578819572421812 -0.7985135083801413 84 73 45
0.014142885502929255 0.12602224010529348 -0.800537437138953 90 79 51
0.013926524715542746 0.12686012247261125 -0.8020296866531611 89 77 51
0.013622654793060546 0.1279072393776281 -0.803335721167288 75 63 39
0.01292630441314014 0.129892673400284 -0.8038059404299599 74 63 38
0.012843887781156742 0.1304095738839957 -0.805578823806781 82 71 42
0.01317234524460318 0.12994471753398937 -0.8082299495146001 89 75 47
0.013388849951075497 0.12974810029084283 -0.810646255446596 86 71 46
0.013461652834491265 0.1298952637757543 -0.8127579245677926 86 70 47
0.013663935613077632 0.12973370285200062 -0.81515037294756 96 78 52
0.013863421503131891 0.12957940600554987 -0.8175403826208609 114 94 63
0.013900600330372208 0.12981289040298316 -0.8195832122926474 114 96 63
0.013870861173675177 0.1302062737722678 -0.8214830221030865 102 85 54
0.013760277333500395 0.13079258965409463 -0.8232085611461963 65 49 22
0.013691402079301696 0.13127958216739896 -0.8250253023749322 82 67 41
0.013505368127225754 0.13204581690555475 -0.8265873481617192 110 96 69
0.012902337847504483 0.1338050390720936 -0.8272373665606564 104 88 58
0.01247245008254072 0.1351513319284194 -0.8282622487562292 128 112 75
0.012229698854924753 0.13605182583179645 -0.8296953677874902 150 134 92
0.011844084208715841 0.13729202984342098 -0.8308130494599393 143 128 90
0.011938990993658506 0.1373891291547626 -0.8329887268428183 121 106 72
0.011515905931020795 0.13871803413282863 -0.834021246713574 106 89 54
0.011387106524741987 0.13934714639160187 -0.8357034123229021 122 104 65
0.011367940963050577 0.13971585732640132 -0.8376294321568243 141 123 84
0.011018699241313441 0.14086863340895905 -0.8388217104298337 132 115 79
0.011190925772956675 0.14078317415269884 -0.8411760102705603 138 120 85
0.012071867000898392 0.1390164484951641 -0.8451192632087274 138 121 85
0.011023369822707567 0.14182848705496562 -0.8447464519982016 143 127 89
0.011409632696085241 0.14123668064358774 -0.8475891900588406 143 128 90
0.012642802356746294 0.13863817078263835 -0.8523452851171586 129 113 75
0.011166856278973333 0.14246173650984723 -0.8509989004207759 146 131 93
0.01102757904097533 0.14311672212182108 -0.8526637697017 134 118 82
0.01072808481515139 0.1441511247234847 -0.8539653977991623 130 114 76
0.010437212628208875 0.14516487129523029 -0.8552851251456449 140 124 86
0.010705182965525736 0.14485599465182591 -0.8578767033952642 120 107 76
0.01006779333222322 0.1466894218554 -0.8584051914478904 84 76 57
0.010218382504155209 0.14665876657021404 -0.860732142328931 47 41 27
0.0106557769785691 0.14595068651769083 -0.8637201249373971 58 52 37
0.0110235818598318 0.14540804309362904 -0.8665542239937372 85 82 65
0.011439833457592655 0.144751850617922 -0.8695053470103713 116 113 101
0.011076497121309536 0.14593740401136893 -0.8706620107084435 140 140 134
0.011204096882907466 0.14596381210090761 -0.8729528065305706 156 156 154
0.010016909488514969 0.14909296293482288 -0.8721965676662035 166 165 163
0.01066670687633487 0.14854384293704315 -0.8796983240084991 182 181 177
0.00283657407031513 0.1676431698429456 -0.865335440778805 186 185 181
0.00252883120100527 0.1686901099247119 -0.866575749750869 188 187 183
0.0018614103056017045 0.17058330041244624 -0.8669669839465364 189 188 184
0.0012277225499693276 0.172396243574314 -0.8674324899954531 185 184 180
0.0012075302183848849 0.17276552218312785 -0.8693448285471485 188 187 183
0.0010551933437768363 0.17344569320512238 -0.8709451147108865 192 191 188
-0.0015624045943748166 0.17991950938832002 -0.8666854477351003 193 192 190
-0.01639846405839672 0.22160700865623645 -0.8729692763485509 208 207 205
-0.01786440700050862 0.22533586885606036 -0.871212985186859 208 207 205
0.028828654386898606 -0.011590591001074096 -0.1790041469891936 177 177 176
0.02825125771492121 -0.009808189946517151 -0.18025422335432445 175 177 173
0.027718656782757957 -0.008144903946625981 -0.18152333650150307 171 170 163
0.02716538746706027 -0.006427425215701971 -0.1827790298738639 157 152 143
0.025601665335861917 -0.002037364170637629 -0.1835188553978818 127 121 111
0.025074541642228908 -0.0003907227541442293 -0.18477770478204497 98 92 81
0.024898212554817806 0.00032785809929310183 -0.18621424438743014 89 82 71
0.02486721757163382 0.0006621900994833452 -0.18772589226459213 92 84 73
0.025129857153072196 0.0002206018601523807 -0.18939183323220557 111 103 95
0.025485891832843922 -0.00046725746069893603 -0.1911100126429525 131 125 119
0.02705202684512107 -0.004351164914430994 -0.19347376280497955 159 154 149
0.027877333288799037 -0.00627636524393721 -0.19545483874543298 176 172 169
0.028662991783757565 -0.008095657282372118 -0.197421980517336 177 173 172
0.028433470490100532 -0.007233948792848902 -0.1988461190260805 177 174 168
0.02809962683335626 -0.006097036381680493 -0.20021262760923425 173 172 165
0.027825333235298073 -0.005117494130729011 -0.20161036090848478 165 163 156
0.0276627909586567 -0.004432907724805105 -0.20306889455154006 142 137 128
0.026904056621003578 -0.002176066536252061 -0.20419500027209042 114 106 96
0.025962765651152166 0.000561308896758636 -0.20521388508790225 112 104 92
0.025161944136391994 0.002927391772825 -0.2063059370479134 122 114 100
0.024813403966511677 0.00410073178918087 -0.2076501509165628 113 104 87
0.024021605506839183 0.006441638631709365 -0.20873887623118462 81 71 53
0.02432681886890007 0.005892154961242846 -0.21045505852473 111 100 83
0.023767343067041712 0.007620296100830259 -0.21167275866713037 141 128 112
0.022317950885066204 0.011690820190176726 -0.2123671960042365 138 125 108
0.020926983236677663 0.015605885355543789 -0.21308583280012555 146 132 112
0.019061031066297564 0.020769248877498717 -0.21351352154697445 188 173 146
0.017512468671945565 0.025095399145150514 -0.21411694047053034 196 180 145
0.016457021564032608 0.028122754570566094 -0.21500517849758102 191 173 133
0.015254028877825053 0.031536906053424275 -0.21579719242655815 191 173 135
0.014164753556370526 0.03465073455793141 -0.2166499991265484 171 154 124
0.013743975282280338 0.03600635557805716 -0.21790416355002312 77 60 38
0.013460192657052414 0.03700163698427646 -0.21924040475945414 61 44 26
0.013232859586548937 0.03784843492757292 -0.22061044048660367 77 60 40
0.013391817927817583 0.037680586736591214 -0.22222048224713864 91 75 50
0.013550404208595978 0.037514093508045764 -0.2238325790108965 99 84 57
0.01346904902029455 0.03797783284883889 -0.2252955628292008 100 88 60
0.012851741686399042 0.0398481877119745 -0.2264186876578095 109 98 71
0.01299688276754433 0.03971745020963456 -0.22802509475611715 100 86 60
0.013076966488471188 0.03975772576961554 -0.22959187527579542 91 76 50
0.012907811626352229 0.04045189458490452 -0.2309991697017021 118 101 73
0.012970890020351887 0.04053714880339015 -0.23255727251897074 151 136 101
0.012522407820373678 0.04196353866147376 -0.2337821230319599 169 156 115
0.012509049489956025 0.042249276512420386 -0.2352909938814159 189 177 133
0.012334108687304734 0.0429584946926101 -0.23669379651348324 173 159 118
0.01216743412371384 0.043646009412952214 -0.2381017890458378 192 178 140
0.011804648342071844 0.04484701134526477 -0.23937809901636228 158 144 109
0.011362973745549987 0.04625424037084649 -0.24059943290536173 111 96 64
0.011551113739653592 0.046012681443141544 -0.24224539372879086 88 69 43
0.011983394355474646 0.045132721753719504 -0.2440603966016863 85 70 45
0.012194748126766115 0.04483143549045932 -0.24572832688989799 103 88 61
0.01254888795091602 0.04415717102404258 -0.2474974917620637 113 99 71
0.012934007638235061 0.04340254265345399 -0.24929201121743041 114 102 72
0.0128272362855011 0.04393439673315562 -0.2507474102031984 113 101 74
0.013377849943813566 0.042748312130557964 -0.25266433881078154 115 100 75
0.013439857299940804 0.0428397027447624 -0.25424189112148 108 94 68
0.013673646461062294 0.04248265052596965 -0.2559429097712077 102 88 67
0.013722635775697023 0.04260866527868039 -0.25751497970740617 90 79 58
0.013894592605340185 0.04241388667162307 -0.25917675041975463 78 64 46
0.014079342413874544 0.04218612058608747 -0.26085019203427295 65 48 31
0.01426679490059389 0.04195172244448131 -0.262528138900713 68 52 31
0.014316424766670333 0.04207729525179796 -0.26410811577719 97 82 58
0.014836605557646178 0.04097586488312184 -0.2660346953404114 85 71 46
0.014641718920651123 0.04173979912196765 -0.26743918248749626 80 66 43
0.014638354128085493 0.04200439868560299 -0.2689851994271136 86 71 50
0.014520490463293408 0.042567572474402196 -0.27044692788547625 84 69 47
0.014376369453943407 0.04319918336007893 -0.271889126299947 86 71 48
0.0141186374093007 0.04412671972436559 -0.2732456707443764 74 62 38
0.013756503335434468 0.045325975074449035 -0.2745221750782243 71 60 41
0.012582014087046758 0.04863989588891688 -0.27517838044656356 54 46 34
0.012365145008330612 0.04945991708677577 -0.27655920501650133 43 36 27
0.01225179378927297 0.050010459534569625 -0.2780190230820525 41 33 23
0.012368758900681311 0.04996186058501581 -0.27965713817294124 46 38 29
0.012791840400845581 0.04911743287184131 -0.2815352429866738 83 74 65
0.013197095681455696 0.04832009709449722 -0.2834039003567124 97 87 77
0.013041429201487497 0.04898160985197876 -0.2848363599195229 62 52 42
0.013069051329454635 0.049166754812912036 -0.28641335197327633 47 36 27
0.013221829568665942 0.04902693673300351 -0.28809096193799255 45 34 23
0.012934737627117728 0.05003008099889188 -0.28942012611520507 53 43 30
0.01291145064168522 0.050347957578415134 -0.29095950769902695 47 35 22
0.013073550698014528 0.05018468167484112 -0.29264912682410676 50 36 21
0.013188789199302216 0.05014343414576225 -0.294303215720875 65 49 34
0.013655478327468024 0.04919055187280719 -0.2962452568067057 87 72 55
0.013187964735167743 0.05066198940815553 -0.2974283764762593 81 70 53
0.013088607395468299 0.05117815763810793 -0.2989113106589983 62 50 34
0.01374503579114823 0.04973471930007217 -0.3010185694487921 56 44 31
0.01330446044623156 0.05113599904802131 -0.3022220525530145 43 31 18
0.013794488704000098 0.05012517964090622 -0.30419896991625067 50 38 24
0.013904249719371431 0.05010042097932256 -0.3058623759510226 62 50 34
0.013755949905492684 0.05074442149825824 -0.307310533520382 66 54 39
0.013733556051660635 0.051062370029862456 -0.30886510529469074 85 72 52
0.013557641419848901 0.051777915946614544 -0.31029012149641594 130 116 91
0.013258343040749986 0.052812750191911007 -0.3116094508463426 142 129 103
0.013785411430059128 0.05170912943470041 -0.3136365562984894 123 111 88
0.014055901034440432 0.05127013040639178 -0.3154478531582451 92 82 66
0.01429417702794156 0.05091498965182885 -0.31723456492591134 56 47 37
0.014189684377717303 0.05144658264061143 -0.3187260280558963 38 30 24
0.014528125853807094 0.050833312446998666 -0.32060504817842284 31 23 18
0.014936406297923217 0.05004020912674138 -0.32254930049301156 48 40 32
0.01538797410670988 0.04913601010069811 -0.3245362115972603 93 86 76
0.015789651597040183 0.04836146345288787 -0.326483704438151 95 88 80
0.016343224732040862 0.04719543161132246 -0.3285709020973503 65 59 53
0.015418829424251341 0.05010913034103277 -0.3309361791706178 148 148 149
0.016335371288200923 0.048008036053758515 -0.33335980346464916 180 181 183
0.017057206524318642 0.04641060111520125 -0.3356154618275646 179 180 184
0.016980457193724725 0.04687367938671057 -0.33715053370343695 179 181 185
0.016722711456692796 0.07587403906868358 -0.5084298121678092 205 206 209
0.016500609451360823 0.07671619582814192 -0.5098581731018637 205 206 207
0.01650216397094068 0.07699801806655743 -0.5115897055449021 202 202 202
0.016022135752063595 0.07848598266708659 -0.5126661189314521 163 163 162
0.015662462202378786 0.0796721643528566 -0.5139041374637798 111 109 109
0.015422891461578315 0.0805574574264087 -0.5153050135261558 82 80 79
0.015314758409590935 0.0811137670105457 -0.5168859446001345 76 74 70
0.01514441810543216 0.08182571990201881 -0.5183813011920095 65 63 59
0.014954220983924987 0.08258728486829088 -0.5198489187932668 31 29 25
0.014657524566278387 0.08361499779865493 -0.5211681280876088 35 34 28
0.014557463379076888 0.0841511029522693 -0.5227601114957205 75 75 65
0.014449751611681046 0.08470638570303025 -0.5243417868997845 76 74 63
0.014481571690345547 0.08491324309641958 -0.5261195536656706 49 45 37
0.014471610390367182 0.08522467740248324 -0.5278400829314766 31 25 18
0.01443016521963469 0.0856148937591845 -0.5295173564766729 41 33 29
0.014490999222898423 0.08575004724479483 -0.5313404186137188 66 59 51
0.0131010744441158 0.08950447252114006 -0.531103941050203 61 53 44
0.013086251035011435 0.09011443074424566 -0.5345510932478215 34 26 17
0.01346922097225118 0.08944675846249117 -0.5368364380147977 35 28 19
0.01333770663727081 0.09006174311871484 -0.5383862631209025 39 33 24
0.013332574034057628 0.0903619506210842 -0.5401186080811222 39 33 24
0.013337519447625214 0.09063726922026877 -0.5418667925040526 41 34 25
0.013460831077108888 0.09061815444642206 -0.5437882188181363 59 52 44
0.013747039450922819 0.09019405145506577 -0.5459493568643452 36 31 23
0.013835455086705556 0.09026266995917252 -0.5478253398626228 35 30 24
0.013323572727167915 0.09182464735266638 -0.5488235126094383 31 27 21
0.013256641713834293 0.09227976236924419 -0.5504725835125402 27 23 19
0.013353564916510272 0.09232771225142992 -0.552364006989607 31 27 23
0.013492888116094833 0.09227066322854827 -0.5543203333418529 34 28 24
0.01383851019817764 0.09170156348327294 -0.5565853389922429 45 39 34
0.013928241490649428 0.09176867265389502 -0.5584739209415156 50 44 38
0.01429261333355978 0.09115429844839934 -0.5607746321380422 49 44 39
0.0148232256238982 0.09012809513857689 -0.5633288861083962 23 18 14
0.015321359633728042 0.08918348693191885 -0.5658404837810839 17 13 9
0.016424987484242183 0.08673797851062051 -0.5692700807096162 17 13 10
0.017296605134380676 0.0848696465539851 -0.5723604453270544 18 14 11
0.01808525276109259 0.08320851584997269 -0.5753343082026454 17 13 10
0.018609590403497037 0.08220378794033978 -0.5779148932294689 20 16 13
0.018255119089717095 0.08337722440316955 -0.5791617074871408 23 19 16
0.018660233194629488 0.08266912810739374 -0.5815681933482728 26 21 18
0.018666449518964 0.08294948947694336 -0.5833678969681009 24 19 16
0.01832813893593125 0.08408283289546858 -0.5846390083740702 28 23 19
0.0182892834836765 0.0844749218909169 -0.58637039942023 27 24 19
0.018315068082316175 0.0847072788913964 -0.5882028065933582 38 34 28
0.018112061685506442 0.08550566823118685 -0.5896817085475485 39 34 25
0.017945913814420247 0.08621285481173296 -0.5912174746007407 43 36 26
0.017422850412807996 0.0878020803265665 -0.5921958659329158 40 33 24
0.01618235142680325 0.09116323749544794 -0.59204749900066 44 35 25
0.01521695128502791 0.09384328673011955 -0.5923211049237364 57 48 38
0.014632540388837746 0.09558139845049315 -0.5931872248049667 58 48 37
0.013613631645075012 0.09839133111694712 -0.5933630364249594 52 42 32
0.013347780578945753 0.09934171419300805 -0.5947237430547159 48 38 28
0.012895933108672562 0.10075073372877169 -0.5957878573700427 42 32 23
0.012926195714706754 0.10097037859890456 -0.597617296211181 40 32 21
0.012749683942058984 0.10170005081949293 -0.5991179531474615 46 38 27
0.012441851349480837 0.10275332081039437 -0.6004078863589208 45 37 27
0.014156051841250197 0.09882451735477119 -0.6049459481005961 63 54 43
0.013966845525572834 0.09958665717697476 -0.6064334135294533 57 49 35
0.014011915778025866 0.09977188523851496 -0.6082991542437943 76 68 53
0.013907287090403286 0.10032588705392154 -0.6099240091747002 49 40 29
0.013888862199398708 0.10066782958352485 -0.6116893829136084 36 27 18
0.013868017035403302 0.10101592176807594 -0.6134519968347674 39 30 22
0.013851954445084767 0.1013524451124802 -0.6152235941657017 41 32 24
0.013833471406246356 0.10169511889904312 -0.6169924335440565 34 25 17
0.013814968809267657 0.10203803722513674 -0.6187624300007297 35 28 19
0.014290648780938893 0.10116699987549041 -0.6213484031407721 35 28 19
0.014550989578901337 0.10082581737674426 -0.62358411722655 44 37 29
0.015302261643367607 0.0992798501343087 -0.6266376070428393 40 31 24
0.014361858544649886 0.10188762652442293 -0.6268867051088307 40 31 23
0.014380085714158983 0.10214187986663048 -0.6287267995304073 45 37 27
0.014638742726698739 0.10180660212556042 -0.6309704383374223 54 46 35
0.014522063830596323 0.10239237739267668 -0.6325885446213179 51 42 32
0.014437524455020626 0.10289940983973755 -0.6342609755194718 45 35 26
0.014214350384789631 0.10374629617251727 -0.635700253576524 43 33 24
0.01446783833028615 0.10342526156546844 -0.6379447113704412 42 34 24
0.01459898842568317 0.10340447513561851 -0.6399855119038536 58 50 39
0.014459537401645711 0.1040466640184004 -0.641568887106109 52 43 31
0.014504569470220822 0.10423731697675817 -0.6434668335620052 50 38 26
0.014516172638367013 0.10451006456000006 -0.6453094429074732 55 43 31
0.014290420027742862 0.10536365351842403 -0.6467466936407242 47 35 21
0.014456737733487178 0.10525838519023747 -0.6488571050258531 52 40 24
0.014303746445394512 0.10593416852447465 -0.6504201380295556 66 55 39
0.014279844433426211 0.10629448018936546 -0.652206216073292 75 65 48
0.014196207117297133 0.10680091724748206 -0.6538899452798013 57 46 30
0.014398595800802286 0.1066089190995955 -0.6560712847623541 60 48 32
0.014537322973423396 0.10657289170166873 -0.658145007177451 52 44 29
0.014680089400415354 0.10652745290430521 -0.6602284921021164 48 39 27
0.013016347687228293 0.11089011575690583 -0.6591501395253937 40 32 22
0.01266248085121053 0.11205550920104237 -0.6603582559820375 40 32 22
0.013114056298353008 0.11125666257215452 -0.6629829844304096 43 32 20
0.013161287426156278 0.11144435352813287 -0.6648993308713474 63 50 34
0.013109207125374826 0.11187434652888048 -0.6666416758782948 86 73 56
0.012838826574853517 0.11283626117041912 -0.6679973545504474 63 51 33
0.012596084863136472 0.11373067855807614 -0.6694010745686687 64 52 38
0.012598245695286371 0.11402875748255922 -0.6712410240427915 58 48 36
0.01252425596820271 0.11451239284090048 -0.6729461156861429 51 44 31
0.012714035568005662 0.11435443934470338 -0.6751252212430706 42 36 22
0.012928615011662599 0.11413670247890217 -0.6773521591558009 39 32 21
0.013049212527865756 0.11414803008979704 -0.6794130136678547 38 31 21
0.013233767149233258 0.11400433524041151 -0.6815921084449241 42 35 27
0.013402346726994335 0.11389997908017485 -0.6837454075910412 40 35 29
0.013768364638862253 0.11331656640573051 -0.686260720214818 27 24 19
0.013953386204219403 0.1131734434419934 -0.6884509905636492 24 20 16
0.014002628505150563 0.11336042645370462 -0.690396276748876 29 24 21
0.014122806673796007 0.11337559506757769 -0.6924734529151554 40 35 32
0.014728664390296554 0.11221306036438106 -0.6954455677257503 20 16 13
0.014796585222188033 0.11235618614451429 -0.6974339611210395 14 10 9
0.013864621295489779 0.11492352700105751 -0.6975777219510544 15 11 10
0.012992033237120768 0.11826793878860559 -0.7034059405470078 14 10 9
0.014696994685438183 0.1144494952566266 -0.7084593732791898 13 10 9
0.01484993049663811 0.114388951441876 -0.7106194282899925 12 11 9
0.014723129772434035 0.11500545781033819 -0.7122563337842147 10 8 8
0.01474816730256543 0.11525488747676074 -0.714179739000842 6 4 5
0.014563367049586926 0.11601177338014351 -0.7157081916261513 8 4 5
0.014317185387444066 0.11691691346198005 -0.7171199869078695 17 13 12
0.01416341999581467 0.11759867769410695 -0.7187064335870103 39 35 35
0.013934926083210675 0.11846087542005246 -0.7201505059023007 52 48 47
0.013098914302702852 0.12078937483021598 -0.7204337190878906 63 58 57
0.009896922682296964 0.12882588693984953 -0.7161808140046788 73 68 64
0.008940571030621167 0.13144057718638244 -0.7162082886811867 77 70 64
0.009702184590519504 0.12991127430965127 -0.7195334898814253 98 89 79
0.006322141637953083 0.13867291498853682 -0.716728305554422 83 69 51
0.00861556833735845 0.13345393517412457 -0.7230259189701204 80 69 50
0.008856923163130498 0.13318064998335796 -0.7253589598775311 122 109 85
0.009104845774071814 0.132892180764242 -0.7277085936615195 144 128 96
0.009352498910731644 0.13260499849339552 -0.7300615655031358 154 134 100
0.009828291606116875 0.13176960385103517 -0.7328651438279024 118 102 73
0.010273212433765527 0.13100946242737152 -0.735614217026034 107 93 71
0.010723513880530798 0.13023734402328496 -0.7383796829887965 114 101 79
0.00914326613227505 0.13434630951188312 -0.7371450498311312 118 106 78
0.010452885647689113 0.13150994276291814 -0.7416118204013704 140 126 93
0.011356257860250837 0.12965163252693399 -0.7452874360159921 144 129 98
0.01284321848501372 0.12639387824461493 -0.7501332774309333 119 107 81
0.014573809780925769 0.12255403656431826 -0.7554805975358316 118 107 85
0.01632132399379048 0.11867664295893282 -0.7608801874486532 115 103 83
0.01815004677067565 0.11460755390737337 -0.7664610351577582 102 90 68
0.018884845760662995 0.11316455605322825 -0.7698656542505244 94 83 58
0.0201516750024106 0.11044779819960007 -0.7743495078283184 91 82 54
0.02158490445206994 0.1073346477632818 -0.7791829797013878 122 111 80
0.02094925189268336 0.10917953807723468 -0.7798489033797418 131 117 85
0.02054136858837592 0.1104782688172315 -0.7809717415180667 132 118 84
0.020066976502866686 0.11193578130536488 -0.7819569400400144 128 116 79
0.01964013683950712 0.11327898797609665 -0.7830358261515991 141 128 94
0.019367913789472405 0.11425191028525464 -0.7844276951437271 124 110 81
0.019248965475050575 0.11485813547932336 -0.7861320923613797 112 98 71
0.018820038814953213 0.11620536982946425 -0.7872008802504677 102 89 62
0.01868517742096175 0.11684947962665515 -0.7888717040049877 99 86 58
0.01834702093953599 0.11797923066234309 -0.7901236167348927 99 85 56
0.018127960227366846 0.11882429293774469 -0.7916198071900691 102 88 59
0.017896241661029905 0.11969946271763587 -0.7930891267301039 104 93 65
0.01721291491994252 0.12165214777303537 -0.7936199402164495 76 64 37
0.017010404840896512 0.12245701504029205 -0.7951462518857572 88 74 48
0.017083845244243584 0.12260377209448833 -0.7972478093011098 79 65 39
0.016626922737658797 0.12401516480363556 -0.7982424479112374 80 66 39
0.0156616373910049 0.1266374579435548 -0.7981683564097231 82 69 42
0.016097115727774537 0.125921624426408 -0.8010296310840985 89 75 48
0.015757844865516367 0.12705166846486338 -0.8022649076004942 96 83 57
0.01565813299698763 0.12761114223256215 -0.8040041104959151 87 74 48
0.015515134209382449 0.12827371161340637 -0.8056522379263671 96 84 56
0.015718249711066584 0.12811295542158682 -0.8080346900683846 114 100 67
0.015945203133343237 0.12789610258254186 -0.8104713989373002 123 108 76
0.01609532867335054 0.1278625117661483 -0.8127481725756445 118 103 73
0.01598920251906319 0.12843836305409237 -0.8144805425562399 117 101 72
0.015613855299720182 0.12965382802167916 -0.8156368794791115 99 81 53
0.015642132238429814 0.12991044993545034 -0.8176573344178484 103 85 53
0.016088786639466293 0.12917421252530115 -0.8205797359384208 105 89 57
0.015993708832968294 0.12972450857555945 -0.8223399421178147 97 82 51
0.01601925034297358 0.1299887719641806 -0.8243614607068265 81 65 38
0.01565348613645759 0.13118125436664269 -0.8255369984915271 102 88 61
0.01573990761898956 0.13130147273207876 -0.8276923683560191 106 92 64
0.014841603790815928 0.13375557161636395 -0.8277067528711148 121 105 73
0.014286450916232818 0.13539555740668088 -0.8284622698733441 126 111 78
0.013771177321449987 0.13694043775058282 -0.8293009315795072 119 104 68
0.01365524752868904 0.13753939852378438 -0.8310112241684391 113 99 64
0.013552946429956927 0.138106171747503 -0.8327518357179342 108 93 60
0.013216583725936377 0.13922670187777192 -0.8339775683857904 114 98 63
0.013187080646453478 0.1396213074391904 -0.8358786946549722 131 114 77
0.012963497261335478 0.1404748910500073 -0.8373517489532788 127 111 77
0.01255866565862128 0.14175664221608758 -0.8384222254155147 119 103 71
0.012600168577464842 0.14198366679453814 -0.8404820248169171 123 107 75
0.013947784553547352 0.13912689736962747 -0.8454530066091355 121 106 73
0.014181915717901492 0.13890098560737027 -0.8479534597951764 123 108 76
0.013285399008276272 0.14134361948183977 -0.847927970826021 122 107 73
0.014323067704401352 0.13922270147770208 -0.8522326370662082 144 129 94
0.013551390374180114 0.14137009976775178 -0.8524824718960539 138 124 88
0.013023286401672197 0.1429423327770888 -0.8532747377114902 130 113 77
0.012439484937298413 0.14464517005790628 -0.8539374116271276 139 121 84
0.011976254992687216 0.14606328681307587 -0.8548685506161632 141 124 88
0.012128869148732992 0.1460308458683146 -0.8571933966658777 118 107 79
0.01230324324223133 0.1459477069600394 -0.8595708487252078 83 76 60
0.012530209457549596 0.1457413824598594 -0.8620714962824445 55 51 38
0.012919302332713455 0.14515438118460472 -0.8649462892277132 73 69 57
0.01338642602848581 0.14438483915050074 -0.8680052558895722 99 95 84
0.013024757152218194 0.14589362021180474 -0.8711629842081781 148 148 144
0.013073298920853738 0.1461092290876158 -0.8732699679736641 162 162 161
0.010107704836986663 0.1534016294216127 -0.8684183261594007 170 169 167
0.013921788582240469 0.14477800823549936 -0.8792293530397907 177 176 174
0.00473933271575723 0.16762321514929118 -0.8658143325904276 186 185 181
0.004359571736223838 0.16883722506610627 -0.866888946199748 188 187 183
0.0034327554421423392 0.17133192305178055 -0.8666780441620817 190 189 185
0.0028326272901789754 0.1730605424222755 -0.8672270560265513 187 186 182
0.0027366633685812006 0.1736086179103261 -0.8689591825327906 190 189 185
0.002527326487507364 0.17442198957329888 -0.870424190949123 192 191 188
0.0007495998211787466 0.1789026897905006 -0.8681772621239592 193 192 190
-0.016006825185712566 0.22492048342157483 -0.8699012739569087 207 206 204
-0.015884316216270816 0.2249500557054986 -0.8721041397763072 208 207 205
0.029425338614062616 -0.008154640092805004 -0.18155670747339325 177 176 178
0.029185835734861554 -0.007268431724163318 -0.18297131737392186 176 176 176
0.030892199984576606 -0.010995321266149327 -0.18845433767392797 170 167 167
0.03075298923752475 -0.010372098914564004 -0.18992692084356844 170 168 167
0.031011118586338232 -0.010794578779085004 -0.19160634362099127 174 172 172
0.030635620582757418 -0.00954940578458384 -0.19295652778508685 177 177 178
0.03133609981635204 -0.011134875147100418 -0.19487324337783138 177 176 178
0.03168510569772765 -0.011019973612279535 -0.20127112929886704 177 176 175
0.030873499803053886 -0.008628956473533442 -0.20238295130814737 176 176 175
0.030596131560362803 -0.007642060522862884 -0.2037840769135463 176 175 174
0.03014836411137403 -0.006207867988425084 -0.2050895663829646 169 165 164
0.029301422063592285 -0.0037260808715570276 -0.2061696027813521 141 137 133
0.028131709724707972 -0.0003980068947310733 -0.2070625743374569 117 112 105
0.027385352967017832 0.0018178165172794136 -0.2081874658581716 108 100 88
0.02604452521082429 0.005592439762538259 -0.2089685949341235 91 80 65
0.026545014008077038 0.0045360599226058895 -0.210797826499301 114 102 86
0.02561126312535034 0.007241347967393702 -0.21180284527129795 136 124 106
0.02441966081240956 0.01062158598717336 -0.21265166829933063 146 134 113
0.02286166922139198 0.01496074444261361 -0.21327772134916825 174 160 136
0.02080299328539676 0.020610005183824956 -0.21359756122046197 190 175 146
0.02041815156525641 0.021871980371087493 -0.2148960331369741 198 182 147
0.0179452400395905 0.028602251295850416 -0.21494515709235723 195 178 138
0.016962989645094118 0.03142646112228761 -0.21587249296097052 215 197 157
0.015722524785079094 0.03492550693744402 -0.2166370113051931 201 183 147
0.015489465329647855 0.0357866980871041 -0.21800649391401708 121 103 73
0.015194806845600685 0.03680893024171384 -0.21933745840484142 110 93 62
0.014900386020198567 0.03783033410947486 -0.22066732654518045 145 131 95
0.01460620272179472 0.03885091028079533 -0.22199609973391157 169 159 123
0.014552996072520485 0.039241254043639345 -0.22347413257220416 150 139 108
0.013863344898761433 0.04129525573118217 -0.22455283149989713 135 122 90
0.013813334690368332 0.04167704480990575 -0.22603167151244005 137 124 92
0.013886767883725146 0.04173644343434537 -0.22758970409172866 109 95 68
0.013984326436211076 0.04173309847107106 -0.22916479767057824 105 93 66
0.013823565016315913 0.04240458754808086 -0.23057533682445736 130 115 86
0.01384200914644542 0.04260821123357488 -0.23210178028026263 165 151 117
0.013934683828334467 0.04261829634992058 -0.23367780187424322 182 169 131
0.013887657764690121 0.042993195534955134 -0.23516399194042725 193 180 138
0.013796126826929062 0.043484305376412805 -0.23662150861831066 199 185 142
0.013638154840436581 0.04414874836268951 -0.2380352744598821 202 187 146
0.01353562107152954 0.04466861486088109 -0.23948585976935344 188 174 137
0.01312818145072401 0.04598331580821941 -0.24073198649378771 155 141 107
0.013018290915182109 0.04652223887313521 -0.24217690960813054 130 111 83
0.013303264731981713 0.0460324227815279 -0.2438902284097038 102 87 61
0.01348635502551053 0.04580853282842491 -0.24553723824457682 98 83 57
0.013657519514480694 0.04561611350035768 -0.24717855017037235 90 76 50
0.013618988167445119 0.04597002014902023 -0.24867736402336021 99 87 61
0.013862927928805596 0.04558884675086372 -0.25037323848036247 103 90 65
0.01416321847939652 0.04506153817004677 -0.2521114781774675 102 87 63
0.014444747931832279 0.0445836058952967 -0.2538399616419366 102 88 62
0.014632718997361582 0.04434954644364696 -0.2555056061588439 100 86 62
0.01537899898788745 0.042664227141974806 -0.2575705991526727 79 66 43
0.014942168275845429 0.04405554732651962 -0.2587970291746522 67 52 29
0.014910436535829727 0.04439368802663783 -0.2603121889536356 65 49 27
0.015135131050872164 0.044065725173393036 -0.2620134547847755 71 56 31
0.015315266124566605 0.0438539801368663 -0.26368519805074436 93 79 52
0.015163781369588548 0.04450382055088068 -0.2651172001093361 97 83 57
0.015411978371536579 0.04411598674851013 -0.26684262190934654 85 70 47
0.015289548679512866 0.044690635754192645 -0.2682974149673449 78 63 44
0.015263689325391641 0.0450147140876133 -0.26982400690122965 74 59 41
0.015017309717863594 0.045911016033197215 -0.2711868888382419 68 53 33
0.014658625782386324 0.04709844025837163 -0.2724646298025909 70 56 33
0.01406720932098746 0.04888902215856136 -0.2735650511408678 70 58 40
0.014115158224776964 0.0490216141969467 -0.2751466611745173 59 48 35
0.013897962906979665 0.049841590867244524 -0.2765276265973926 44 36 25
0.01377904175294379 0.05040683981079366 -0.2779832448404409 80 72 61
0.013382195684705788 0.05169200644480057 -0.2792249328385857 138 129 118
0.013765288652315931 0.050957106006270965 -0.28106837758188546 154 144 132
0.014180681341498216 0.05013927266541747 -0.2829411005042786 114 105 90
0.013843241787115462 0.05127069726522127 -0.2842293615097361 64 55 39
0.013998883552307616 0.05112595917720303 -0.2859036726865394 59 47 32
0.013683959548099783 0.05219892990969027 -0.28720847607590605 55 42 27
0.013729743604773744 0.05233877602266945 -0.28879832333866545 58 46 29
0.013718027350759845 0.052627537057904045 -0.2903437300870093 59 46 29
0.013753614800590955 0.052794187016844046 -0.29192808210445204 63 48 32
0.013816456338911598 0.052890634250178065 -0.2935357851564887 65 48 32
0.014089497992130433 0.05244427460400691 -0.295315400339363 80 63 44
0.013776421945182075 0.05351236269550658 -0.29662104979844367 98 86 61
0.014325798841306026 0.05235313551349259 -0.2986310107201065 82 68 46
0.014622260599085439 0.05184774951028204 -0.3004385152810899 65 53 35
0.014531478669905507 0.05234238951166957 -0.30192951422448233 57 45 28
0.01475857225932031 0.052016891613867924 -0.3036848356113692 48 36 21
0.015295599687581426 0.050892381284131954 -0.3057016981757205 52 40 26
0.01521947024282078 0.051350053005049356 -0.3072099099085821 51 38 24
0.014955437583859935 0.052292266460884654 -0.30856031190255423 60 46 31
0.014533677494198795 0.05364086292004526 -0.3097761711259676 100 85 64
0.013861302147170736 0.055634886572901054 -0.31077656754001937 150 135 110
0.013619727195089262 0.05651835126446604 -0.3121407922088912 161 147 119
0.014157268493980312 0.055395020579634136 -0.31417315316874783 122 111 87
0.014939411923876968 0.05364277757008004 -0.3164219960152064 73 63 48
0.014910582868297991 0.053979382516826824 -0.3179753806053206 57 48 39
0.01535557697909731 0.05309673582695948 -0.3199422553402355 37 28 22
0.015498889572596621 0.05299105806308603 -0.32164992730272046 35 26 19
0.015807407915139755 0.05246082096895871 -0.32350508666979955 58 50 40
0.016463147399043525 0.051038306776054754 -0.32567047046838965 88 80 69
0.017074676868598003 0.049730522480563366 -0.32780309503024163 76 66 58
0.016610429166715623 0.05171850129886833 -0.3321702989832197 155 154 151
0.0171577693702156 0.05057806912183317 -0.3342600147570301 179 181 181
0.01740945006953164 0.05019765520945296 -0.3360870325711588 179 181 185
0.017918105962010936 0.04915817836282381 -0.3381514837340274 180 181 185
0.01816361226790111 0.04879484419349117 -0.3399802815756751 181 182 186
0.017939223089787813 0.04963750213837359 -0.3413800522366458 181 182 186
0.015084988113292855 0.08329714459458862 -0.49718218775590073 202 206 209
0.017220408862758874 0.07824903898326292 -0.5017333561998216 204 205 209
0.017136372079692746 0.07874470745414071 -0.5033408339713337 205 204 209
0.0168334646199285 0.0797866716739578 -0.5046556107635517 204 204 208
0.016656621393281865 0.08051389248069298 -0.5061384334903269 189 189 193
0.01635087828561815 0.08156255574156827 -0.5074471403183549 159 157 158
0.01629529364293353 0.08198724134639851 -0.5090928661198445 109 107 104
0.016527393682673308 0.08169495933129613 -0.5111298531515446 77 74 69
0.016080777207389627 0.08309453226734144 -0.5122459154356905 72 68 64
0.01568927757715615 0.08435635474871135 -0.5134346029293331 56 51 47
0.015579873121213249 0.08491527032831174 -0.5150077350165505 50 46 40
0.015198160551889613 0.08615220487868036 -0.5162067459219948 33 28 22
0.015469782223442224 0.08576265594336609 -0.5183048757767937 26 21 16
0.015232708598030494 0.08663947417986227 -0.5197027228351082 54 50 42
0.01516666386693993 0.08709071991645896 -0.5213371790974515 61 58 46
0.014918210999138346 0.0879956864997052 -0.5227182807882781 42 38 26
0.014952392790302638 0.08819786070334225 -0.5244933372629328 31 25 15
0.014275043435905684 0.09016865896434507 -0.525272694287671 33 25 18
0.01401218912041911 0.0911088344815907 -0.5266301049883171 34 25 20
0.013682542302413114 0.09221473359854677 -0.5278922444334414 44 37 30
0.013807653601785399 0.09219115994234055 -0.5297961811631363 51 44 35
0.01363890433232727 0.09289744341117047 -0.5312854067523288 41 33 23
0.01391482689122233 0.09278809274904425 -0.5351393377635844 72 63 54
0.013970036535007908 0.0929392769708486 -0.5369515082389505 67 58 49
0.014377358813025664 0.09221774098713559 -0.5392715262028656 53 44 35
0.01480203516905948 0.0914540099489995 -0.5416214910747873 44 36 25
0.014353059537421001 0.0928559277135924 -0.5427130827958763 44 37 27
0.014992652790072333 0.09156086124019354 -0.5453810897147153 42 35 25
0.015053294116459656 0.09170067224389562 -0.5472136622763556 38 32 24
0.014952779320354794 0.09223975398446232 -0.5488128459159042 37 32 26
0.014495160256085857 0.09366269774614569 -0.5498895834178807 44 39 33
0.01478237155325705 0.0932423512017948 -0.5520573680117054 48 44 35
0.015063199360425026 0.09283843840619872 -0.5542196277731759 52 44 35
0.015399516422451683 0.09229795572349994 -0.5564677036136616 42 34 26
0.015588343112069813 0.09212277541985134 -0.5585015143037279 46 38 31
0.015835910210216596 0.09180293785645333 -0.5606256538925803 56 49 43
0.016215506352546934 0.09115752262744037 -0.5629502009129999 41 36 30
0.016737711760554635 0.09016069782820355 -0.5654927697455069 24 20 15
0.01791962970583561 0.08753610388537539 -0.5690310177020278 18 15 10
0.01845956141918343 0.08649802785541072 -0.5716152972434658 16 12 9
0.019451799601329374 0.08434495842828407 -0.5748883840395977 16 12 9
0.01990504095004407 0.08352312108044155 -0.5773558985397104 34 30 27
0.019887547514711484 0.08386297316294722 -0.5791141683666232 40 35 32
0.020342069217331803 0.08303943225541871 -0.5815923709705904 32 27 23
0.020498894402285295 0.08295044028465248 -0.5836213621136273 25 20 16
0.019909781123428432 0.08499723777492199 -0.5863006564671857 25 21 15
0.020849735540264303 0.08298077439897855 -0.5895405588195853 32 28 20
0.020745680535685547 0.08353565404391597 -0.5911768843396782 47 42 31
0.01993690790217497 0.08582464118315503 -0.5917212932623124 57 51 39
0.018679728572885176 0.08921564573961377 -0.5915626071306677 46 39 29
0.017430845944494514 0.09258456613290578 -0.591406740501322 31 23 12
0.01648774508453896 0.09520009817110697 -0.5917189654428053 48 40 28
0.015357311294743624 0.09827480835953109 -0.5917301360735476 62 52 41
0.014616998991025684 0.10038956260731677 -0.5923459015708037 80 70 60
0.014240179335627618 0.10161065089781587 -0.5935295982900878 53 43 33
0.013897049809308493 0.10274866803211738 -0.5947644765971154 39 29 20
0.01397414032533996 0.1028549350865613 -0.5966642388823367 42 34 23
0.013617074311934978 0.10402686777845865 -0.5978752488918604 34 25 16
0.014078673375677881 0.1031902746249096 -0.6003906628043019 38 29 20
0.015167072920429417 0.10081753047968645 -0.603914709515188 69 60 46
0.014983056774648756 0.1015659924579374 -0.6054080172491487 74 63 47
0.014758191709759325 0.10241450646418912 -0.6068352324646435 67 56 39
0.014874835872725697 0.10242621376470223 -0.6088129454726888 71 60 46
0.014856722147745288 0.10276837259149524 -0.6105749484752561 74 63 50
0.014719790395260023 0.1034016461122729 -0.6121452570616059 59 48 36
0.014909844919207962 0.10323457946691256 -0.6142479505707246 58 47 34
0.014863119931012369 0.10364740535570224 -0.615967204014223 49 39 26
0.014872952930698832 0.10392203581123355 -0.6177799706269698 40 31 17
0.014914041499743652 0.1041204750410272 -0.6196454953019427 45 36 22
0.015127865073768215 0.10389693483746248 -0.621797139764253 58 49 36
0.015649637100692938 0.10292137539366111 -0.6244605396567009 53 43 33
0.015778755117872592 0.10290612267509303 -0.626480044562573 52 42 31
0.015640152828908155 0.10354514607787829 -0.6280576248616447 36 26 13
0.015511077890298201 0.10416092142154493 -0.6296511462693759 60 50 36
0.01548577539149397 0.10452344227568139 -0.6314180867202014 63 53 39
0.014963100647579212 0.10609972748032098 -0.6323534700241866 62 52 38
0.014377416506102442 0.1078291251616375 -0.6331795813148264 64 54 40
0.013690562355526778 0.10980454047302901 -0.6338312949720825 48 39 26
0.015219091711151309 0.10637877711589139 -0.6382178372091161 50 39 26
0.015463019637279439 0.10608602996512562 -0.6404454282810653 69 58 43
0.015385137261383887 0.10657785344004572 -0.6421304101566262 76 65 49
0.015508236833343486 0.10658032725582481 -0.6441581356962319 69 57 41
0.015444077523284486 0.10703911313522049 -0.6458687773452614 53 42 24
0.015500932706116563 0.10720350619095062 -0.6477873096723117 57 45 28
0.01541282703768121 0.10772090700531611 -0.649458982154339 50 37 21
0.015290378846199194 0.10832192920304659 -0.6510721153030542 66 53 37
0.015024642247015559 0.10927138853593094 -0.6524382416677019 62 49 33
0.0144033673081903 0.11108485866602788 -0.6531881159411885 69 57 41
0.014255363324168553 0.11174759602685788 -0.6547546122863679 69 56 40
0.014179972164795981 0.11223394841342652 -0.6564474187065872 71 58 43
0.013900248922537238 0.11321659799386172 -0.6577844937000357 47 37 25
0.013802077097455505 0.11375831711418768 -0.6594378527130146 42 33 23
0.01411238137988717 0.11330883956058316 -0.6618080072357669 50 39 29
0.014336373496313642 0.11306947005172266 -0.6640307031728463 64 52 37
0.0143355847386617 0.11337582018617123 -0.665860592948624 80 66 46
0.013968682593653296 0.11457001013344659 -0.6670446528789367 82 69 48
0.013833497271684335 0.11520226139873951 -0.6686373688003557 61 48 31
0.01404985413794109 0.11498280145965761 -0.6708549800258423 51 40 24
0.013937894957601657 0.11555911349890186 -0.672490983778286 46 38 22
0.01411222361697071 0.11544230207340969 -0.674638838164038 42 35 23
0.014155152766066666 0.11564404805245754 -0.6765543498955906 44 37 28
0.014271023086309717 0.11566959942810481 -0.6786026857495978 42 37 26
0.014129989051133614 0.11631699470447165 -0.6801908630087583 38 33 23
0.014095967240105908 0.11670563310538123 -0.6819723356896306 30 26 18
0.014572152826443537 0.11586111253240475 -0.6846785732294499 23 20 14
0.01480558034457468 0.11560421289244555 -0.6869501018252034 26 21 18
0.015040897550321848 0.11534335208359234 -0.6892287017668277 28 22 18
0.015481786986411415 0.11458665052435374 -0.6918860568696328 52 48 40
0.01587400072537075 0.11394839390228276 -0.6944599798385144 33 29 23
0.015847502617270345 0.11432150318331585 -0.6962710629893935 20 17 12
0.014922995865812083 0.11686132572887509 -0.6964319117192054 15 12 8
0.01397853130761266 0.11944805201197847 -0.6965485631755287 16 12 8
0.013870273054697305 0.12001742703480306 -0.6982033538923869 18 14 11
0.016260790340443095 0.11518586538723721 -0.708228272610344 14 12 9
0.01612288644127633 0.11582904190170606 -0.7098422547290157 13 11 8
0.015998350594228584 0.11644006029579881 -0.7114813819700115 11 10 9
0.015889643701331384 0.11701303112330338 -0.7131504666482102 9 7 8
0.01588022405829751 0.11734724028924134 -0.7150068101004318 8 6 7
0.015654509853716317 0.1182017797567122 -0.7164563856699193 8 6 6
0.015493430057868178 0.11890082853403983 -0.718027498727079 19 17 18
