ply
format ascii 1.0
element vertex 861
property float x
property float y
property float z
property float nx
property float ny
property float nz
property uchar diffuse_red
property uchar diffuse_green
property uchar diffuse_blue
property uchar class
property uchar detection
end_header
-0.1221 0.0495 -0.3607 -0.206 0.970 -0.130 37 28 22 0 0
-0.1221 0.0492 -0.3624 -0.148 0.987 -0.061 53 42 33 0 0
-0.1215 0.0668 -0.3945 -0.205 0.710 0.674 61 44 21 0 0
-0.1218 0.0441 -0.4686 -0.086 0.897 -0.433 33 30 28 0 0
-0.1218 0.0436 -0.4706 -0.252 0.948 -0.196 29 26 23 0 0
-0.1218 0.0432 -0.4726 -0.466 0.823 -0.324 27 24 21 0 0
-0.1218 0.0416 -0.4861 0.028 0.323 0.946 14 10 9 0 0
-0.1218 0.0426 -0.4875 0.290 0.608 0.739 15 12 10 0 0
-0.1182 0.1646 -0.5314 0.253 0.967 -0.014 165 146 99 0 0
-0.1185 0.1532 -0.5540 -0.152 0.881 -0.448 112 96 60 0 0
-0.1207 0.0581 -0.6501 -0.127 0.779 0.614 42 35 29 0 0
-0.1207 0.0589 -0.6516 -0.076 0.790 0.609 52 44 39 0 0
-0.1207 0.0600 -0.6529 -0.095 0.578 0.810 41 33 29 0 0
-0.1206 0.0615 -0.6540 -0.095 0.578 0.810 77 69 66 0 0
-0.1184 0.1430 -0.6554 -0.335 0.737 0.587 221 201 155 0 0
-0.1179 0.1539 -0.6828 0.038 0.998 0.055 150 129 92 0 0
-0.1179 0.1540 -0.6847 0.038 0.998 0.055 133 114 80 0 0
-0.1179 0.1541 -0.6866 0.038 0.998 0.055 117 101 71 0 0
-0.1179 0.1542 -0.6885 0.038 0.998 0.055 112 95 65 0 0
-0.1179 0.1558 -0.6893 -0.000 0.899 0.438 89 75 45 0 0
-0.1178 0.1577 -0.6898 0.059 0.654 0.754 60 48 27 0 0
-0.1180 0.1478 -0.7091 -0.369 0.909 0.193 71 57 42 0 0
-0.1180 0.1490 -0.7103 -0.452 0.793 0.408 131 116 95 0 0
-0.1183 0.1267 -0.7792 0.058 0.895 0.442 60 47 30 0 0
-0.1177 0.1455 -0.7978 -0.175 0.789 0.590 77 62 38 0 0
-0.1177 0.1465 -0.7990 -0.125 0.847 0.516 67 53 31 0 0
-0.1176 0.1505 -0.8042 0.415 0.661 0.625 86 71 50 0 0
-0.1176 0.1479 -0.8214 -0.293 0.937 0.189 83 69 42 0 0
-0.1221 0.0046 -0.2806 -0.733 0.601 0.319 114 106 90 0 0
-0.1220 0.0080 -0.2813 -0.222 0.780 0.586 83 76 61 0 0
-0.1206 0.0516 -0.3319 -0.372 0.697 0.613 94 80 55 0 0
-0.1205 0.0495 -0.3623 -0.148 0.987 -0.061 41 30 20 0 0
-0.1202 0.0457 -0.4642 0.197 0.951 -0.237 34 30 27 0 0
-0.1201 0.0460 -0.4659 -0.114 0.947 -0.300 36 32 29 0 0
-0.1202 0.0448 -0.4700 -0.565 0.748 -0.348 31 27 24 0 0
-0.1202 0.0415 -0.4861 0.028 0.323 0.946 15 11 10 0 0
-0.1169 0.1549 -0.5512 -0.133 0.921 -0.366 102 85 51 0 0
-0.1169 0.1536 -0.5537 -0.101 0.945 -0.312 113 97 59 0 0
-0.1192 0.0548 -0.6220 0.456 0.867 0.201 26 16 11 0 0
-0.1192 0.0540 -0.6405 0.087 0.947 0.309 27 20 14 0 0
-0.1191 0.0553 -0.6478 -0.057 0.935 0.351 44 37 30 0 0
-0.1162 0.1564 -0.6888 0.059 0.654 0.754 97 84 53 0 0
-0.1162 0.1576 -0.6899 0.059 0.654 0.754 62 51 28 0 0
-0.1163 0.1488 -0.7083 -0.422 0.815 0.397 52 43 27 0 0
-0.1166 0.1256 -0.7801 -0.072 0.806 0.587 80 66 49 0 0
-0.1164 0.1339 -0.7861 0.046 0.860 0.508 111 100 81 0 0
-0.1152 0.1691 -0.8351 -0.161 0.926 0.342 143 124 86 0 0
-0.1206 0.0035 -0.2679 -0.015 0.996 0.093 178 178 178 0 0
-0.1206 0.0013 -0.2700 -0.187 0.737 0.649 178 178 177 0 0
-0.1205 0.0041 -0.2774 -0.388 0.748 0.538 120 113 102 0 0
-0.1204 0.0079 -0.2813 -0.564 0.650 0.509 87 79 66 0 0
-0.1184 0.0645 -0.3920 0.083 0.962 0.261 51 36 19 0 0
-0.1184 0.0649 -0.3935 0.083 0.962 0.261 53 38 19 0 0
-0.1183 0.0659 -0.3965 0.171 0.922 0.348 58 42 22 0 0
-0.1183 0.0656 -0.4068 0.092 0.953 0.289 70 50 26 0 0
-0.1185 0.0457 -0.4588 -0.188 0.867 -0.462 19 18 16 0 0
-0.1186 0.0411 -0.4699 -0.529 0.837 -0.141 38 34 31 0 0
-0.1163 0.1329 -0.4621 0.248 0.954 -0.166 64 57 52 0 0
-0.1163 0.1329 -0.4638 0.432 0.629 0.646 87 79 71 0 0
-0.1163 0.1345 -0.4647 0.215 0.198 0.956 89 81 68 0 0
-0.1161 0.1396 -0.4741 0.514 0.857 0.039 86 70 51 0 0
-0.1161 0.1403 -0.4754 0.635 0.717 0.288 84 68 49 0 0
-0.1156 0.1588 -0.4813 0.026 0.867 0.498 79 63 37 0 0
-0.1155 0.1604 -0.4957 0.153 0.758 0.634 105 90 61 0 0
-0.1153 0.1554 -0.5509 0.191 0.948 -0.253 93 76 42 0 0
-0.1153 0.1549 -0.5530 0.295 0.925 -0.241 113 97 60 0 0
-0.1175 0.0540 -0.6225 0.456 0.867 0.201 33 22 17 0 0
-0.1147 0.1540 -0.6906 -0.340 0.859 0.383 100 87 56 0 0
-0.1146 0.1581 -0.6896 0.329 0.647 0.687 65 54 31 0 0
-0.1143 0.1649 -0.7121 -0.265 0.857 0.443 151 135 104 0 0
-0.1142 0.1664 -0.7150 -0.265 0.857 0.443 100 86 60 0 0
-0.1142 0.1674 -0.7242 -0.451 0.886 0.108 163 143 97 0 0
-0.1142 0.1625 -0.7320 -0.094 0.918 -0.386 132 117 80 0 0
-0.1143 0.1471 -0.7985 0.022 0.956 0.293 67 52 38 0 0
-0.1141 0.1535 -0.8059 -0.353 0.674 0.649 82 72 47 0 0
-0.1133 0.1735 -0.8681 -0.213 0.965 0.155 168 167 168 0 0
-0.1191 -0.0015 -0.2675 -0.366 0.590 0.719 178 178 178 0 0
-0.1191 0.0004 -0.2686 -0.358 0.690 0.629 178 178 178 0 0
-0.1190 0.0016 -0.2699 -0.187 0.737 0.649 179 179 178 0 0
-0.1190 0.0019 -0.2715 -0.259 0.871 0.417 179 179 177 0 0
-0.1190 0.0025 -0.2729 -0.407 0.738 0.539 175 174 171 0 0
-0.1167 0.0658 -0.4050 -0.015 0.973 0.229 67 46 25 0 0
-0.1167 0.0665 -0.4081 0.065 0.990 0.128 72 52 29 0 0
-0.1166 0.0664 -0.4201 0.244 0.960 0.140 41 27 16 0 0
-0.1146 0.1390 -0.4743 0.403 0.915 0.029 92 80 61 0 0
-0.1146 0.1388 -0.4762 0.470 0.883 -0.010 87 75 56 0 0
-0.1138 0.1590 -0.5381 0.014 0.998 -0.053 161 143 97 0 0
-0.1138 0.1573 -0.5444 0.008 0.943 -0.334 160 141 97 0 0
-0.1138 0.1564 -0.5467 0.177 0.967 -0.181 158 140 98 0 0
-0.1138 0.1559 -0.5487 0.292 0.923 -0.251 116 97 64 0 0
-0.1138 0.1552 -0.5510 0.256 0.952 -0.170 99 82 51 0 0
-0.1138 0.1545 -0.5531 0.260 0.952 -0.163 121 105 71 0 0
-0.1158 0.0526 -0.6234 -0.181 0.973 0.144 35 24 17 0 0
-0.1130 0.1539 -0.6887 -0.120 0.927 0.356 111 95 63 0 0
-0.1130 0.1545 -0.6902 -0.120 0.927 0.356 101 87 57 0 0
-0.1130 0.1555 -0.6914 0.326 0.930 0.172 76 65 43 0 0
-0.1126 0.1678 -0.7158 0.070 0.945 0.319 87 75 56 0 0
-0.1127 0.1440 -0.7905 -0.137 0.823 0.551 76 58 36 0 0
-0.1168 0.0210 -0.2939 0.097 0.964 0.248 26 20 18 0 0
-0.1152 0.0647 -0.3986 0.065 0.995 0.069 52 36 13 0 0
-0.1131 0.1383 -0.4781 0.668 0.700 0.254 89 78 57 0 0
-0.1122 0.1587 -0.5382 0.194 0.981 0.005 160 142 97 0 0
-0.1122 0.1563 -0.5467 0.219 0.951 -0.219 139 124 87 0 0
-0.1122 0.1554 -0.5491 0.292 0.923 -0.251 105 87 57 0 0
-0.1122 0.1547 -0.5512 0.302 0.943 -0.140 95 78 47 0 0
-0.1122 0.1540 -0.5534 0.229 0.927 -0.298 116 101 66 0 0
-0.1135 0.0741 -0.6500 -0.021 0.347 0.938 64 59 55 0 0
-0.1121 0.1372 -0.6478 -0.022 0.833 0.553 133 113 80 0 0
-0.1117 0.1486 -0.6554 -0.474 0.838 0.268 163 145 114 0 0
-0.1114 0.1529 -0.6934 0.383 0.906 -0.181 75 62 42 0 0
-0.1110 0.1656 -0.7116 0.182 0.833 0.523 142 125 90 0 0
-0.1112 0.1443 -0.7587 -0.156 0.797 -0.584 50 40 28 0 0
-0.1102 0.1689 -0.8267 -0.180 0.965 0.190 121 106 69 0 0
-0.1154 0.0183 -0.2849 -0.322 0.891 0.320 82 67 46 0 0
-0.1138 0.0633 -0.3839 -0.007 0.825 0.566 59 41 21 0 0
-0.1138 0.0635 -0.3855 0.162 0.853 0.496 62 44 23 0 0
-0.1137 0.0649 -0.3867 0.065 0.984 0.167 63 45 23 0 0
-0.1137 0.0630 -0.3958 0.369 0.922 0.115 71 52 29 0 0
-0.1136 0.0644 -0.4004 0.206 0.941 0.269 70 52 28 0 0
-0.1136 0.0647 -0.4020 0.173 0.976 0.133 67 48 24 0 0
-0.1136 0.0649 -0.4036 0.173 0.976 0.133 63 45 21 0 0
-0.1135 0.0651 -0.4189 0.081 0.997 0.006 68 52 30 0 0
-0.1134 0.0655 -0.4291 0.552 0.697 0.458 64 50 31 0 0
-0.1136 0.0523 -0.4470 -0.064 0.830 -0.555 16 12 11 0 0
-0.1134 0.0494 -0.4787 -0.258 0.736 0.626 17 13 12 0 0
-0.1133 0.0568 -0.4807 -0.231 0.742 0.629 24 20 19 0 0
-0.1132 0.0578 -0.4820 -0.351 0.713 0.607 25 21 20 0 0
-0.1123 0.0541 -0.6364 -0.073 0.862 0.501 25 18 12 0 0
-0.1118 0.0743 -0.6499 0.076 0.258 0.963 51 46 42 0 0
-0.1104 0.1372 -0.6478 -0.022 0.833 0.553 112 91 61 0 0
-0.1100 0.1538 -0.6633 -0.156 0.777 0.610 80 64 35 0 0
-0.1099 0.1547 -0.6763 -0.184 0.983 -0.002 161 137 93 0 0
-0.1098 0.1542 -0.6924 -0.067 0.997 -0.025 72 59 39 0 0
-0.1097 0.1549 -0.7078 -0.287 0.758 0.586 99 86 61 0 0
-0.1093 0.1678 -0.7238 -0.074 0.938 0.339 161 144 93 0 0
-0.1095 0.1457 -0.7576 -0.164 0.804 -0.571 44 34 24 0 0
-0.1091 0.1468 -0.8203 0.088 0.504 0.859 81 70 39 0 0
-0.1090 0.1494 -0.8201 -0.015 0.834 0.552 104 93 60 0 0
-0.1086 0.1680 -0.8275 -0.324 0.882 0.342 128 112 73 0 0
-0.1126 0.0597 -0.3356 0.150 0.871 0.467 91 76 52 0 0
-0.1121 0.0641 -0.4005 0.206 0.941 0.269 71 52 29 0 0
-0.1120 0.0528 -0.4467 -0.120 0.970 -0.209 15 11 10 0 0
-0.1119 0.0521 -0.4523 -0.360 0.928 -0.090 23 20 19 0 0
-0.1118 0.0489 -0.4771 -0.337 0.712 0.617 16 12 11 0 0
-0.1092 0.1532 -0.5503 0.187 0.931 -0.313 127 108 74 0 0
-0.1105 0.0552 -0.6377 -0.021 0.901 0.434 30 23 16 0 0
-0.1083 0.1544 -0.6746 -0.171 0.969 0.177 140 118 79 0 0
-0.1082 0.1550 -0.6761 -0.184 0.983 -0.002 153 131 89 0 0
-0.1081 0.1547 -0.6920 -0.126 0.988 0.085 77 64 42 0 0
-0.1080 0.1552 -0.7075 -0.287 0.758 0.586 88 75 50 0 0
-0.1076 0.1677 -0.7239 0.203 0.973 0.111 145 127 85 0 0
-0.1077 0.1626 -0.7339 0.140 0.845 -0.515 103 89 55 0 0
-0.1076 0.1442 -0.7882 0.153 0.758 0.635 31 21 8 0 0
-0.1076 0.1453 -0.7894 -0.002 0.754 0.657 34 24 10 0 0
-0.1076 0.1468 -0.7924 0.188 0.889 0.418 29 24 14 0 0
-0.1074 0.1469 -0.8201 -0.241 0.624 0.744 77 66 37 0 0
-0.1110 0.0544 -0.3621 -0.418 0.820 -0.391 47 34 24 0 0
-0.1107 0.0610 -0.3847 0.148 0.974 0.172 62 43 24 0 0
-0.1106 0.0615 -0.3862 0.249 0.929 0.275 61 43 22 0 0
-0.1106 0.0627 -0.3908 0.117 0.961 0.250 64 46 25 0 0
-0.1103 0.0532 -0.4465 0.517 0.810 0.278 15 11 9 0 0
-0.1104 0.0499 -0.4497 0.025 0.988 0.154 16 12 11 0 0
-0.1078 0.1590 -0.5188 0.435 0.880 0.193 139 119 81 0 0
-0.1088 0.0523 -0.6435 -0.112 0.839 0.532 44 37 27 0 0
-0.1084 0.0702 -0.6504 0.014 0.856 0.516 42 35 31 0 0
-0.1066 0.1550 -0.6761 -0.151 0.985 0.088 130 111 72 0 0
-0.1066 0.1553 -0.6778 -0.103 0.991 -0.081 132 114 77 0 0
-0.1065 0.1555 -0.6895 -0.220 0.958 0.182 86 71 41 0 0
-0.1061 0.1601 -0.7359 -0.015 0.867 -0.498 95 81 52 0 0
-0.1061 0.1533 -0.7475 0.013 0.845 -0.534 87 75 49 0 0
-0.1061 0.1506 -0.7516 0.013 0.845 -0.534 59 49 34 0 0
-0.1088 0.0625 -0.4182 0.401 0.896 0.189 71 53 31 0 0
-0.1087 0.0531 -0.4501 0.058 0.851 0.523 16 12 11 0 0
-0.1086 0.0458 -0.4712 -0.121 0.872 0.474 33 29 26 0 0
-0.1082 0.0622 -0.4853 -0.329 0.615 0.717 46 41 34 0 0
-0.1082 0.0637 -0.4864 -0.380 0.677 0.630 44 39 33 0 0
-0.1082 0.0638 -0.4881 -0.396 0.832 0.389 46 39 33 0 0
-0.1069 0.1360 -0.4860 0.219 0.915 -0.338 32 24 16 0 0
-0.1069 0.1352 -0.4882 0.219 0.915 -0.338 53 44 32 0 0
-0.1061 0.1514 -0.5531 0.518 0.761 -0.391 90 73 45 0 0
-0.1067 0.0690 -0.6491 0.286 0.843 0.456 38 31 24 0 0
-0.1067 0.0704 -0.6503 0.163 0.884 0.437 41 34 28 0 0
-0.1055 0.1380 -0.6472 -0.390 0.639 0.663 141 123 93 0 0
-0.1050 0.1553 -0.6739 0.057 0.996 0.073 94 75 44 0 0
-0.1050 0.1559 -0.6754 -0.071 0.997 -0.015 103 85 51 0 0
-0.1050 0.1555 -0.6777 -0.103 0.991 -0.081 122 103 70 0 0
-0.1049 0.1554 -0.6856 -0.110 0.994 0.024 105 87 55 0 0
-0.1049 0.1558 -0.6892 -0.170 0.979 0.109 104 87 60 0 0
-0.1044 0.1533 -0.7475 0.008 0.863 -0.505 101 89 61 0 0
-0.1045 0.1506 -0.7517 -0.006 0.850 -0.527 65 56 39 0 0
-0.1045 0.1469 -0.7567 -0.107 0.788 -0.606 48 38 25 0 0
-0.1037 0.1617 -0.8202 -0.251 0.554 0.793 190 169 121 0 0
-0.1037 0.1631 -0.8211 -0.251 0.554 0.793 232 217 172 0 0
-0.1035 0.1687 -0.8225 -0.082 0.809 0.582 68 65 42 0 0
-0.1033 0.1697 -0.8477 -0.060 0.996 0.059 111 92 59 0 0
-0.1032 0.1717 -0.8589 -0.081 0.957 0.277 115 99 62 0 0
-0.1080 0.0597 -0.3355 0.057 0.874 0.482 84 69 50 0 0
-0.1079 0.0606 -0.3368 -0.078 0.859 0.506 57 42 26 0 0
-0.1073 0.0616 -0.4048 0.090 0.959 0.267 74 59 34 0 0
-0.1071 0.0507 -0.4476 -0.227 0.688 0.690 15 11 9 0 0
-0.1071 0.0515 -0.4490 -0.122 0.772 0.623 17 13 12 0 0
-0.1071 0.0528 -0.4502 0.309 0.779 0.546 17 13 12 0 0
-0.1066 0.0643 -0.4861 -0.380 0.677 0.630 51 46 40 0 0
-0.1065 0.0645 -0.4878 -0.450 0.858 0.248 47 40 34 0 0
-0.1065 0.0650 -0.4894 -0.450 0.858 0.248 44 37 31 0 0
-0.1046 0.1501 -0.5539 0.380 0.782 -0.495 92 75 50 0 0
-0.1054 0.0542 -0.6303 -0.177 0.864 0.472 29 21 16 0 0
-0.1050 0.0691 -0.6511 0.310 0.936 0.167 50 43 35 0 0
-0.1039 0.1379 -0.6492 0.504 0.789 0.351 202 181 146 0 0
-0.1034 0.1559 -0.6734 -0.218 0.930 0.296 91 72 44 0 0
-0.1034 0.1560 -0.6753 -0.071 0.997 -0.015 120 101 68 0 0
-0.1033 0.1552 -0.6896 0.042 0.986 0.161 103 87 58 0 0
-0.1032 0.1550 -0.6917 -0.046 0.998 -0.037 87 74 51 0 0
-0.1029 0.1651 -0.7179 -0.203 0.919 0.339 97 81 49 0 0
-0.1028 0.1663 -0.7190 -0.194 0.953 0.232 171 152 105 0 0
-0.1081 -0.0075 -0.2606 0.247 0.967 0.058 179 179 178 0 0
-0.1082 -0.0142 -0.2671 -0.399 0.703 0.589 147 132 112 0 0
-0.1071 0.0408 -0.2993 -0.261 0.721 0.641 140 122 85 0 0
-0.1070 0.0421 -0.3006 -0.178 0.975 0.134 154 136 100 0 0
-0.1067 0.0525 -0.3200 -0.113 0.836 0.537 80 68 42 0 0
-0.1063 0.0602 -0.3484 -0.190 0.971 0.148 73 56 36 0 0
-0.1062 0.0522 -0.3694 0.180 0.823 0.539 59 46 29 0 0
-0.1058 0.0600 -0.4037 -0.113 0.920 0.374 94 79 53 0 0
-0.1057 0.0615 -0.4048 -0.058 0.966 0.253 71 56 34 0 0
-0.1049 0.0651 -0.4875 -0.329 0.876 0.353 49 42 36 0 0
-0.1049 0.0658 -0.4890 -0.329 0.876 0.353 45 39 33 0 0
-0.1048 0.0675 -0.4900 -0.368 0.904 0.219 46 41 35 0 0
-0.1048 0.0691 -0.4910 0.292 0.790 0.538 58 53 47 0 0
-0.1047 0.0742 -0.4975 0.246 0.956 0.161 16 12 11 0 0
-0.1038 0.1334 -0.4995 0.917 0.075 0.391 69 61 50 0 0
-0.1038 0.0504 -0.6266 -0.140 0.920 0.367 33 24 17 0 0
-0.1036 0.0578 -0.6361 -0.222 0.962 0.158 44 37 28 0 0
-0.1033 0.0698 -0.6486 -0.416 0.614 0.671 58 51 43 0 0
-0.1033 0.0706 -0.6501 -0.625 0.658 0.420 66 59 51 0 0
-0.1024 0.1291 -0.6493 -0.226 0.925 0.306 118 102 74 0 0
-0.1017 0.1562 -0.6772 0.117 0.981 0.154 125 107 70 0 0
-0.1016 0.1547 -0.6920 0.274 0.961 -0.049 72 59 34 0 0
-0.1015 0.1534 -0.7069 -0.124 0.958 0.258 61 50 33 0 0
-0.1015 0.1549 -0.7078 0.153 0.857 0.492 73 60 42 0 0
-0.1012 0.1661 -0.7172 0.045 0.982 0.184 119 104 74 0 0
-0.1012 0.1663 -0.7190 0.062 0.990 0.128 153 136 95 0 0
-0.1011 0.1580 -0.7396 0.098 0.869 -0.485 84 69 40 0 0
-0.1011 0.1560 -0.7432 0.134 0.864 -0.486 107 88 55 0 0
-0.1008 0.1498 -0.7899 -0.150 0.852 0.501 92 78 42 0 0
-0.1006 0.1549 -0.7984 0.054 0.921 0.387 73 59 33 0 0
-0.1006 0.1555 -0.8000 0.021 0.967 0.252 94 84 61 0 0
-0.1066 -0.0069 -0.2572 0.389 0.834 0.392 178 180 179 0 0
-0.1056 0.0397 -0.2948 -0.091 0.586 0.805 175 153 115 0 0
-0.1055 0.0438 -0.3000 -0.419 0.903 0.093 132 115 84 0 0
-0.1042 0.0581 -0.4044 0.225 0.921 0.319 88 73 52 0 0
-0.1036 0.0505 -0.4726 -0.531 0.813 0.240 27 25 22 0 0
-0.1033 0.0649 -0.4858 -0.072 0.965 0.251 56 49 44 0 0
-0.1033 0.0653 -0.4874 -0.286 0.948 0.141 46 39 35 0 0
-0.1032 0.0665 -0.4886 -0.450 0.858 0.248 37 32 28 0 0
-0.1032 0.0705 -0.4921 0.227 0.700 0.677 82 75 69 0 0
-0.1015 0.1534 -0.5430 0.305 0.951 -0.051 155 137 98 0 0
-0.1016 0.0712 -0.6477 -0.606 0.494 0.624 44 37 29 0 0
-0.1015 0.0728 -0.6487 -0.597 0.542 0.591 50 43 35 0 0
-0.1009 0.1228 -0.6457 0.033 0.585 0.810 73 60 42 0 0
-0.1008 0.1294 -0.6491 -0.226 0.925 0.306 147 131 98 0 0
-0.1002 0.1567 -0.6729 0.282 0.891 0.355 109 92 60 0 0
-0.0995 0.1556 -0.7435 0.098 0.869 -0.485 114 98 67 0 0
-0.0995 0.1502 -0.7520 0.160 0.898 -0.409 66 58 38 0 0
-0.0995 0.1472 -0.7564 0.078 0.819 -0.568 50 43 26 0 0
-0.0991 0.1500 -0.7919 -0.278 0.890 0.360 91 76 48 0 0
-0.0989 0.1548 -0.7984 0.054 0.921 0.387 73 57 32 0 0
-0.0989 0.1559 -0.8017 0.219 0.917 0.333 94 86 66 0 0
-0.0983 0.1688 -0.8419 -0.048 0.814 0.579 178 158 116 0 0
-0.0983 0.1700 -0.8430 -0.156 0.715 0.682 118 102 67 0 0
-0.0979 0.1770 -0.8715 0.305 0.502 0.810 185 187 184 0 0
-0.1046 0.0128 -0.2668 -0.519 0.829 0.207 180 156 113 0 0
-0.1044 0.0204 -0.2792 -0.005 0.884 0.468 45 34 30 0 0
-0.1038 0.0458 -0.3026 0.024 0.988 0.150 109 89 60 0 0
-0.1033 0.0623 -0.3378 -0.177 0.846 0.503 92 81 59 0 0
-0.1031 0.0631 -0.3555 -0.029 0.991 -0.130 74 60 35 0 0
-0.1029 0.0607 -0.3780 -0.240 0.882 0.405 92 73 49 0 0
-0.1016 0.0677 -0.4862 -0.168 0.970 0.176 35 28 25 0 0
-0.1016 0.0691 -0.4909 -0.035 0.699 0.714 73 68 62 0 0
-0.1015 0.0700 -0.4923 0.027 0.734 0.679 93 87 81 0 0
-0.1015 0.0700 -0.4941 -0.003 0.829 0.559 77 70 63 0 0
-0.1014 0.0740 -0.4994 -0.204 0.888 0.411 15 11 10 0 0
-0.1007 0.1310 -0.5042 0.708 0.658 0.254 56 49 40 0 0
-0.0999 0.1511 -0.5496 0.192 0.901 -0.390 92 77 47 0 0
-0.0999 0.1419 -0.5623 0.033 0.842 -0.539 103 92 68 0 0
-0.1002 0.0563 -0.6349 0.131 0.770 0.625 40 31 24 0 0
-0.0999 0.0679 -0.6457 -0.077 0.848 0.525 53 46 38 0 0
-0.0999 0.0731 -0.6465 -0.663 0.390 0.639 43 36 28 0 0
-0.0978 0.1497 -0.7524 0.118 0.896 -0.428 55 47 26 0 0
-0.0978 0.1469 -0.7566 0.111 0.825 -0.554 52 45 30 0 0
-0.0970 0.1650 -0.8109 0.009 0.970 0.242 47 37 17 0 0
-0.0967 0.1729 -0.8318 -0.073 0.987 0.140 62 57 27 0 0
-0.0966 0.1733 -0.8335 -0.205 0.936 0.286 103 91 53 0 0
-0.1032 0.0049 -0.2655 -0.593 0.409 0.694 149 129 100 0 0
-0.1025 0.0365 -0.2924 0.024 0.766 0.643 137 111 76 0 0
-0.1017 0.0633 -0.3391 -0.012 0.963 0.270 69 54 31 0 0
-0.1015 0.0634 -0.3554 -0.116 0.985 -0.128 85 71 45 0 0
-0.1010 0.0576 -0.4045 0.247 0.969 -0.018 80 65 45 0 0
-0.0999 0.0700 -0.4923 -0.363 0.751 0.552 97 90 84 0 0
-0.0999 0.0705 -0.4939 -0.300 0.812 0.501 84 77 71 0 0
-0.0999 0.0716 -0.4951 -0.272 0.875 0.401 50 44 38 0 0
-0.0998 0.0749 -0.5007 -0.204 0.888 0.411 28 24 22 0 0
-0.0997 0.0754 -0.5059 0.039 0.951 0.307 32 28 25 0 0
-0.0991 0.1246 -0.5093 0.833 0.011 0.554 40 34 28 0 0
-0.0985 0.0561 -0.6351 0.131 0.770 0.625 42 35 27 0 0
-0.0984 0.0598 -0.6388 -0.334 0.858 0.390 59 55 46 0 0
-0.0984 0.0605 -0.6403 -0.334 0.858 0.390 60 56 47 0 0
-0.0981 0.0743 -0.6457 -0.434 0.291 0.852 45 38 30 0 0
-0.0981 0.0764 -0.6464 -0.434 0.291 0.852 52 45 37 0 0
-0.0977 0.1147 -0.6433 0.261 0.443 0.858 70 60 49 0 0
-0.0968 0.1551 -0.6897 0.430 0.866 0.253 87 70 45 0 0
-0.0966 0.1480 -0.7109 0.292 0.513 0.807 37 26 13 0 0
-0.0962 0.1534 -0.7453 0.336 0.885 -0.323 118 102 75 0 0
-0.0961 0.1466 -0.7569 0.080 0.833 -0.547 47 40 24 0 0
-0.0950 0.1716 -0.8286 0.099 0.979 -0.176 111 102 67 0 0
-0.0949 0.1706 -0.8381 -0.183 0.865 0.468 202 188 140 0 0
-0.0949 0.1713 -0.8396 -0.298 0.796 0.527 185 172 132 0 0
-0.0947 0.1736 -0.8528 -0.238 0.886 0.398 145 127 80 0 0
-0.0947 0.1743 -0.8544 -0.238 0.886 0.398 128 115 73 0 0
-0.0947 0.1746 -0.8562 -0.029 0.971 0.238 106 99 70 0 0
-0.1013 0.0200 -0.2761 -0.172 0.958 0.229 44 33 24 0 0
-0.1007 0.0447 -0.3045 -0.051 0.995 0.086 70 51 33 0 0
-0.1001 0.0630 -0.3473 0.091 0.950 0.300 103 89 58 0 0
-0.0983 0.0697 -0.4906 -0.283 0.771 0.571 70 65 60 0 0
-0.0983 0.0711 -0.4935 -0.377 0.826 0.419 69 62 57 0 0
-0.0982 0.0720 -0.4949 -0.272 0.875 0.401 38 32 26 0 0
-0.0982 0.0745 -0.4991 -0.278 0.756 0.592 32 28 26 0 0
-0.0981 0.0752 -0.5024 -0.302 0.941 0.153 35 31 28 0 0
-0.0981 0.0749 -0.5080 -0.204 0.896 0.394 23 19 16 0 0
-0.0980 0.0756 -0.5095 -0.204 0.896 0.394 34 30 28 0 0
-0.0966 0.0633 -0.6406 -0.409 0.717 0.564 73 67 60 0 0
-0.0966 0.0658 -0.6431 -0.462 0.877 0.134 45 39 33 0 0
-0.0964 0.0810 -0.6454 -0.047 0.350 0.936 59 52 44 0 0
-0.0962 0.1014 -0.6441 -0.354 0.490 0.797 67 58 50 0 0
-0.0961 0.1144 -0.6435 -0.116 0.333 0.936 70 60 49 0 0
-0.0951 0.1547 -0.6900 0.337 0.909 0.243 112 95 70 0 0
-0.0948 0.1694 -0.7106 -0.294 0.763 0.576 173 155 117 0 0
-0.0947 0.1701 -0.7121 -0.113 0.894 0.434 130 113 80 0 0
-0.0946 0.1714 -0.7190 0.093 0.991 0.099 86 76 58 0 0
-0.0945 0.1519 -0.7465 0.128 0.903 -0.410 116 101 75 0 0
-0.0945 0.1504 -0.7498 0.047 0.921 -0.387 117 104 76 0 0
-0.0934 0.1708 -0.8250 0.179 0.957 0.228 106 87 54 0 0
-0.0933 0.1705 -0.8361 -0.019 0.982 0.190 194 178 126 0 0
-0.0930 0.1746 -0.8541 -0.238 0.886 0.398 123 111 71 0 0
-0.0930 0.1750 -0.8558 -0.208 0.955 0.214 102 97 71 0 0
-0.0985 0.0632 -0.3472 -0.143 0.831 0.538 53 40 19 0 0
-0.0967 0.0710 -0.4917 -0.325 0.766 0.555 68 64 61 0 0
-0.0966 0.0742 -0.4974 -0.344 0.834 0.431 43 38 31 0 0
-0.0965 0.0763 -0.5018 -0.289 0.903 0.318 33 29 26 0 0
-0.0964 0.0761 -0.5110 -0.232 0.932 0.278 31 26 23 0 0
-0.0964 0.0780 -0.5118 0.111 0.913 0.393 24 20 18 0 0
-0.0955 0.1511 -0.5336 0.182 0.983 -0.026 146 130 90 0 0
-0.0950 0.0590 -0.6352 -0.020 0.975 0.223 63 56 48 0 0
-0.0949 0.0628 -0.6389 -0.331 0.742 0.583 68 61 53 0 0
-0.0945 0.1040 -0.6425 0.149 0.612 0.777 67 59 49 0 0
-0.0935 0.1546 -0.6881 0.184 0.981 0.068 116 99 70 0 0
-0.0935 0.1548 -0.6899 0.146 0.894 0.424 113 97 68 0 0
-0.0934 0.1465 -0.7080 -0.259 0.806 0.533 21 13 8 0 0
-0.0918 0.1714 -0.8159 -0.061 0.924 0.378 73 52 33 0 0
-0.0913 0.1739 -0.8525 -0.023 0.961 0.277 148 130 84 0 0
-0.0913 0.1743 -0.8543 0.021 0.920 0.392 133 121 79 0 0
-0.0913 0.1746 -0.8562 0.081 0.975 0.209 103 96 70 0 0
-0.0912 0.1717 -0.8678 0.110 0.979 -0.172 121 120 111 0 0
-0.0981 0.0207 -0.2790 -0.044 0.934 0.356 71 60 46 0 0
-0.0970 0.0629 -0.3440 -0.132 0.965 0.225 70 57 39 0 0
-0.0970 0.0632 -0.3455 -0.132 0.965 0.225 58 45 27 0 0
-0.0970 0.0636 -0.3470 -0.239 0.893 0.382 41 27 14 0 0
-0.0969 0.0646 -0.3500 -0.131 0.850 0.510 53 42 33 0 0
-0.0968 0.0647 -0.3549 -0.017 0.984 -0.179 69 56 39 0 0
-0.0966 0.0579 -0.3739 0.184 0.983 0.009 36 19 7 0 0
-0.0960 0.0550 -0.4280 0.017 0.996 -0.085 64 50 33 0 0
-0.0957 0.0552 -0.4454 0.004 0.892 0.452 29 24 20 0 0
-0.0949 0.0777 -0.5011 -0.439 0.710 0.551 31 27 24 0 0
-0.0947 0.0785 -0.5134 -0.418 0.860 0.292 13 11 10 0 0
-0.0933 0.0588 -0.6353 -0.286 0.699 0.655 60 53 45 0 0
-0.0923 0.1513 -0.6592 -0.068 0.880 0.470 160 142 104 0 0
-0.0920 0.1546 -0.6821 -0.020 0.993 -0.115 128 110 77 0 0
-0.0917 0.1468 -0.7078 -0.174 0.881 0.439 20 11 8 0 0
-0.0917 0.1475 -0.7092 -0.147 0.738 0.659 38 28 18 0 0
-0.0909 0.1336 -0.7757 -0.144 0.957 -0.253 17 12 8 0 0
-0.0907 0.1409 -0.7888 0.014 0.601 0.799 59 46 30 0 0
-0.0900 0.1710 -0.8270 0.494 0.817 0.297 124 109 73 0 0
-0.0897 0.1719 -0.8478 -0.111 0.920 0.376 148 131 81 0 0
-0.0896 0.1741 -0.8545 0.081 0.975 0.209 129 117 78 0 0
-0.0896 0.1744 -0.8564 0.087 0.984 0.154 104 97 75 0 0
-0.0966 0.0214 -0.2788 -0.249 0.895 0.371 55 45 35 0 0
-0.0959 0.0509 -0.3154 -0.049 0.807 0.588 148 130 100 0 0
-0.0954 0.0641 -0.3485 -0.162 0.842 0.515 43 30 15 0 0
-0.0954 0.0647 -0.3499 0.005 0.894 0.449 52 42 27 0 0
-0.0952 0.0614 -0.3642 -0.307 0.923 -0.232 56 42 30 0 0
-0.0952 0.0599 -0.3664 -0.138 0.977 -0.165 46 32 21 0 0
-0.0940 0.0550 -0.4561 -0.205 0.814 0.543 20 17 12 0 0
-0.0940 0.0562 -0.4574 -0.219 0.945 0.242 21 18 14 0 0
-0.0939 0.0563 -0.4609 -0.377 0.923 0.070 20 16 15 0 0
-0.0938 0.0586 -0.4670 -0.387 0.883 0.268 65 60 56 0 0
-0.0933 0.0768 -0.4997 -0.431 0.887 0.166 27 23 20 0 0
-0.0932 0.0782 -0.5026 -0.111 0.866 0.487 26 22 20 0 0
-0.0932 0.0774 -0.5066 -0.384 0.822 0.421 30 26 25 0 0
-0.0931 0.0782 -0.5081 -0.384 0.822 0.421 30 26 25 0 0
-0.0931 0.0793 -0.5130 -0.404 0.819 0.406 12 10 9 0 0
-0.0931 0.0800 -0.5144 -0.404 0.819 0.406 12 11 9 0 0
-0.0920 0.1202 -0.5769 -0.203 0.604 -0.770 27 18 8 0 0
-0.0892 0.1339 -0.7754 -0.144 0.957 -0.253 15 10 6 0 0
-0.0890 0.1408 -0.7910 -0.037 0.896 0.442 52 38 22 0 0
-0.0890 0.1428 -0.7915 -0.073 0.871 0.486 69 55 38 0 0
-0.0889 0.1444 -0.7923 0.101 0.869 0.484 72 59 40 0 0
-0.0880 0.1720 -0.8477 -0.158 0.922 0.354 148 130 83 0 0
-0.0879 0.1742 -0.8566 0.080 0.996 -0.026 90 84 68 0 0
-0.0949 0.0313 -0.2857 -0.114 0.917 0.383 210 193 150 0 0
-0.0938 0.0641 -0.3517 -0.104 0.973 0.206 56 43 29 0 0
-0.0938 0.0644 -0.3533 -0.096 0.994 0.043 67 54 37 0 0
-0.0930 0.0550 -0.4072 0.226 0.973 -0.039 72 56 40 0 0
-0.0929 0.0543 -0.4178 0.259 0.961 0.094 43 31 20 0 0
-0.0928 0.0555 -0.4260 0.184 0.975 0.122 64 50 33 0 0
-0.0926 0.0533 -0.4427 -0.348 0.879 0.325 17 13 12 0 0
-0.0924 0.0556 -0.4558 0.028 0.827 0.561 19 15 13 0 0
-0.0923 0.0566 -0.4571 0.102 0.858 0.503 21 17 16 0 0
-0.0923 0.0569 -0.4588 -0.120 0.975 0.188 27 23 21 0 0
-0.0913 0.0779 -0.5210 -0.254 0.955 0.153 16 15 13 0 0
-0.0899 0.0553 -0.6334 0.138 0.876 0.461 60 53 43 0 0
-0.0897 0.0717 -0.6413 -0.439 0.283 0.853 58 51 42 0 0
-0.0894 0.1187 -0.6445 0.389 0.877 0.281 72 61 46 0 0
-0.0894 0.1203 -0.6454 -0.029 0.620 0.784 68 56 41 0 0
-0.0883 0.1615 -0.7147 0.167 0.421 0.892 133 116 85 0 0
-0.0882 0.1656 -0.7195 0.006 0.922 0.388 122 109 86 0 0
-0.0860 0.1757 -0.8684 0.681 0.720 -0.133 172 172 172 0 0
-0.0860 0.1770 -0.8694 0.693 0.715 -0.089 179 179 179 0 0
-0.0936 0.0279 -0.2690 -0.302 0.913 0.273 116 102 72 0 0
-0.0935 0.0237 -0.2733 0.396 0.837 0.378 64 52 31 0 0
-0.0930 0.0455 -0.3057 0.041 0.920 0.391 83 67 46 0 0
-0.0922 0.0650 -0.3530 -0.335 0.930 0.154 70 57 38 0 0
-0.0913 0.0546 -0.4142 0.024 0.995 -0.101 62 48 35 0 0
-0.0913 0.0540 -0.4196 -0.068 0.908 0.414 107 97 84 0 0
-0.0911 0.0559 -0.4293 -0.425 0.904 -0.035 45 33 23 0 0
-0.0907 0.0565 -0.4572 0.102 0.858 0.503 23 19 17 0 0
-0.0907 0.0571 -0.4587 -0.037 0.954 0.298 25 21 20 0 0
-0.0906 0.0592 -0.4613 -0.284 0.815 0.505 31 27 24 0 0
-0.0906 0.0597 -0.4629 -0.023 0.934 0.356 31 27 24 0 0
-0.0904 0.0668 -0.4793 -0.212 0.810 0.547 57 47 39 0 0
-0.0899 0.0800 -0.5107 -0.468 0.879 -0.092 14 13 9 0 0
-0.0896 0.0804 -0.5270 0.467 0.787 0.403 41 39 40 0 0
-0.0896 0.0928 -0.5278 -0.466 0.043 0.884 17 17 16 0 0
-0.0896 0.0964 -0.5277 -0.413 0.537 0.736 42 41 39 0 0
-0.0895 0.1046 -0.5288 -0.493 0.146 0.857 90 83 77 0 0
-0.0882 0.0522 -0.6313 0.086 0.787 0.611 44 35 27 0 0
-0.0880 0.0777 -0.6375 -0.078 0.995 0.069 65 58 48 0 0
-0.0879 0.0856 -0.6404 -0.330 0.246 0.911 60 53 43 0 0
-0.0877 0.1201 -0.6474 -0.107 0.677 0.729 82 71 53 0 0
-0.0866 0.1644 -0.7164 -0.022 0.901 0.434 142 126 94 0 0
-0.0865 0.1658 -0.7194 0.101 0.905 0.413 98 85 63 0 0
-0.0858 0.1345 -0.7771 -0.220 0.733 0.644 21 14 8 0 0
-0.0850 0.1683 -0.8273 0.041 0.992 -0.121 124 107 72 0 0
-0.0843 0.1751 -0.8712 0.693 0.715 -0.089 179 179 179 0 0
-0.0920 0.0279 -0.2690 -0.049 0.801 0.597 122 108 79 0 0
-0.0920 0.0242 -0.2715 -0.228 0.973 -0.048 79 66 41 0 0
-0.0919 0.0239 -0.2732 -0.050 0.998 -0.042 63 50 30 0 0
-0.0918 0.0224 -0.2800 -0.132 0.847 0.515 49 39 29 0 0
-0.0914 0.0447 -0.3043 -0.014 0.974 0.227 80 64 48 0 0
-0.0914 0.0454 -0.3057 -0.181 0.972 0.150 91 76 54 0 0
-0.0907 0.0654 -0.3528 -0.123 0.971 0.205 86 74 51 0 0
-0.0894 0.0574 -0.4373 -0.125 0.991 -0.046 15 11 10 0 0
-0.0893 0.0532 -0.4426 0.133 0.983 0.129 15 11 10 0 0
-0.0887 0.0667 -0.4793 -0.237 0.877 0.417 51 41 33 0 0
-0.0881 0.0813 -0.5174 -0.013 0.986 -0.168 36 34 36 0 0
-0.0881 0.0787 -0.5205 -0.272 0.962 0.020 34 32 34 0 0
-0.0881 0.0789 -0.5223 -0.458 0.888 0.029 37 35 36 0 0
-0.0880 0.0784 -0.5244 -0.153 0.930 -0.336 27 25 26 0 0
-0.0880 0.0944 -0.5269 -0.454 0.087 0.887 27 26 25 0 0
-0.0879 0.0959 -0.5279 -0.175 0.796 0.580 70 68 64 0 0
-0.0879 0.0972 -0.5291 -0.049 0.802 0.595 72 69 64 0 0
-0.0879 0.1047 -0.5287 -0.278 0.287 0.917 92 86 80 0 0
-0.0863 0.0865 -0.6398 -0.214 0.480 0.851 45 38 29 0 0
-0.0860 0.1342 -0.6516 -0.294 0.695 0.656 142 122 93 0 0
-0.0857 0.1527 -0.6679 -0.080 0.901 0.425 67 50 31 0 0
-0.0854 0.1520 -0.6880 -0.018 1.000 0.017 122 106 75 0 0
-0.0850 0.1579 -0.7134 -0.123 0.529 0.839 128 112 86 0 0
-0.0850 0.1593 -0.7143 -0.123 0.529 0.839 110 94 69 0 0
-0.0850 0.1608 -0.7152 -0.206 0.618 0.759 97 81 56 0 0
-0.0849 0.1650 -0.7179 -0.083 0.840 0.537 109 95 69 0 0
-0.0849 0.1656 -0.7195 0.006 0.922 0.388 88 76 53 0 0
-0.0847 0.1610 -0.7311 -0.319 0.854 -0.411 108 93 58 0 0
-0.0832 0.1699 -0.8323 0.097 0.714 0.694 115 99 58 0 0
-0.0826 0.1713 -0.8725 0.645 0.655 -0.393 170 170 170 0 0
-0.0906 0.0076 -0.2597 -0.371 0.914 0.165 103 86 50 0 0
-0.0905 0.0207 -0.2660 -0.211 0.440 0.873 196 179 146 0 0
-0.0904 0.0289 -0.2687 0.288 0.912 0.293 114 100 69 0 0
-0.0904 0.0252 -0.2713 0.159 0.976 0.152 88 76 48 0 0
-0.0903 0.0226 -0.2799 -0.132 0.847 0.515 35 24 16 0 0
-0.0882 0.0541 -0.4074 0.141 0.990 -0.012 73 58 37 0 0
-0.0882 0.0546 -0.4106 -0.007 0.943 0.332 75 60 43 0 0
-0.0865 0.0826 -0.5148 -0.055 0.905 0.422 35 33 36 0 0
-0.0865 0.0820 -0.5170 -0.428 0.897 -0.108 33 31 34 0 0
-0.0865 0.0808 -0.5194 -0.706 0.688 0.167 31 29 32 0 0
-0.0864 0.0800 -0.5217 -0.710 0.704 -0.010 38 36 37 0 0
-0.0864 0.0807 -0.5231 -0.698 0.652 -0.294 40 38 40 0 0
-0.0846 0.0869 -0.6396 -0.214 0.480 0.851 42 35 27 0 0
-0.0846 0.0885 -0.6405 -0.214 0.480 0.851 57 49 39 0 0
-0.0841 0.1511 -0.6651 -0.036 0.941 0.337 63 47 28 0 0
-0.0839 0.1523 -0.6779 0.255 0.957 0.141 113 93 66 0 0
-0.0834 0.1592 -0.7144 0.026 0.475 0.880 122 106 81 0 0
-0.0833 0.1609 -0.7151 -0.105 0.595 0.797 121 105 80 0 0
-0.0833 0.1640 -0.7187 -0.172 0.872 0.458 123 110 84 0 0
-0.0830 0.1585 -0.7351 -0.008 0.927 -0.374 132 117 83 0 0
-0.0816 0.1668 -0.8265 -0.383 0.879 0.286 117 102 68 0 0
-0.0813 0.1726 -0.8472 -0.111 0.920 0.376 139 121 78 0 0
-0.0891 0.0060 -0.2553 -0.279 0.753 0.596 123 111 89 0 0
-0.0890 0.0082 -0.2596 -0.369 0.876 0.310 92 75 44 0 0
-0.0887 0.0228 -0.2798 -0.132 0.847 0.515 41 28 19 0 0
-0.0877 0.0650 -0.3447 0.054 0.912 0.407 58 47 29 0 0
-0.0876 0.0642 -0.3467 -0.085 0.972 0.220 59 48 29 0 0
-0.0873 0.0569 -0.3674 0.198 0.979 -0.056 67 52 32 0 0
-0.0873 0.0568 -0.3691 0.198 0.979 -0.056 86 72 45 0 0
-0.0850 0.0810 -0.5102 -0.044 0.964 0.260 35 34 32 0 0
-0.0849 0.0827 -0.5148 -0.055 0.905 0.422 43 41 42 0 0
-0.0849 0.0834 -0.5162 -0.055 0.905 0.422 39 37 38 0 0
-0.0849 0.0823 -0.5186 -0.706 0.688 0.167 35 33 34 0 0
-0.0848 0.0817 -0.5208 -0.710 0.704 -0.010 38 36 39 0 0
-0.0848 0.0830 -0.5219 -0.704 0.642 -0.304 40 38 41 0 0
-0.0847 0.0857 -0.5260 -0.915 0.196 0.352 20 18 22 0 0
-0.0848 0.0965 -0.5258 -0.418 0.744 0.521 75 72 67 0 0
-0.0846 0.1447 -0.5371 0.270 0.956 0.118 89 70 42 0 0
-0.0846 0.1451 -0.5387 0.316 0.927 0.202 83 67 39 0 0
-0.0829 0.0743 -0.6396 0.439 0.797 0.414 63 55 46 0 0
-0.0829 0.0862 -0.6400 0.123 0.519 0.846 55 47 37 0 0
-0.0828 0.1162 -0.6461 0.120 0.984 0.130 59 49 37 0 0
-0.0827 0.1360 -0.6503 -0.165 0.602 0.782 96 80 58 0 0
-0.0823 0.1519 -0.6782 0.133 0.989 0.063 115 97 72 0 0
-0.0823 0.1521 -0.6800 0.255 0.957 0.141 110 93 65 0 0
-0.0821 0.1517 -0.6902 0.170 0.983 -0.074 112 96 64 0 0
-0.0820 0.1514 -0.6944 0.220 0.972 -0.076 72 59 38 0 0
-0.0817 0.1626 -0.7158 -0.186 0.722 0.666 165 151 125 0 0
-0.0815 0.1595 -0.7282 0.294 0.920 -0.259 122 108 72 0 0
-0.0807 0.1387 -0.7758 -0.010 0.998 0.067 25 18 13 0 0
-0.0807 0.1388 -0.7778 0.391 0.910 0.138 27 19 13 0 0
-0.0806 0.1391 -0.7818 0.151 0.857 0.492 43 30 16 0 0
-0.0804 0.1493 -0.7966 -0.187 0.821 0.540 55 47 31 0 0
-0.0797 0.1662 -0.8357 -0.143 0.903 0.405 137 121 79 0 0
-0.0796 0.1715 -0.8439 -0.058 0.956 0.288 131 112 71 0 0
-0.0795 0.1722 -0.8497 0.120 0.989 0.084 141 122 79 0 0
-0.0793 0.1712 -0.8660 0.284 0.862 0.420 99 95 86 0 0
-0.0791 0.1659 -0.8754 0.023 0.866 -0.500 158 159 156 0 0
-0.0875 0.0096 -0.2592 -0.310 0.875 0.373 77 62 38 0 0
-0.0861 0.0649 -0.3448 0.211 0.887 0.410 55 43 29 0 0
-0.0857 0.0583 -0.3669 -0.068 0.987 -0.148 93 81 55 0 0
-0.0848 0.0571 -0.4234 -0.145 0.912 0.385 64 51 35 0 0
-0.0847 0.0597 -0.4293 -0.593 0.798 0.106 50 40 30 0 0
-0.0842 0.0615 -0.4566 -0.519 0.855 0.004 47 42 39 0 0
-0.0829 0.1438 -0.5483 0.150 0.989 -0.002 115 96 62 0 0
-0.0828 0.1433 -0.5540 0.216 0.970 -0.115 121 106 74 0 0
-0.0805 0.1522 -0.6898 0.383 0.918 0.102 113 96 67 0 0
-0.0804 0.1522 -0.6918 0.544 0.833 0.104 77 63 38 0 0
-0.0800 0.1637 -0.7169 -0.172 0.872 0.458 129 112 84 0 0
-0.0798 0.1581 -0.7314 0.322 0.946 -0.044 103 89 55 0 0
-0.0797 0.1580 -0.7355 0.384 0.921 -0.066 134 118 86 0 0
-0.0796 0.1552 -0.7397 0.161 0.880 -0.447 118 103 73 0 0
-0.0795 0.1510 -0.7451 -0.079 0.846 -0.527 90 76 51 0 0
-0.0790 0.1354 -0.7763 0.101 0.697 0.710 16 12 8 0 0
-0.0790 0.1381 -0.7762 -0.035 0.997 0.069 18 12 8 0 0
-0.0789 0.1389 -0.7819 0.151 0.857 0.492 46 35 23 0 0
-0.0780 0.1695 -0.8414 0.061 0.827 0.559 139 123 84 0 0
-0.0775 0.1747 -0.8716 0.226 0.861 0.455 179 180 182 0 0
-0.0774 0.1747 -0.8738 0.073 0.986 0.153 184 184 184 0 0
-0.0774 0.1750 -0.8757 0.073 0.986 0.153 187 185 186 0 0
-0.0857 0.0270 -0.2707 0.080 0.903 0.423 119 100 70 0 0
-0.0842 0.0583 -0.3651 -0.364 0.907 -0.212 90 80 52 0 0
-0.0842 0.0582 -0.3669 -0.441 0.892 -0.099 98 88 61 0 0
-0.0832 0.0586 -0.4228 -0.106 0.866 0.489 60 46 31 0 0
-0.0830 0.0630 -0.4349 -0.701 0.676 0.228 9 7 5 0 0
-0.0828 0.0514 -0.4469 0.349 0.864 0.362 10 8 6 0 0
-0.0827 0.0553 -0.4487 -0.192 0.656 0.730 38 32 32 0 0
-0.0826 0.0619 -0.4564 0.042 0.939 0.340 45 40 37 0 0
-0.0825 0.0612 -0.4638 0.151 0.942 0.301 39 35 32 0 0
-0.0815 0.1269 -0.5346 -0.596 0.752 0.282 125 115 99 0 0
-0.0814 0.1274 -0.5361 -0.549 0.796 0.255 116 105 90 0 0
-0.0795 0.0780 -0.6372 0.229 0.579 0.782 61 52 43 0 0
-0.0788 0.1516 -0.6902 0.383 0.918 0.102 101 84 57 0 0
-0.0781 0.1573 -0.7361 0.408 0.906 -0.111 129 113 80 0 0
-0.0780 0.1569 -0.7384 0.491 0.871 -0.009 126 110 80 0 0
-0.0766 0.1628 -0.8193 -0.065 0.904 0.423 86 65 34 0 0
-0.0758 0.1764 -0.8700 0.129 0.755 0.643 179 180 182 0 0
-0.0833 0.0612 -0.3297 0.138 0.842 0.521 60 48 32 0 0
-0.0816 0.0599 -0.4239 -0.026 0.874 0.486 59 45 32 0 0
-0.0808 0.0620 -0.4652 0.188 0.945 0.269 40 36 34 0 0
-0.0808 0.0624 -0.4668 -0.358 0.906 0.224 36 34 31 0 0
-0.0808 0.0638 -0.4680 -0.308 0.697 0.647 33 34 29 0 0
-0.0800 0.0975 -0.5216 -0.728 0.670 0.142 44 41 38 0 0
-0.0799 0.1298 -0.5365 -0.148 0.533 0.833 105 93 73 0 0
-0.0797 0.1423 -0.5492 0.413 0.903 0.114 150 134 94 0 0
-0.0778 0.0735 -0.6381 -0.567 0.754 0.333 62 53 44 0 0
-0.0778 0.0777 -0.6374 0.333 0.550 0.766 62 53 44 0 0
-0.0778 0.0995 -0.6413 -0.216 0.476 0.852 48 39 31 0 0
-0.0772 0.1501 -0.6913 0.388 0.920 -0.056 81 67 40 0 0
-0.0768 0.1591 -0.7125 0.343 0.736 0.584 124 108 80 0 0
-0.0764 0.1544 -0.7383 0.482 0.845 -0.233 133 118 85 0 0
-0.0746 0.1679 -0.8407 -0.029 0.916 0.399 123 107 73 0 0
-0.0745 0.1685 -0.8422 -0.029 0.916 0.399 132 117 84 0 0
-0.0741 0.1771 -0.8693 0.192 0.547 0.815 179 180 180 0 0
-0.0822 0.0422 -0.2984 -0.093 0.889 0.449 107 91 62 0 0
-0.0822 0.0431 -0.2997 -0.003 0.936 0.351 89 76 50 0 0
-0.0806 0.0564 -0.3876 -0.313 0.900 0.302 58 43 28 0 0
-0.0801 0.0608 -0.4201 -0.685 0.702 0.196 69 56 39 0 0
-0.0796 0.0567 -0.4410 -0.456 0.794 -0.402 7 6 4 0 0
-0.0792 0.0688 -0.4710 -0.632 0.652 0.419 56 47 41 0 0
-0.0791 0.0696 -0.4724 -0.563 0.703 0.434 63 54 46 0 0
-0.0791 0.0712 -0.4735 -0.569 0.721 0.395 65 56 47 0 0
-0.0791 0.0720 -0.4749 -0.569 0.721 0.395 66 57 48 0 0
-0.0788 0.0914 -0.4994 -0.724 0.683 0.096 75 71 64 0 0
-0.0781 0.1420 -0.5511 0.277 0.842 0.463 137 122 81 0 0
-0.0781 0.1424 -0.5527 -0.051 0.972 0.231 142 124 87 0 0
-0.0780 0.1427 -0.5543 -0.065 0.997 0.039 144 124 91 0 0
-0.0761 0.0755 -0.6368 0.492 0.716 0.496 63 54 45 0 0
-0.0761 0.0769 -0.6379 0.226 0.633 0.740 61 52 43 0 0
-0.0761 0.0787 -0.6388 0.235 0.828 0.509 59 50 41 0 0
-0.0762 0.1002 -0.6408 -0.323 0.523 0.789 48 39 34 0 0
-0.0762 0.1029 -0.6430 -0.265 0.693 0.671 55 46 39 0 0
-0.0762 0.1164 -0.6459 0.189 0.700 0.689 71 60 44 0 0
-0.0751 0.1602 -0.7176 -0.190 0.753 0.630 132 113 81 0 0
-0.0732 0.1617 -0.8224 0.165 0.936 0.311 105 90 58 0 0
-0.0729 0.1683 -0.8402 -0.195 0.931 0.308 135 119 84 0 0
-0.0783 0.0615 -0.4267 -0.538 0.773 0.338 53 43 31 0 0
-0.0782 0.0631 -0.4365 -0.379 0.923 0.069 7 6 4 0 0
-0.0779 0.0659 -0.4528 -0.252 0.925 -0.284 43 37 34 0 0
-0.0778 0.0649 -0.4550 -0.598 0.781 0.181 46 38 35 0 0
-0.0776 0.0698 -0.4705 -0.651 0.584 0.485 59 50 44 0 0
-0.0775 0.0705 -0.4720 -0.604 0.632 0.485 61 52 43 0 0
-0.0775 0.0715 -0.4733 -0.563 0.703 0.434 64 55 46 0 0
-0.0766 0.1392 -0.5491 0.319 0.946 0.063 123 107 73 0 0
-0.0765 0.1415 -0.5514 0.328 0.786 0.525 142 127 88 0 0
-0.0765 0.1422 -0.5528 0.275 0.918 0.285 148 131 93 0 0
-0.0765 0.1426 -0.5544 0.275 0.918 0.285 141 122 89 0 0
-0.0744 0.0761 -0.6384 -0.189 0.763 0.618 56 47 38 0 0
-0.0744 0.0786 -0.6388 -0.157 0.841 0.518 56 47 38 0 0
-0.0745 0.1031 -0.6429 -0.672 0.656 0.344 52 43 36 0 0
-0.0735 0.1483 -0.7106 0.144 0.392 0.909 88 74 48 0 0
-0.0735 0.1602 -0.7176 -0.156 0.738 0.657 147 132 100 0 0
-0.0722 0.1374 -0.7769 -0.546 0.541 0.640 19 16 10 0 0
-0.0722 0.1382 -0.7783 -0.180 0.909 0.376 22 17 11 0 0
-0.0718 0.1474 -0.8004 0.114 0.923 0.367 89 74 50 0 0
-0.0715 0.1615 -0.8225 0.143 0.945 0.295 90 78 50 0 0
-0.0712 0.1681 -0.8383 0.112 0.940 0.323 130 111 71 0 0
-0.0707 0.1754 -0.8666 -0.239 0.950 0.199 165 163 165 0 0
-0.0800 -0.0126 -0.2306 0.046 0.857 0.514 178 178 178 0 0
-0.0799 -0.0127 -0.2322 -0.103 0.694 0.713 178 178 178 0 0
-0.0785 0.0573 -0.3357 0.010 0.859 0.512 72 62 45 0 0
-0.0759 0.0751 -0.4752 -0.259 0.836 0.484 80 69 59 0 0
-0.0755 0.1024 -0.5063 -0.683 0.579 0.445 66 57 50 0 0
-0.0750 0.1388 -0.5475 0.210 0.954 0.216 130 114 79 0 0
-0.0726 0.0427 -0.6289 0.628 0.757 0.177 31 22 15 0 0
-0.0727 0.0752 -0.6370 -0.319 0.858 0.402 58 49 40 0 0
-0.0727 0.0767 -0.6380 -0.416 0.790 0.450 53 44 35 0 0
-0.0727 0.0775 -0.6395 -0.339 0.754 0.562 54 45 36 0 0
-0.0728 0.0958 -0.6397 0.090 0.224 0.970 49 40 34 0 0
-0.0729 0.0994 -0.6394 0.611 0.689 0.390 74 66 60 0 0
-0.0726 0.1457 -0.6709 0.120 0.986 0.118 122 108 76 0 0
-0.0719 0.1398 -0.7068 0.447 0.895 0.011 39 28 19 0 0
-0.0719 0.1483 -0.7106 0.073 0.435 0.898 94 79 53 0 0
-0.0719 0.1591 -0.7164 -0.060 0.722 0.689 144 128 98 0 0
-0.0718 0.1604 -0.7175 -0.124 0.754 0.646 140 128 99 0 0
-0.0718 0.1615 -0.7186 -0.055 0.762 0.646 93 80 62 0 0
-0.0718 0.1627 -0.7217 0.125 0.910 0.396 137 121 87 0 0
-0.0701 0.1445 -0.8007 0.057 0.947 0.316 72 59 37 0 0
-0.0695 0.1692 -0.8417 -0.023 0.972 0.236 125 108 71 0 0
-0.0694 0.1696 -0.8435 -0.023 0.972 0.236 116 101 67 0 0
-0.0784 -0.0138 -0.2308 -0.055 0.677 0.734 178 178 178 0 0
-0.0775 0.0475 -0.3032 -0.307 0.855 0.417 96 78 54 0 0
-0.0772 0.0495 -0.3203 -0.117 0.955 0.273 77 64 43 0 0
-0.0771 0.0500 -0.3217 -0.027 0.876 0.481 82 69 47 0 0
-0.0751 0.0662 -0.4282 -0.274 0.955 0.116 53 43 33 0 0
-0.0746 0.0671 -0.4540 -0.598 0.781 0.181 45 37 35 0 0
-0.0740 0.1008 -0.5000 -0.816 0.310 0.488 60 50 41 0 0
-0.0739 0.1022 -0.5047 -0.591 0.408 0.696 59 50 43 0 0
-0.0739 0.1065 -0.5114 -0.677 0.681 0.280 64 57 49 0 0
-0.0738 0.1135 -0.5184 -0.194 0.803 0.563 47 43 38 0 0
-0.0708 0.0516 -0.6335 -0.008 0.821 0.571 44 35 26 0 0
-0.0712 0.0962 -0.6394 0.527 0.565 0.635 50 43 35 0 0
-0.0711 0.1450 -0.6674 0.116 0.939 0.323 82 66 39 0 0
-0.0710 0.1460 -0.6726 -0.272 0.961 0.043 94 79 50 0 0
-0.0709 0.1460 -0.6765 0.063 0.996 0.063 52 40 26 0 0
-0.0702 0.1595 -0.7161 -0.091 0.556 0.826 139 124 93 0 0
-0.0702 0.1627 -0.7197 -0.107 0.678 0.727 116 100 70 0 0
-0.0702 0.1635 -0.7210 0.048 0.750 0.660 145 127 88 0 0
-0.0684 0.1523 -0.8006 -0.038 0.966 0.255 89 78 51 0 0
-0.0677 0.1696 -0.8434 -0.023 0.972 0.236 135 119 77 0 0
-0.0768 -0.0139 -0.2308 -0.236 0.595 0.768 179 179 179 0 0
-0.0762 0.0335 -0.2831 -0.129 0.821 0.556 196 180 145 0 0
-0.0754 0.0576 -0.3356 0.016 0.805 0.593 54 43 21 0 0
-0.0754 0.0576 -0.3372 0.102 0.920 0.378 55 44 27 0 0
-0.0753 0.0591 -0.3383 0.025 0.928 0.373 39 29 19 0 0
-0.0752 0.0634 -0.3483 0.197 0.976 0.094 87 72 43 0 0
-0.0747 0.0555 -0.3659 0.074 0.985 -0.153 67 54 37 0 0
-0.0739 0.0640 -0.4084 -0.087 0.945 0.314 49 36 22 0 0
-0.0724 0.1052 -0.5031 -0.565 0.685 0.459 57 48 40 0 0
-0.0691 0.0501 -0.6324 -0.227 0.459 0.859 45 36 27 0 0
-0.0691 0.0507 -0.6340 -0.062 0.741 0.669 57 48 39 0 0
-0.0693 0.0786 -0.6387 0.106 0.549 0.829 60 51 42 0 0
-0.0696 0.1281 -0.6498 0.016 0.857 0.515 45 35 24 0 0
-0.0692 0.1454 -0.6788 0.128 0.991 0.038 71 57 40 0 0
-0.0690 0.1437 -0.6860 0.204 0.979 0.005 77 61 37 0 0
-0.0689 0.1434 -0.6922 0.343 0.916 -0.210 70 55 31 0 0
-0.0685 0.1389 -0.7095 0.197 0.738 0.646 76 64 42 0 0
-0.0685 0.1545 -0.7160 0.173 0.548 0.818 126 110 81 0 0
-0.0686 0.1597 -0.7160 0.008 0.813 0.582 158 143 103 0 0
-0.0667 0.1398 -0.7961 0.015 0.993 0.120 57 46 28 0 0
-0.0663 0.1633 -0.8296 0.178 0.905 0.387 92 84 59 0 0
-0.0662 0.1636 -0.8315 0.195 0.846 0.497 98 88 64 0 0
-0.0747 0.0297 -0.2777 0.276 0.884 0.376 53 41 26 0 0
-0.0745 0.0377 -0.2915 -0.055 0.883 0.465 121 106 89 0 0
-0.0743 0.0499 -0.3088 -0.197 0.977 0.080 64 49 29 0 0
-0.0738 0.0575 -0.3372 0.102 0.920 0.378 65 54 33 0 0
-0.0738 0.0583 -0.3386 0.121 0.885 0.449 57 45 31 0 0
-0.0730 0.0565 -0.3739 -0.104 0.936 0.335 31 23 16 0 0
-0.0724 0.0645 -0.4081 -0.040 0.966 0.256 60 46 31 0 0
-0.0722 0.0659 -0.4144 -0.406 0.913 -0.043 66 54 38 0 0
-0.0722 0.0671 -0.4157 -0.052 0.990 0.132 56 44 28 0 0
-0.0719 0.0687 -0.4322 -0.501 0.851 0.155 71 63 54 0 0
-0.0711 0.0790 -0.4750 -0.163 0.723 0.671 112 102 88 0 0
-0.0711 0.0805 -0.4761 -0.235 0.786 0.572 108 97 82 0 0
-0.0710 0.0814 -0.4792 -0.042 0.795 0.606 104 92 76 0 0
-0.0702 0.1370 -0.5503 0.411 0.902 0.132 133 114 81 0 0
-0.0702 0.1373 -0.5520 0.312 0.949 0.034 134 116 80 0 0
-0.0701 0.1377 -0.5554 0.090 0.996 0.002 147 131 94 0 0
-0.0701 0.1379 -0.5571 0.031 0.996 -0.088 134 118 82 0 0
-0.0674 0.0509 -0.6339 0.351 0.739 0.575 54 45 36 0 0
-0.0674 0.0604 -0.6361 -0.129 0.976 0.175 74 65 58 0 0
-0.0678 0.1282 -0.6575 0.103 0.828 0.551 113 99 75 0 0
-0.0678 0.1291 -0.6589 0.103 0.828 0.551 90 75 53 0 0
-0.0674 0.1443 -0.6876 0.359 0.933 0.013 72 57 37 0 0
-0.0672 0.1419 -0.6933 0.386 0.911 -0.147 73 61 36 0 0
-0.0669 0.1532 -0.7149 0.005 0.569 0.822 122 108 82 0 0
-0.0669 0.1544 -0.7160 0.152 0.514 0.844 117 103 74 0 0
-0.0651 0.1352 -0.7892 0.009 0.475 0.880 47 37 24 0 0
-0.0736 -0.0094 -0.2313 -0.578 0.432 0.692 179 179 179 0 0
-0.0731 0.0305 -0.2822 0.105 0.734 0.671 140 120 87 0 0
-0.0731 0.0317 -0.2835 0.183 0.668 0.722 200 184 145 0 0
-0.0731 0.0331 -0.2847 0.183 0.668 0.722 134 119 85 0 0
-0.0726 0.0487 -0.3140 0.062 0.993 0.103 44 31 19 0 0
-0.0723 0.0610 -0.3344 -0.099 0.819 0.565 74 60 36 0 0
-0.0722 0.0576 -0.3371 -0.016 0.944 0.331 70 58 38 0 0
-0.0722 0.0589 -0.3400 0.029 0.967 0.252 52 41 27 0 0
-0.0695 0.0792 -0.4749 -0.147 0.703 0.696 113 103 88 0 0
-0.0695 0.0851 -0.4792 -0.053 0.813 0.580 110 99 81 0 0
-0.0697 0.1004 -0.4789 -0.362 0.704 0.611 98 87 70 0 0
-0.0696 0.1007 -0.4823 -0.270 0.468 0.841 90 78 61 0 0
-0.0696 0.1013 -0.4837 -0.424 0.597 0.681 89 76 60 0 0
-0.0696 0.1036 -0.4844 -0.556 0.617 0.556 95 85 65 0 0
-0.0696 0.1048 -0.4855 -0.688 0.535 0.491 97 86 66 0 0
-0.0696 0.1059 -0.4867 -0.710 0.671 0.215 105 94 73 0 0
-0.0696 0.1064 -0.4882 -0.710 0.671 0.215 104 92 72 0 0
-0.0692 0.1144 -0.5090 -0.408 0.892 0.196 42 35 28 0 0
-0.0661 0.1039 -0.6443 0.047 0.611 0.790 68 59 51 0 0
-0.0662 0.1289 -0.6570 0.021 0.702 0.712 89 75 54 0 0
-0.0661 0.1299 -0.6602 0.181 0.912 0.368 99 85 64 0 0
-0.0652 0.1545 -0.7160 -0.093 0.591 0.802 119 105 76 0 0
-0.0635 0.1278 -0.7803 -0.127 0.894 0.430 19 14 10 0 0
-0.0634 0.1281 -0.7822 -0.176 0.773 0.609 20 14 10 0 0
-0.0634 0.1402 -0.7915 -0.144 0.986 0.079 61 48 32 0 0
-0.0633 0.1440 -0.7990 -0.073 0.919 0.387 62 49 31 0 0
-0.0632 0.1448 -0.8005 0.113 0.875 0.471 57 44 26 0 0
-0.0627 0.1678 -0.8408 -0.138 0.978 0.154 127 111 72 0 0
-0.0715 0.0326 -0.2848 -0.042 0.768 0.639 149 132 102 0 0
-0.0715 0.0336 -0.2861 0.156 0.852 0.500 110 91 66 0 0
-0.0712 0.0475 -0.3095 -0.196 0.980 -0.023 67 53 32 0 0
-0.0708 0.0606 -0.3361 -0.216 0.932 0.289 65 52 33 0 0
-0.0706 0.0588 -0.3399 0.029 0.967 0.252 56 44 30 0 0
-0.0698 0.0588 -0.3764 -0.307 0.926 0.221 58 47 36 0 0
-0.0692 0.0656 -0.4093 -0.414 0.910 0.034 63 51 35 0 0
-0.0684 0.0766 -0.4531 -0.313 0.874 0.372 66 58 45 0 0
-0.0681 0.0767 -0.4636 -0.640 0.707 0.299 42 34 29 0 0
-0.0640 0.0531 -0.6285 -0.447 0.590 0.672 47 38 31 0 0
-0.0640 0.0545 -0.6297 -0.447 0.590 0.672 44 35 28 0 0
-0.0642 0.0778 -0.6372 0.276 0.836 0.473 65 56 47 0 0
-0.0645 0.1281 -0.6576 -0.219 0.634 0.742 70 57 39 0 0
-0.0639 0.1416 -0.6935 0.521 0.844 -0.127 86 71 49 0 0
-0.0636 0.1546 -0.7158 -0.384 0.680 0.624 119 105 77 0 0
-0.0636 0.1560 -0.7168 -0.469 0.630 0.619 120 105 72 0 0
-0.0635 0.1608 -0.7231 -0.202 0.845 0.495 138 120 78 0 0
-0.0633 0.1582 -0.7312 -0.266 0.830 -0.490 90 76 50 0 0
-0.0617 0.1277 -0.7804 0.149 0.927 0.343 18 13 9 0 0
-0.0617 0.1283 -0.7820 -0.176 0.773 0.609 19 12 9 0 0
-0.0617 0.1397 -0.7919 -0.013 0.986 0.164 67 55 38 0 0
-0.0616 0.1399 -0.7939 -0.076 0.976 0.205 58 45 28 0 0
-0.0615 0.1448 -0.8005 0.141 0.908 0.395 64 51 32 0 0
-0.0615 0.1508 -0.8061 -0.062 0.807 0.588 70 58 34 0 0
-0.0700 0.0320 -0.2833 -0.159 0.802 0.576 190 171 138 0 0
-0.0699 0.0327 -0.2848 -0.151 0.873 0.464 194 177 147 0 0
-0.0697 0.0467 -0.3048 -0.007 0.928 0.372 119 103 73 0 0
-0.0696 0.0484 -0.3091 0.117 0.982 0.148 64 52 36 0 0
-0.0696 0.0481 -0.3108 -0.046 0.899 0.435 61 50 35 0 0
-0.0692 0.0607 -0.3360 0.034 0.940 0.340 66 51 33 0 0
-0.0691 0.0598 -0.3380 -0.107 0.994 -0.008 59 45 28 0 0
-0.0691 0.0589 -0.3399 0.200 0.954 0.225 52 42 26 0 0
-0.0683 0.0636 -0.3780 -0.507 0.862 0.006 97 84 61 0 0
-0.0668 0.0830 -0.4537 -0.565 0.801 0.200 63 55 46 0 0
-0.0668 0.0818 -0.4560 -0.501 0.864 -0.045 54 47 40 0 0
-0.0667 0.0817 -0.4578 -0.478 0.878 -0.011 52 45 37 0 0
-0.0625 0.0777 -0.6373 0.184 0.855 0.485 62 54 44 0 0
-0.0628 0.1285 -0.6592 -0.072 0.624 0.778 89 78 56 0 0
-0.0599 0.1402 -0.7936 -0.222 0.931 0.291 58 45 29 0 0
-0.0598 0.1460 -0.8016 -0.112 0.934 0.338 71 58 39 0 0
-0.0598 0.1530 -0.8085 0.159 0.942 0.297 64 52 30 0 0
-0.0683 0.0333 -0.2862 0.111 0.893 0.437 167 151 117 0 0
-0.0683 0.0341 -0.2875 0.095 0.905 0.414 138 121 92 0 0
-0.0677 0.0582 -0.3319 -0.075 0.810 0.582 148 133 105 0 0
-0.0674 0.0612 -0.3473 -0.100 0.931 0.351 70 53 28 0 0
-0.0651 0.0793 -0.4554 -0.445 0.776 0.447 70 62 50 0 0
-0.0651 0.1005 -0.4735 -0.142 0.969 0.201 139 125 96 0 0
-0.0649 0.1119 -0.4907 0.051 0.892 0.449 68 53 37 0 0
-0.0640 0.1319 -0.5424 -0.194 0.819 0.540 81 64 33 0 0
-0.0640 0.1324 -0.5439 0.223 0.845 0.485 80 63 34 0 0
-0.0639 0.1332 -0.5489 0.165 0.908 0.386 140 124 90 0 0
-0.0636 0.1317 -0.5606 0.477 0.865 -0.160 127 112 83 0 0
-0.0611 0.1112 -0.6493 -0.060 0.817 0.573 97 86 60 0 0
-0.0613 0.1273 -0.6542 0.351 0.936 -0.003 48 36 26 0 0
-0.0612 0.1272 -0.6562 0.151 0.988 0.033 31 22 16 0 0
-0.0610 0.1376 -0.6746 0.456 0.881 0.124 90 79 58 0 0
-0.0583 0.1425 -0.7917 0.195 0.877 0.439 58 46 29 0 0
-0.0583 0.1435 -0.7930 -0.067 0.872 0.485 75 63 42 0 0
-0.0578 0.1676 -0.8322 0.126 0.870 0.477 106 92 57 0 0
-0.0672 0.0100 -0.2522 -0.050 0.932 0.359 150 135 112 0 0
-0.0669 0.0284 -0.2778 -0.025 0.945 0.325 61 47 28 0 0
-0.0669 0.0297 -0.2791 -0.019 0.917 0.398 56 38 22 0 0
-0.0668 0.0308 -0.2820 0.069 0.974 0.214 122 105 81 0 0
-0.0668 0.0321 -0.2865 -0.109 0.790 0.603 194 178 142 0 0
-0.0661 0.0581 -0.3319 0.029 0.785 0.618 120 102 75 0 0
-0.0655 0.0574 -0.3585 -0.308 0.945 -0.109 37 28 17 0 0
-0.0642 0.0759 -0.4239 -0.855 0.492 0.165 63 49 36 0 0
-0.0627 0.1226 -0.5224 -0.476 0.842 0.254 72 59 42 0 0
-0.0588 0.0543 -0.6298 0.074 0.402 0.913 44 37 29 0 0
-0.0566 0.1427 -0.7916 -0.101 0.934 0.343 55 44 30 0 0
-0.0566 0.1445 -0.7921 -0.123 0.899 0.421 73 61 43 0 0
-0.0566 0.1454 -0.7935 0.095 0.880 0.466 69 56 38 0 0
-0.0558 0.1654 -0.8429 0.244 0.825 0.509 130 111 71 0 0
-0.0652 -0.0274 -0.2366 0.236 0.042 0.971 178 178 177 0 0
-0.0655 -0.0129 -0.2367 0.157 0.917 0.367 156 146 131 0 0
-0.0655 -0.0108 -0.2378 0.033 0.827 0.561 135 119 101 0 0
-0.0653 0.0285 -0.2778 -0.025 0.945 0.325 87 72 47 0 0
-0.0648 0.0507 -0.3164 0.010 0.968 0.250 119 108 83 0 0
-0.0648 0.0510 -0.3180 -0.074 0.965 0.253 63 50 33 0 0
-0.0620 0.0831 -0.4571 -0.329 0.906 0.266 72 64 52 0 0
-0.0573 0.0662 -0.6324 -0.183 0.831 0.526 61 54 44 0 0
-0.0573 0.0680 -0.6333 -0.066 0.721 0.689 66 59 49 0 0
-0.0576 0.1358 -0.6758 0.611 0.744 0.272 72 59 44 0 0
-0.0568 0.1587 -0.7268 -0.372 0.916 0.152 144 127 91 0 0
-0.0549 0.1418 -0.7901 0.021 0.932 0.361 38 30 19 0 0
-0.0549 0.1429 -0.7914 -0.229 0.931 0.284 41 31 20 0 0
-0.0549 0.1447 -0.7920 -0.186 0.919 0.348 46 34 22 0 0
-0.0544 0.1530 -0.8214 0.066 0.988 0.139 101 85 59 0 0
-0.0534 0.1643 -0.8704 0.369 0.822 0.433 131 128 123 0 0
-0.0639 -0.0132 -0.2367 0.157 0.917 0.367 158 150 138 0 0
-0.0635 0.0421 -0.3012 0.226 0.949 0.218 103 87 61 0 0
-0.0634 0.0426 -0.3027 0.264 0.918 0.297 63 48 27 0 0
-0.0634 0.0428 -0.3042 0.215 0.932 0.293 53 38 20 0 0
-0.0634 0.0432 -0.3057 0.215 0.932 0.293 62 46 32 0 0
-0.0634 0.0438 -0.3072 -0.077 0.907 0.414 85 70 54 0 0
-0.0630 0.0598 -0.3346 0.095 0.819 0.566 104 88 64 0 0
-0.0604 0.0834 -0.4570 0.034 0.982 0.187 74 64 49 0 0
-0.0603 0.0835 -0.4604 -0.126 0.956 0.264 64 53 42 0 0
-0.0603 0.0892 -0.4648 -0.715 0.525 0.461 51 42 32 0 0
-0.0593 0.1248 -0.5337 -0.155 0.927 0.342 71 57 40 0 0
-0.0593 0.1256 -0.5350 0.029 0.895 0.446 64 52 34 0 0
-0.0558 0.0807 -0.6373 -0.096 0.275 0.957 67 60 52 0 0
-0.0559 0.0858 -0.6381 0.172 0.429 0.887 61 54 46 0 0
