ply
format ascii 1.0
element vertex 833
property float x
property float y
property float z
property float nx
property float ny
property float nz
property uchar diffuse_red
property uchar diffuse_green
property uchar diffuse_blue
property uchar class
property uchar detection
end_header
-0.0293 -0.1176 -0.6545 0.838 -0.545 0.006 171 154 109 0 0
-0.0290 -0.1180 -0.6562 0.815 -0.565 -0.127 158 141 100 0 0
-0.0293 -0.1179 -0.6584 0.815 -0.565 -0.127 165 148 109 0 0
-0.0296 -0.1179 -0.6606 0.815 -0.565 -0.127 168 152 110 0 0
-0.0299 -0.1192 -0.6786 0.850 -0.510 0.128 180 164 120 0 0
-0.0307 -0.1212 -0.7071 0.548 -0.811 0.205 174 155 110 0 0
-0.0306 -0.1231 -0.7272 0.872 -0.489 0.008 184 170 121 0 0
-0.0369 -0.1272 -0.8315 0.829 -0.544 0.127 172 154 105 0 0
-0.0368 -0.1275 -0.8336 0.789 -0.611 0.067 171 153 104 0 0
-0.0383 -0.1268 -0.8417 0.717 -0.697 -0.027 129 111 78 0 0
-0.0382 -0.1271 -0.8437 0.805 -0.593 0.014 134 116 80 0 0
-0.0386 -0.1270 -0.8463 0.795 -0.607 -0.006 150 134 95 0 0
-0.0403 -0.1259 -0.8502 0.806 -0.567 -0.170 140 125 91 0 0
-0.0414 -0.1265 -0.8667 0.774 -0.452 0.443 103 101 96 0 0
-0.0083 -0.0997 -0.2392 0.622 -0.633 0.460 40 28 15 0 0
-0.0067 -0.1028 -0.2583 0.664 -0.649 0.371 55 39 22 0 0
-0.0064 -0.1032 -0.2597 0.757 -0.590 0.282 56 40 23 0 0
-0.0098 -0.1021 -0.2791 0.781 -0.511 0.360 107 94 56 0 0
-0.0088 -0.1031 -0.2803 0.861 -0.459 0.217 126 114 74 0 0
-0.0086 -0.1034 -0.2817 0.861 -0.459 0.217 110 97 61 0 0
-0.0088 -0.1056 -0.3081 0.787 -0.477 0.391 75 60 34 0 0
-0.0715 -0.0580 -0.3738 -0.279 -0.939 0.199 26 22 19 0 0
-0.0712 -0.0585 -0.3754 0.377 -0.698 -0.609 20 16 13 0 0
-0.0784 -0.0563 -0.4190 0.706 -0.706 0.054 38 30 28 0 0
-0.0809 -0.0567 -0.4472 0.944 -0.330 -0.018 61 53 45 0 0
-0.0868 -0.0523 -0.4539 0.588 -0.806 0.069 23 18 19 0 0
-0.0869 -0.0524 -0.4558 0.548 -0.780 -0.304 18 15 14 0 0
-0.0868 -0.0533 -0.4649 0.459 -0.636 0.620 18 17 15 0 0
-0.0826 -0.0581 -0.4774 0.676 -0.630 0.383 73 59 47 0 0
-0.0788 -0.0621 -0.4863 0.666 -0.737 0.120 76 59 41 0 0
-0.1040 -0.0463 -0.5487 0.100 -0.929 -0.355 8 8 8 0 0
-0.1025 -0.0477 -0.5497 -0.165 -0.983 -0.081 7 7 7 0 0
-0.1038 -0.0476 -0.5603 -0.037 -0.797 0.603 5 5 5 0 0
-0.1025 -0.0488 -0.5614 -0.119 -0.592 0.797 5 5 5 0 0
-0.0967 -0.0560 -0.5873 0.127 -0.757 0.641 16 15 13 0 0
-0.0892 -0.0624 -0.5862 0.012 -0.997 0.081 20 17 16 0 0
-0.0287 -0.1161 -0.6088 0.778 -0.626 -0.058 143 119 80 0 0
-0.0277 -0.1171 -0.6100 0.815 -0.579 0.011 154 131 91 0 0
-0.0281 -0.1180 -0.6236 0.901 -0.422 0.098 173 155 118 0 0
-0.0297 -0.1196 -0.6557 0.906 -0.422 0.021 149 133 91 0 0
-0.0302 -0.1194 -0.6581 0.833 -0.553 -0.003 152 135 96 0 0
-0.0306 -0.1207 -0.6761 0.881 -0.425 0.205 173 154 113 0 0
-0.0306 -0.1209 -0.6780 0.839 -0.543 0.037 179 163 122 0 0
-0.0304 -0.1238 -0.7077 0.625 -0.619 0.477 177 162 115 0 0
-0.0300 -0.1248 -0.7154 0.378 -0.790 0.483 167 150 107 0 0
-0.0298 -0.1254 -0.7193 0.610 -0.778 0.149 170 153 108 0 0
-0.0306 -0.1253 -0.7261 0.808 -0.575 0.130 177 160 111 0 0
-0.0305 -0.1255 -0.7280 0.808 -0.575 0.130 177 160 112 0 0
-0.0447 -0.1176 -0.7740 0.252 -0.948 -0.197 98 85 57 0 0
-0.0449 -0.1177 -0.7763 0.420 -0.908 0.000 116 102 75 0 0
-0.0379 -0.1287 -0.8312 0.829 -0.544 0.127 170 152 103 0 0
-0.0379 -0.1289 -0.8333 0.789 -0.611 0.067 174 154 104 0 0
-0.0376 -0.1293 -0.8353 0.832 -0.555 0.019 174 154 107 0 0
-0.0393 -0.1286 -0.8435 0.805 -0.593 0.014 143 125 87 0 0
-0.0393 -0.1288 -0.8456 0.824 -0.562 0.070 149 135 92 0 0
-0.0400 -0.1285 -0.8485 0.799 -0.593 -0.098 147 132 95 0 0
-0.0424 -0.1280 -0.8664 0.795 -0.457 0.399 93 92 86 0 0
-0.0078 -0.1039 -0.2582 0.668 -0.662 0.340 56 40 24 0 0
-0.0072 -0.1045 -0.2595 0.558 -0.715 0.422 58 43 25 0 0
-0.0084 -0.1037 -0.2630 0.814 -0.485 0.319 65 50 29 0 0
-0.0105 -0.1033 -0.2774 0.911 -0.365 0.194 101 86 55 0 0
-0.0093 -0.1048 -0.2815 0.860 -0.427 0.279 89 75 42 0 0
-0.0087 -0.1064 -0.2937 0.853 -0.424 0.304 87 70 42 0 0
-0.0107 -0.1064 -0.3131 0.714 -0.672 0.194 97 81 53 0 0
-0.0102 -0.1073 -0.3176 0.681 -0.667 0.302 88 74 43 0 0
-0.0727 -0.0592 -0.3737 0.271 -0.961 0.053 21 17 14 0 0
-0.0740 -0.0583 -0.3761 0.029 -0.842 -0.539 20 16 13 0 0
-0.0794 -0.0577 -0.4188 0.650 -0.758 -0.057 28 21 18 0 0
-0.0888 -0.0531 -0.4561 0.495 -0.768 -0.407 23 20 19 0 0
-0.1064 -0.0458 -0.5396 0.286 -0.723 -0.629 16 15 13 0 0
-0.1045 -0.0482 -0.5482 0.264 -0.911 -0.316 7 7 7 0 0
-0.1088 -0.0455 -0.5587 -0.234 -0.951 0.201 8 5 6 0 0
-0.1088 -0.0457 -0.5607 -0.210 -0.936 0.283 8 5 6 0 0
-0.1114 -0.0453 -0.5801 0.985 -0.145 -0.090 7 5 6 0 0
-0.0936 -0.0610 -0.5862 0.438 -0.517 0.736 18 16 16 0 0
-0.0289 -0.1192 -0.6194 0.802 -0.597 -0.035 174 156 114 0 0
-0.0289 -0.1195 -0.6232 0.901 -0.422 0.098 169 151 110 0 0
-0.0303 -0.1210 -0.6513 0.969 -0.238 0.069 170 153 110 0 0
-0.0307 -0.1212 -0.6574 0.879 -0.477 -0.010 164 144 100 0 0
-0.0314 -0.1223 -0.6757 0.881 -0.425 0.205 179 162 118 0 0
-0.0313 -0.1236 -0.6895 0.667 -0.735 0.121 172 155 109 0 0
-0.0314 -0.1239 -0.6935 0.836 -0.546 0.052 169 153 104 0 0
-0.0316 -0.1240 -0.6956 0.725 -0.566 0.392 174 159 111 0 0
-0.0314 -0.1252 -0.7075 0.800 -0.375 0.468 177 162 115 0 0
-0.0320 -0.1264 -0.7261 0.872 -0.465 0.151 171 153 105 0 0
-0.0347 -0.1257 -0.7428 0.851 -0.465 0.245 176 160 112 0 0
-0.0439 -0.1201 -0.7678 0.316 -0.898 -0.307 111 98 62 0 0
-0.0404 -0.1301 -0.8432 0.824 -0.562 0.070 160 142 103 0 0
-0.0404 -0.1303 -0.8453 0.824 -0.562 0.070 153 137 95 0 0
-0.0407 -0.1303 -0.8478 0.894 -0.446 -0.041 154 139 100 0 0
-0.0435 -0.1295 -0.8660 0.795 -0.457 0.399 83 82 74 0 0
-0.0430 -0.1301 -0.8677 0.589 -0.600 0.541 118 118 112 0 0
-0.0236 -0.0897 -0.2296 -0.227 -0.551 0.803 138 126 107 0 0
-0.0070 -0.1046 -0.2381 0.782 -0.548 0.298 40 25 17 0 0
-0.0067 -0.1050 -0.2394 0.763 -0.547 0.344 41 27 17 0 0
-0.0104 -0.1054 -0.2769 0.898 -0.441 -0.002 108 92 62 0 0
-0.0118 -0.1075 -0.3131 0.717 -0.596 0.363 91 77 48 0 0
-0.0118 -0.1078 -0.3162 0.609 -0.734 0.300 94 80 51 0 0
-0.0114 -0.1083 -0.3176 0.581 -0.685 0.439 96 81 51 0 0
-0.0875 -0.0560 -0.4511 0.805 -0.467 -0.366 55 50 44 0 0
-0.0883 -0.0555 -0.4533 0.751 -0.480 -0.454 44 43 41 0 0
-0.0905 -0.0539 -0.4563 0.387 -0.772 -0.504 26 26 24 0 0
-0.0917 -0.0532 -0.4588 0.125 -0.952 -0.279 14 10 9 0 0
-0.0788 -0.0676 -0.4959 0.574 -0.624 0.530 74 59 39 0 0
-0.0994 -0.0529 -0.5268 0.827 -0.350 -0.440 22 21 18 0 0
-0.1104 -0.0473 -0.5667 0.682 -0.605 0.411 6 4 5 0 0
-0.0995 -0.0586 -0.5892 -0.149 -0.865 0.479 20 16 13 0 0
-0.0994 -0.0589 -0.5911 -0.039 -0.939 0.343 23 18 15 0 0
-0.0987 -0.0596 -0.5927 -0.016 -0.877 0.480 25 20 17 0 0
-0.0315 -0.1227 -0.6571 0.879 -0.477 -0.010 173 154 111 0 0
-0.0326 -0.1254 -0.6954 0.603 -0.669 0.435 170 152 103 0 0
-0.0328 -0.1280 -0.7257 0.809 -0.584 0.066 161 141 93 0 0
-0.0479 -0.1193 -0.7703 0.038 -0.998 -0.058 97 84 54 0 0
-0.0392 -0.1301 -0.8063 0.632 -0.654 0.416 165 145 95 0 0
-0.0385 -0.1314 -0.8142 0.741 -0.660 0.119 170 149 101 0 0
-0.0389 -0.1313 -0.8166 0.821 -0.502 0.272 172 152 104 0 0
-0.0403 -0.1308 -0.8245 0.692 -0.443 0.570 174 156 107 0 0
-0.0412 -0.1319 -0.8448 0.864 -0.493 0.103 158 140 100 0 0
-0.0419 -0.1316 -0.8477 0.902 -0.426 -0.075 158 142 101 0 0
-0.0446 -0.1310 -0.8657 0.913 -0.197 0.358 75 71 60 0 0
-0.0260 -0.0897 -0.2299 -0.162 -0.548 0.821 137 127 107 0 0
-0.0092 -0.1077 -0.2700 0.902 -0.431 0.011 69 52 28 0 0
-0.0107 -0.1070 -0.2766 0.892 -0.445 0.081 103 87 60 0 0
-0.0790 -0.0586 -0.3771 0.462 -0.455 -0.761 27 21 18 0 0
-0.0826 -0.0562 -0.3839 0.256 -0.929 0.266 41 34 28 0 0
-0.0821 -0.0622 -0.4439 0.892 -0.451 -0.045 82 70 55 0 0
-0.0825 -0.0658 -0.4862 0.642 -0.570 0.513 70 55 36 0 0
-0.1092 -0.0491 -0.5494 0.416 -0.742 0.525 6 4 5 0 0
-0.1120 -0.0495 -0.5787 0.818 -0.353 0.454 6 4 5 0 0
-0.1090 -0.0520 -0.5787 0.977 0.036 0.210 8 6 7 0 0
-0.0334 -0.1229 -0.6517 0.728 -0.648 0.224 185 171 124 0 0
-0.0328 -0.1235 -0.6532 0.782 -0.471 0.409 176 160 114 0 0
-0.0317 -0.1246 -0.6542 0.903 -0.430 0.009 184 168 117 0 0
-0.0318 -0.1247 -0.6563 0.870 -0.483 0.096 171 153 105 0 0
-0.0320 -0.1306 -0.7218 0.855 -0.347 0.385 176 156 111 0 0
-0.0330 -0.1304 -0.7288 0.444 -0.740 0.505 178 160 112 0 0
-0.0449 -0.1235 -0.7621 0.369 -0.819 -0.439 117 103 64 0 0
-0.0498 -0.1200 -0.7687 0.144 -0.989 -0.033 95 81 48 0 0
-0.0494 -0.1204 -0.7704 -0.020 -0.981 0.193 92 80 52 0 0
-0.0532 -0.1178 -0.7760 0.187 -0.954 0.234 95 84 54 0 0
-0.0529 -0.1182 -0.7779 0.187 -0.954 0.234 112 101 73 0 0
-0.0417 -0.1336 -0.8418 0.861 -0.509 -0.025 161 144 101 0 0
-0.0419 -0.1337 -0.8442 0.855 -0.514 0.071 160 143 100 0 0
-0.0424 -0.1336 -0.8468 0.948 -0.304 -0.092 141 125 82 0 0
-0.0468 -0.1309 -0.8578 0.816 -0.450 -0.364 127 114 84 0 0
-0.0447 -0.1326 -0.8579 0.930 -0.257 -0.263 73 66 50 0 0
-0.0108 -0.1074 -0.2595 0.768 -0.500 0.400 53 37 22 0 0
-0.0113 -0.1136 -0.3307 0.819 -0.570 0.061 112 99 66 0 0
-0.0798 -0.0601 -0.3768 0.241 -0.826 -0.509 29 21 18 0 0
-0.0868 -0.0549 -0.3852 0.937 0.026 0.348 33 26 21 0 0
-0.0810 -0.0706 -0.4993 0.463 -0.828 0.316 44 35 29 0 0
-0.1118 -0.0493 -0.5501 0.377 -0.566 0.733 6 4 5 0 0
-0.1139 -0.0484 -0.5593 0.621 -0.755 0.209 7 5 6 0 0
-0.1142 -0.0484 -0.5614 0.392 -0.251 0.885 7 5 6 0 0
-0.1129 -0.0496 -0.5626 0.448 -0.221 0.866 9 7 8 0 0
-0.1129 -0.0498 -0.5645 0.932 -0.301 0.202 10 8 9 0 0
-0.1130 -0.0498 -0.5666 0.917 -0.293 -0.271 8 6 7 0 0
-0.1128 -0.0502 -0.5684 0.883 -0.422 -0.207 6 4 5 0 0
-0.1117 -0.0518 -0.5756 0.044 0.051 0.998 6 4 5 0 0
-0.1089 -0.0545 -0.5798 0.898 0.256 0.358 9 7 8 0 0
-0.0290 -0.1243 -0.6033 0.766 -0.640 0.059 157 138 92 0 0
-0.0348 -0.1238 -0.6499 0.782 -0.547 0.299 148 131 83 0 0
-0.0340 -0.1246 -0.6512 0.756 -0.376 0.535 173 156 112 0 0
-0.0338 -0.1249 -0.6529 0.782 -0.471 0.409 179 163 117 0 0
-0.0333 -0.1255 -0.6545 0.782 -0.471 0.409 178 161 113 0 0
-0.0334 -0.1264 -0.6643 0.786 -0.539 0.303 180 162 116 0 0
-0.0334 -0.1303 -0.7058 0.822 -0.510 0.254 173 153 104 0 0
-0.0344 -0.1305 -0.7167 0.632 -0.774 0.044 172 157 113 0 0
-0.0341 -0.1308 -0.7185 0.689 -0.702 0.183 104 87 54 0 0
-0.0328 -0.1322 -0.7214 0.796 -0.381 0.470 166 146 101 0 0
-0.0523 -0.1203 -0.7698 -0.081 -0.979 0.185 88 78 49 0 0
-0.0223 -0.0972 -0.2341 -0.186 -0.648 0.739 144 133 113 0 0
-0.0205 -0.0988 -0.2350 -0.186 -0.648 0.739 141 129 109 0 0
-0.0118 -0.1085 -0.2594 0.833 -0.485 0.268 51 35 19 0 0
-0.0115 -0.1090 -0.2623 0.857 -0.297 0.422 69 52 32 0 0
-0.0112 -0.1094 -0.2637 0.906 -0.343 0.247 69 51 30 0 0
-0.0111 -0.1099 -0.2682 0.827 -0.562 -0.012 66 49 27 0 0
-0.0112 -0.1101 -0.2713 0.824 -0.560 0.083 76 60 34 0 0
-0.0850 -0.0582 -0.3803 0.634 -0.593 0.496 35 26 22 0 0
-0.0845 -0.0588 -0.3818 0.634 -0.593 0.496 47 39 35 0 0
-0.0961 -0.0572 -0.4681 0.504 -0.014 0.864 20 20 19 0 0
-0.0852 -0.0679 -0.4843 0.635 -0.641 0.431 59 44 27 0 0
-0.0845 -0.0686 -0.4857 0.673 -0.556 0.488 72 57 38 0 0
-0.0825 -0.0710 -0.4939 0.715 -0.687 0.125 68 56 35 0 0
-0.1005 -0.0585 -0.5212 0.211 -0.755 -0.620 23 22 18 0 0
-0.1030 -0.0567 -0.5246 0.154 -0.799 -0.581 29 28 25 0 0
-0.1138 -0.0504 -0.5544 0.276 -0.835 -0.475 7 7 7 0 0
-0.1170 -0.0488 -0.5663 -0.067 -0.964 -0.256 8 6 7 0 0
-0.1181 -0.0482 -0.5689 -0.057 -0.980 -0.192 7 5 6 0 0
-0.1181 -0.0484 -0.5709 -0.083 -0.980 -0.182 6 4 5 0 0
-0.0248 -0.1265 -0.5659 0.502 -0.849 0.164 118 100 70 0 0
-0.0299 -0.1256 -0.6011 0.837 -0.541 0.081 161 143 99 0 0
-0.0299 -0.1258 -0.6030 0.837 -0.541 0.081 172 154 106 0 0
-0.0313 -0.1262 -0.6192 0.910 -0.387 0.148 175 156 114 0 0
-0.0313 -0.1263 -0.6211 0.771 -0.633 -0.064 171 151 109 0 0
-0.0333 -0.1249 -0.6246 0.910 -0.397 0.118 164 143 105 0 0
-0.0315 -0.1265 -0.6251 0.873 -0.488 0.025 162 140 102 0 0
-0.0316 -0.1277 -0.6386 0.897 -0.373 0.239 156 136 92 0 0
-0.0344 -0.1278 -0.6641 0.786 -0.539 0.303 168 150 103 0 0
-0.0339 -0.1283 -0.6656 0.819 -0.427 0.385 166 148 101 0 0
-0.0490 -0.1342 -0.8617 0.961 -0.252 0.109 41 40 29 0 0
-0.0486 -0.1347 -0.8635 0.937 -0.236 0.255 22 23 18 0 0
-0.0483 -0.1352 -0.8653 0.937 -0.236 0.255 41 40 30 0 0
-0.0211 -0.1003 -0.2348 0.015 -0.756 0.655 149 137 118 0 0
-0.0208 -0.1007 -0.2362 -0.036 -0.902 0.430 141 130 108 0 0
-0.0850 -0.0605 -0.3814 0.718 -0.589 0.371 46 39 37 0 0
-0.0806 -0.0687 -0.4286 0.874 -0.455 0.170 96 81 58 0 0
-0.0928 -0.0610 -0.4547 0.516 -0.446 -0.731 33 29 30 0 0
-0.0865 -0.0691 -0.4843 0.635 -0.641 0.431 54 40 23 0 0
-0.0860 -0.0697 -0.4858 0.635 -0.641 0.431 57 42 22 0 0
-0.0856 -0.0701 -0.4875 0.698 -0.669 0.256 66 51 32 0 0
-0.1090 -0.0545 -0.5293 0.194 -0.755 -0.626 55 54 52 0 0
-0.1173 -0.0485 -0.5401 0.165 -0.981 -0.098 18 16 16 0 0
-0.1177 -0.0483 -0.5423 0.165 -0.981 -0.098 6 4 5 0 0
-0.1193 -0.0473 -0.5452 0.378 -0.859 -0.345 6 6 6 0 0
-0.1199 -0.0470 -0.5475 0.419 -0.884 -0.207 6 6 6 0 0
-0.1165 -0.0510 -0.5592 -0.248 -0.969 0.022 8 6 7 0 0
-0.1172 -0.0506 -0.5615 -0.226 -0.974 -0.026 7 5 6 0 0
-0.1170 -0.0511 -0.5654 -0.272 -0.958 -0.088 8 6 7 0 0
-0.1179 -0.0507 -0.5679 -0.272 -0.958 -0.088 6 4 5 0 0
-0.0341 -0.1265 -0.6242 0.910 -0.397 0.118 154 132 95 0 0
-0.0344 -0.1264 -0.6263 0.938 -0.340 0.075 153 131 91 0 0
-0.0338 -0.1270 -0.6278 0.910 -0.397 0.118 159 137 96 0 0
-0.0323 -0.1293 -0.6381 0.904 -0.416 0.099 160 139 95 0 0
-0.0348 -0.1298 -0.6653 0.819 -0.427 0.385 175 157 108 0 0
-0.0319 -0.1328 -0.6707 0.947 -0.283 0.152 160 141 94 0 0
-0.0334 -0.1329 -0.6857 0.732 -0.662 0.161 97 76 41 0 0
-0.0335 -0.1333 -0.6898 0.770 -0.628 0.115 136 114 74 0 0
-0.0332 -0.1336 -0.6915 0.755 -0.628 0.186 140 119 81 0 0
-0.0591 -0.1201 -0.7777 0.471 -0.825 0.311 34 23 6 0 0
-0.0587 -0.1206 -0.7795 0.471 -0.825 0.311 35 25 8 0 0
-0.0424 -0.1395 -0.8341 0.832 -0.444 0.332 122 108 73 0 0
-0.0253 -0.0988 -0.2357 -0.040 -0.495 0.868 141 127 106 0 0
-0.0148 -0.1136 -0.2978 0.773 -0.592 0.228 56 45 32 0 0
-0.0132 -0.1157 -0.3065 0.793 -0.527 0.305 101 86 57 0 0
-0.0854 -0.0623 -0.3810 0.749 -0.562 0.351 19 14 13 0 0
-0.0844 -0.0693 -0.4442 0.976 -0.212 -0.044 73 62 46 0 0
-0.0883 -0.0691 -0.4772 0.698 -0.648 0.304 54 41 26 0 0
-0.0986 -0.0643 -0.5166 0.515 -0.338 -0.788 15 11 8 0 0
-0.1076 -0.0576 -0.5257 0.309 -0.627 -0.715 59 58 55 0 0
-0.1116 -0.0547 -0.5300 0.220 -0.719 -0.659 30 29 27 0 0
-0.1149 -0.0523 -0.5339 0.178 -0.787 -0.590 50 49 47 0 0
-0.1202 -0.0487 -0.5430 0.199 -0.970 -0.137 8 6 7 0 0
-0.1208 -0.0496 -0.5570 -0.032 -0.999 0.017 8 8 8 0 0
-0.1212 -0.0496 -0.5612 -0.031 -0.998 -0.058 9 7 8 0 0
-0.1237 -0.0482 -0.5687 -0.063 -0.984 -0.167 6 4 5 0 0
-0.0330 -0.1310 -0.6376 0.791 -0.574 0.211 168 147 102 0 0
-0.0328 -0.1313 -0.6394 0.791 -0.574 0.211 162 141 96 0 0
-0.0331 -0.1340 -0.6707 0.896 -0.417 0.153 173 153 107 0 0
-0.0329 -0.1345 -0.6744 0.847 -0.527 -0.070 142 123 88 0 0
-0.0346 -0.1346 -0.6896 0.770 -0.628 0.115 126 106 69 0 0
-0.0341 -0.1352 -0.6912 0.704 -0.576 0.415 159 137 98 0 0
-0.0566 -0.1235 -0.7658 0.373 -0.817 -0.440 85 74 48 0 0
-0.0467 -0.1364 -0.8134 0.481 -0.853 0.201 92 78 47 0 0
-0.0457 -0.1377 -0.8189 0.731 -0.602 0.321 161 145 96 0 0
-0.0451 -0.1385 -0.8226 0.697 -0.642 0.319 160 140 90 0 0
-0.0492 -0.1386 -0.8591 0.622 -0.776 -0.106 82 73 56 0 0
-0.0493 -0.1387 -0.8614 0.512 -0.576 0.637 35 34 26 0 0
-0.0488 -0.1394 -0.8630 0.609 -0.643 0.464 32 31 22 0 0
-0.0236 -0.1024 -0.2378 0.081 -0.883 0.461 135 121 101 0 0
-0.0148 -0.1130 -0.2713 0.607 -0.766 0.210 77 61 35 0 0
-0.0137 -0.1140 -0.2724 0.680 -0.732 -0.040 71 57 31 0 0
-0.0150 -0.1155 -0.2990 0.744 -0.594 0.307 81 72 53 0 0
-0.0142 -0.1183 -0.3204 0.738 -0.613 0.281 89 74 45 0 0
-0.0202 -0.1148 -0.3372 0.714 -0.664 -0.219 132 115 78 0 0
-0.0864 -0.0637 -0.3809 0.749 -0.562 0.351 22 18 17 0 0
-0.0834 -0.0693 -0.4127 0.887 -0.385 0.253 68 54 38 0 0
-0.0847 -0.0712 -0.4436 0.889 -0.399 -0.223 88 78 60 0 0
-0.0891 -0.0707 -0.4768 0.615 -0.419 0.668 53 42 28 0 0
-0.0865 -0.0741 -0.4902 0.631 -0.590 0.504 66 51 34 0 0
-0.1111 -0.0571 -0.5270 0.252 -0.641 -0.725 57 56 53 0 0
-0.1153 -0.0541 -0.5314 0.078 -0.818 -0.569 41 40 38 0 0
-0.1183 -0.0519 -0.5351 -0.031 -0.892 -0.451 19 18 16 0 0
-0.1204 -0.0505 -0.5383 -0.201 -0.969 -0.143 8 7 5 0 0
-0.1232 -0.0497 -0.5537 -0.204 -0.976 0.079 4 4 4 0 0
-0.1232 -0.0498 -0.5557 -0.215 -0.973 0.082 7 7 7 0 0
-0.1233 -0.0500 -0.5577 -0.204 -0.976 0.079 6 6 6 0 0
-0.1239 -0.0497 -0.5600 -0.203 -0.972 0.121 7 5 6 0 0
-0.1246 -0.0493 -0.5625 -0.113 -0.993 -0.022 7 5 6 0 0
-0.1282 -0.0472 -0.5727 -0.146 -0.984 -0.100 23 21 22 0 0
-0.1288 -0.0472 -0.5770 0.938 0.343 -0.047 13 11 12 0 0
-0.1270 -0.0488 -0.5779 0.821 0.487 0.299 9 7 8 0 0
-0.0340 -0.1355 -0.6703 0.887 -0.453 0.084 165 145 101 0 0
-0.0342 -0.1357 -0.6744 0.894 -0.422 0.148 155 138 95 0 0
-0.0360 -0.1350 -0.6818 0.855 -0.510 -0.091 147 132 92 0 0
-0.0366 -0.1366 -0.7041 0.855 -0.517 0.044 168 150 102 0 0
-0.0614 -0.1233 -0.7816 0.329 -0.813 0.481 55 43 24 0 0
-0.0536 -0.1324 -0.8082 0.731 -0.629 0.264 103 88 59 0 0
-0.0486 -0.1372 -0.8140 0.505 -0.640 0.579 90 75 45 0 0
-0.0467 -0.1394 -0.8207 0.697 -0.642 0.319 153 135 90 0 0
-0.0504 -0.1401 -0.8589 0.848 -0.530 0.006 104 94 68 0 0
-0.0506 -0.1401 -0.8613 0.960 -0.242 -0.143 48 45 31 0 0
-0.0510 -0.1400 -0.8639 0.960 -0.242 -0.143 33 31 19 0 0
-0.0489 -0.1418 -0.8639 0.279 -0.481 0.831 53 51 40 0 0
-0.0301 -0.0990 -0.2379 0.036 -0.803 0.594 137 125 106 0 0
-0.0260 -0.1024 -0.2381 0.149 -0.793 0.591 139 124 103 0 0
-0.0250 -0.1034 -0.2393 0.134 -0.917 0.376 132 118 101 0 0
-0.0241 -0.1042 -0.2406 0.181 -0.951 0.251 132 116 99 0 0
-0.0235 -0.1049 -0.2419 0.186 -0.823 0.537 138 120 95 0 0
-0.0161 -0.1139 -0.2713 0.585 -0.711 0.392 73 57 31 0 0
-0.0157 -0.1144 -0.2726 0.585 -0.711 0.392 66 50 27 0 0
-0.0241 -0.1089 -0.2895 -0.034 -0.876 0.481 51 48 43 0 0
-0.0152 -0.1196 -0.3219 0.750 -0.543 0.378 94 79 48 0 0
-0.0839 -0.0708 -0.4106 0.818 -0.574 0.032 59 44 28 0 0
-0.0896 -0.0725 -0.4764 0.635 -0.558 0.535 43 32 22 0 0
-0.0892 -0.0730 -0.4780 0.768 -0.576 0.278 49 35 23 0 0
-0.1271 -0.0489 -0.5552 -0.170 -0.966 -0.195 29 29 29 0 0
-0.1281 -0.0483 -0.5578 -0.199 -0.972 -0.128 42 42 42 0 0
-0.1297 -0.0477 -0.5647 -0.247 -0.969 0.021 33 33 33 0 0
-0.0306 -0.1298 -0.5591 0.897 -0.428 0.110 149 130 89 0 0
-0.0326 -0.1329 -0.6088 0.889 -0.323 0.325 176 163 120 0 0
-0.0334 -0.1340 -0.6264 0.941 -0.313 0.125 185 170 124 0 0
-0.0342 -0.1369 -0.6636 0.901 -0.405 0.154 161 141 90 0 0
-0.0388 -0.1342 -0.6752 0.807 -0.535 0.251 146 126 83 0 0
-0.0370 -0.1383 -0.7013 0.936 -0.316 0.153 153 131 90 0 0
-0.0662 -0.1210 -0.7742 0.074 -0.962 0.264 79 67 50 0 0
-0.0659 -0.1214 -0.7760 0.106 -0.954 0.281 81 68 51 0 0
-0.0651 -0.1222 -0.7774 0.411 -0.911 0.023 82 71 51 0 0
-0.0650 -0.1225 -0.7794 0.128 -0.895 0.427 100 88 64 0 0
-0.0644 -0.1232 -0.7810 0.169 -0.902 0.397 86 74 48 0 0
-0.0639 -0.1238 -0.7826 0.169 -0.902 0.397 85 73 49 0 0
-0.0577 -0.1302 -0.7960 0.724 -0.523 0.450 60 45 26 0 0
-0.0566 -0.1314 -0.7991 0.567 -0.660 0.492 56 43 21 0 0
-0.0468 -0.1422 -0.8259 0.651 -0.668 0.362 146 130 88 0 0
-0.0445 -0.1445 -0.8300 0.894 -0.429 0.127 156 137 95 0 0
-0.0447 -0.1446 -0.8323 0.869 -0.494 -0.040 159 142 99 0 0
-0.0514 -0.1418 -0.8608 0.944 -0.327 -0.050 60 56 41 0 0
-0.0294 -0.1016 -0.2388 -0.202 -0.774 0.600 138 123 103 0 0
-0.0260 -0.1046 -0.2408 0.444 -0.743 0.501 134 120 104 0 0
-0.0256 -0.1051 -0.2422 0.355 -0.608 0.710 127 114 93 0 0
-0.0289 -0.1068 -0.2877 -0.194 -0.977 -0.088 73 70 65 0 0
-0.1326 -0.0466 -0.5538 -0.225 -0.968 0.108 43 43 44 0 0
-0.0314 -0.1313 -0.5587 0.897 -0.428 0.110 148 129 88 0 0
-0.0344 -0.1348 -0.6205 0.791 -0.602 0.106 148 127 82 0 0
-0.0342 -0.1353 -0.6242 0.791 -0.602 0.106 168 151 103 0 0
-0.0342 -0.1355 -0.6261 0.898 -0.407 0.171 180 165 115 0 0
-0.0398 -0.1356 -0.6749 0.807 -0.535 0.251 162 145 98 0 0
-0.0378 -0.1398 -0.7009 0.881 -0.454 0.134 153 130 90 0 0
-0.0370 -0.1410 -0.7062 0.774 -0.586 0.240 164 146 104 0 0
-0.0374 -0.1412 -0.7105 0.845 -0.419 0.333 127 108 73 0 0
-0.0373 -0.1414 -0.7125 0.870 -0.472 0.145 119 101 69 0 0
-0.0626 -0.1253 -0.7634 0.176 -0.851 -0.494 93 81 56 0 0
-0.0658 -0.1250 -0.7874 0.485 -0.616 0.621 98 86 63 0 0
-0.0602 -0.1304 -0.7949 0.573 -0.652 0.496 103 89 62 0 0
-0.0596 -0.1311 -0.7965 0.627 -0.567 0.535 102 88 63 0 0
-0.0483 -0.1432 -0.8239 0.635 -0.707 0.312 122 104 67 0 0
-0.0527 -0.1431 -0.8607 0.856 -0.492 0.162 74 68 52 0 0
-0.0521 -0.1437 -0.8623 0.933 -0.341 -0.112 35 33 25 0 0
-0.0493 -0.1464 -0.8660 0.805 -0.480 0.349 117 113 108 0 0
-0.0493 -0.1468 -0.8703 0.925 0.157 0.347 163 162 160 0 0
-0.0300 -0.1034 -0.2416 0.153 -0.453 0.878 129 114 97 0 0
-0.0848 -0.0751 -0.4168 0.797 -0.522 0.304 82 70 47 0 0
-0.0848 -0.0753 -0.4185 0.824 -0.372 0.427 86 73 49 0 0
-0.0843 -0.0759 -0.4200 0.855 -0.312 0.414 90 75 52 0 0
-0.0913 -0.0760 -0.4795 0.712 -0.508 0.485 51 38 26 0 0
-0.0907 -0.0774 -0.4903 0.609 -0.539 0.582 54 40 26 0 0
-0.0329 -0.1309 -0.5462 0.936 -0.258 0.240 131 114 82 0 0
-0.0321 -0.1331 -0.5620 0.864 -0.500 0.062 152 132 98 0 0
-0.0353 -0.1364 -0.6221 0.862 -0.455 0.223 160 142 98 0 0
-0.0352 -0.1367 -0.6239 0.876 -0.438 0.202 161 145 95 0 0
-0.0374 -0.1373 -0.6486 0.659 -0.580 0.479 169 151 104 0 0
-0.0371 -0.1377 -0.6503 0.844 -0.414 0.341 163 142 94 0 0
-0.0404 -0.1371 -0.6724 0.847 -0.506 0.161 126 111 68 0 0
-0.0408 -0.1371 -0.6746 0.727 -0.658 0.198 159 141 92 0 0
-0.0409 -0.1371 -0.6768 0.922 -0.218 0.319 148 131 85 0 0
-0.0407 -0.1377 -0.6805 0.918 -0.396 0.002 139 119 76 0 0
-0.0382 -0.1427 -0.7101 0.841 -0.370 0.396 147 130 99 0 0
-0.0387 -0.1425 -0.7126 0.618 -0.697 0.365 90 73 46 0 0
-0.0441 -0.1401 -0.7334 0.448 -0.878 -0.166 142 126 89 0 0
-0.0687 -0.1249 -0.7867 0.954 -0.237 0.182 101 90 70 0 0
-0.0685 -0.1253 -0.7886 0.951 -0.165 0.263 106 94 71 0 0
-0.0521 -0.1415 -0.8156 0.505 -0.640 0.579 90 74 43 0 0
-0.0495 -0.1447 -0.8259 0.647 -0.726 0.235 132 115 77 0 0
-0.0536 -0.1447 -0.8603 0.856 -0.492 0.162 84 76 56 0 0
-0.0530 -0.1458 -0.8662 0.861 -0.449 0.238 65 61 53 0 0
-0.0504 -0.1479 -0.8657 0.796 -0.401 0.453 107 102 96 0 0
-0.0505 -0.1480 -0.8680 0.497 -0.271 0.824 144 140 137 0 0
-0.0205 -0.1139 -0.2488 0.411 -0.737 0.538 134 118 92 0 0
-0.0328 -0.1074 -0.2866 -0.274 -0.711 0.647 79 73 66 0 0
-0.0343 -0.1068 -0.2918 -0.186 -0.649 0.738 84 78 72 0 0
-0.0187 -0.1225 -0.3203 0.802 -0.521 0.291 97 83 51 0 0
-0.0193 -0.1222 -0.3221 0.643 -0.376 0.667 96 81 49 0 0
-0.0859 -0.0757 -0.4096 0.785 -0.431 0.446 56 43 27 0 0
-0.0921 -0.0786 -0.4903 0.715 -0.510 0.478 51 37 22 0 0
-0.0919 -0.0789 -0.4920 0.842 -0.395 0.366 55 42 25 0 0
-0.0338 -0.1321 -0.5441 0.930 -0.190 0.313 134 118 86 0 0
-0.0367 -0.1375 -0.6222 0.788 -0.504 0.353 168 151 105 0 0
-0.0363 -0.1380 -0.6238 0.788 -0.504 0.353 177 162 114 0 0
-0.0378 -0.1390 -0.6460 0.910 -0.395 0.128 163 146 102 0 0
-0.0362 -0.1407 -0.6505 0.502 -0.613 0.610 158 138 88 0 0
-0.0413 -0.1386 -0.6721 0.797 -0.579 0.174 138 119 73 0 0
-0.0411 -0.1389 -0.6739 0.797 -0.579 0.174 160 140 93 0 0
-0.0392 -0.1437 -0.7059 0.808 -0.570 0.149 153 136 92 0 0
-0.0389 -0.1441 -0.7076 0.773 -0.623 0.122 161 143 101 0 0
-0.0398 -0.1437 -0.7103 0.732 -0.597 0.328 105 87 59 0 0
-0.0636 -0.1326 -0.7977 0.118 -0.906 0.406 75 58 32 0 0
-0.0630 -0.1333 -0.7992 0.091 -0.852 0.516 96 81 52 0 0
-0.0531 -0.1475 -0.8606 0.812 -0.581 0.052 40 37 28 0 0
-0.0223 -0.1144 -0.2490 0.454 -0.619 0.641 130 114 92 0 0
-0.0191 -0.1172 -0.2510 0.581 -0.783 0.224 126 110 88 0 0
-0.0189 -0.1175 -0.2524 0.596 -0.763 0.250 152 138 106 0 0
-0.0184 -0.1180 -0.2538 0.580 -0.701 0.416 136 123 93 0 0
-0.0332 -0.1105 -0.3003 0.146 -0.493 0.858 69 67 58 0 0
-0.0193 -0.1243 -0.3231 0.643 -0.579 0.500 96 83 49 0 0
-0.0187 -0.1249 -0.3245 0.546 -0.654 0.523 90 75 44 0 0
-0.0875 -0.0766 -0.4097 0.791 -0.536 0.296 59 46 30 0 0
-0.0872 -0.0770 -0.4114 0.791 -0.536 0.296 64 51 34 0 0
-0.0916 -0.0775 -0.4528 0.652 -0.722 0.234 43 38 29 0 0
-0.0914 -0.0778 -0.4545 0.652 -0.722 0.234 52 48 40 0 0
-0.0903 -0.0791 -0.4575 0.732 -0.660 -0.168 58 51 42 0 0
-0.0912 -0.0787 -0.4616 0.775 -0.621 -0.119 49 42 34 0 0
-0.0915 -0.0786 -0.4636 0.775 -0.621 -0.119 62 55 42 0 0
-0.0937 -0.0793 -0.4886 0.821 -0.569 0.037 58 45 29 0 0
-0.0937 -0.0795 -0.4904 0.465 -0.764 0.448 51 38 23 0 0
-0.0447 -0.1243 -0.5341 0.181 -0.972 -0.150 90 85 73 0 0
-0.0461 -0.1234 -0.5368 0.177 -0.953 -0.248 87 80 63 0 0
-0.0334 -0.1366 -0.5630 0.809 -0.586 -0.043 155 137 97 0 0
-0.0330 -0.1374 -0.5682 0.789 -0.568 0.234 143 128 90 0 0
-0.0382 -0.1394 -0.6319 0.921 -0.324 0.215 173 155 110 0 0
-0.0379 -0.1416 -0.6508 0.440 -0.773 0.456 163 143 93 0 0
-0.0410 -0.1421 -0.6826 0.817 -0.466 0.340 176 159 116 0 0
-0.0395 -0.1447 -0.6950 0.905 -0.424 0.047 123 106 67 0 0
-0.0647 -0.1343 -0.7996 -0.100 -0.896 0.432 109 94 63 0 0
-0.0627 -0.1360 -0.7998 0.119 -0.913 0.391 128 113 82 0 0
-0.0654 -0.1353 -0.8151 0.729 -0.645 0.228 72 59 31 0 0
-0.0627 -0.1379 -0.8190 0.687 -0.711 0.150 101 86 59 0 0
-0.0486 -0.1516 -0.8394 0.581 -0.766 0.276 144 129 92 0 0
-0.0533 -0.1499 -0.8615 0.768 -0.639 -0.029 31 29 23 0 0
-0.0535 -0.1499 -0.8639 0.833 -0.554 0.011 44 41 32 0 0
-0.0524 -0.1509 -0.8650 0.368 -0.929 -0.039 88 84 76 0 0
-0.0151 -0.1236 -0.2628 0.714 -0.606 0.352 63 46 26 0 0
-0.0157 -0.1233 -0.2645 0.693 -0.550 0.466 61 44 23 0 0
-0.0172 -0.1266 -0.3093 0.882 -0.427 0.202 89 74 45 0 0
-0.0204 -0.1252 -0.3215 0.733 -0.679 -0.038 90 76 42 0 0
-0.0204 -0.1254 -0.3231 0.688 -0.630 0.360 97 84 50 0 0
-0.0199 -0.1259 -0.3244 0.546 -0.654 0.523 90 75 44 0 0
-0.0859 -0.0789 -0.3979 0.774 -0.580 0.252 23 18 15 0 0
-0.0911 -0.0804 -0.4554 0.863 -0.496 -0.101 68 60 46 0 0
-0.0913 -0.0804 -0.4573 0.863 -0.496 -0.101 62 54 40 0 0
-0.0916 -0.0804 -0.4593 0.720 -0.674 -0.167 87 79 66 0 0
-0.0927 -0.0797 -0.4617 0.683 -0.722 -0.113 71 63 51 0 0
-0.0953 -0.0805 -0.4906 0.387 -0.813 0.436 51 41 28 0 0
-0.0343 -0.1379 -0.5628 0.809 -0.586 -0.043 150 131 91 0 0
-0.0350 -0.1389 -0.5779 0.910 -0.398 0.118 136 115 76 0 0
-0.0363 -0.1396 -0.5956 0.930 -0.336 0.148 150 130 86 0 0
-0.0390 -0.1411 -0.6334 0.859 -0.458 0.230 154 135 89 0 0
-0.0388 -0.1415 -0.6352 0.859 -0.458 0.230 177 161 115 0 0
-0.0391 -0.1430 -0.6527 0.707 -0.682 0.186 160 142 93 0 0
-0.0395 -0.1429 -0.6549 0.703 -0.711 -0.013 147 130 80 0 0
-0.0419 -0.1437 -0.6822 0.879 -0.416 0.235 164 147 102 0 0
-0.0413 -0.1443 -0.6837 0.730 -0.590 0.345 157 146 103 0 0
-0.0400 -0.1458 -0.6885 0.730 -0.518 0.447 133 111 74 0 0
-0.0653 -0.1363 -0.8010 0.007 -0.997 0.080 102 86 55 0 0
-0.0674 -0.1360 -0.8158 0.775 -0.571 0.271 96 84 54 0 0
-0.0646 -0.1385 -0.8174 0.763 -0.491 0.419 88 74 44 0 0
-0.0641 -0.1391 -0.8191 0.763 -0.491 0.419 111 96 67 0 0
-0.0630 -0.1403 -0.8223 0.745 -0.566 0.352 103 87 61 0 0
-0.0563 -0.1497 -0.8611 0.694 -0.715 -0.085 81 75 59 0 0
-0.0552 -0.1508 -0.8620 0.482 -0.863 0.153 40 36 27 0 0
-0.0240 -0.1173 -0.2532 0.212 -0.851 0.481 166 153 120 0 0
-0.0173 -0.1285 -0.3089 0.654 -0.674 0.344 83 67 41 0 0
-0.0198 -0.1280 -0.3255 0.739 -0.633 0.231 91 75 45 0 0
-0.0198 -0.1282 -0.3271 0.783 -0.542 0.305 104 90 59 0 0
-0.0195 -0.1286 -0.3285 0.804 -0.505 0.314 97 84 52 0 0
-0.0192 -0.1290 -0.3299 0.757 -0.505 0.415 102 89 55 0 0
-0.0869 -0.0805 -0.3994 0.800 -0.576 0.168 24 19 16 0 0
-0.0884 -0.0821 -0.4283 0.784 -0.613 0.093 96 82 58 0 0
-0.0881 -0.0825 -0.4299 0.777 -0.595 0.203 98 83 60 0 0
-0.0373 -0.1418 -0.6047 0.787 -0.604 0.124 158 140 96 0 0
-0.0372 -0.1421 -0.6065 0.787 -0.604 0.124 134 117 73 0 0
-0.0363 -0.1430 -0.6077 0.739 -0.459 0.492 171 154 110 0 0
-0.0398 -0.1446 -0.6522 0.882 -0.469 0.042 156 139 89 0 0
-0.0730 -0.1321 -0.7984 0.248 -0.850 0.466 121 106 73 0 0
-0.0686 -0.1375 -0.8156 0.775 -0.571 0.271 116 102 73 0 0
-0.0652 -0.1406 -0.8188 0.763 -0.491 0.419 102 87 54 0 0
-0.0567 -0.1489 -0.8319 0.484 -0.868 0.110 101 83 53 0 0
-0.0567 -0.1491 -0.8341 0.583 -0.736 0.344 103 86 56 0 0
-0.0566 -0.1520 -0.8621 0.489 -0.782 0.386 49 43 34 0 0
-0.0562 -0.1525 -0.8639 0.487 -0.862 0.137 40 38 28 0 0
-0.0346 -0.1104 -0.2517 -0.278 -0.860 0.428 144 131 102 0 0
-0.0263 -0.1175 -0.2551 0.177 -0.878 0.446 167 154 122 0 0
-0.0170 -0.1304 -0.3067 0.747 -0.494 0.444 80 66 40 0 0
-0.0199 -0.1290 -0.3156 0.871 -0.458 0.180 89 74 44 0 0
-0.0880 -0.0815 -0.3976 0.800 -0.576 0.168 30 25 22 0 0
-0.0888 -0.0812 -0.4015 0.705 -0.691 0.161 34 29 26 0 0
-0.1000 -0.0803 -0.4824 0.738 -0.629 0.244 32 23 16 0 0
-0.0998 -0.0812 -0.4898 0.851 -0.525 0.024 32 25 17 0 0
-0.0977 -0.0847 -0.5071 0.638 -0.683 0.356 49 42 32 0 0
-0.0985 -0.0843 -0.5094 0.753 -0.649 0.105 50 43 33 0 0
-0.1029 -0.0815 -0.5176 0.252 -0.898 -0.360 50 45 39 0 0
-0.1012 -0.0833 -0.5223 0.470 -0.873 -0.131 37 33 28 0 0
-0.1016 -0.0832 -0.5244 0.470 -0.873 -0.131 36 32 29 0 0
-0.0345 -0.1388 -0.5304 0.601 -0.235 0.764 119 100 68 0 0
-0.0339 -0.1395 -0.5318 0.447 -0.639 0.626 124 105 72 0 0
-0.0371 -0.1443 -0.6055 0.760 -0.570 0.311 160 146 102 0 0
-0.0690 -0.1394 -0.8147 0.843 -0.529 0.091 118 103 74 0 0
-0.0668 -0.1419 -0.8212 0.432 -0.507 0.746 86 71 45 0 0
-0.0650 -0.1434 -0.8216 0.843 -0.482 0.239 98 83 51 0 0
-0.0582 -0.1500 -0.8321 0.472 -0.876 0.095 107 91 58 0 0
-0.0585 -0.1501 -0.8345 0.490 -0.827 0.276 122 106 72 0 0
-0.0589 -0.1500 -0.8371 0.421 -0.728 0.541 117 101 67 0 0
-0.0179 -0.1317 -0.3066 0.747 -0.494 0.444 79 64 39 0 0
-0.0204 -0.1300 -0.3107 0.800 -0.599 -0.038 79 63 37 0 0
-0.0207 -0.1301 -0.3139 0.800 -0.599 -0.038 84 69 40 0 0
-0.0206 -0.1303 -0.3154 0.849 -0.503 0.160 80 65 36 0 0
-0.0205 -0.1305 -0.3170 0.834 -0.540 0.111 92 77 48 0 0
-0.1077 -0.0804 -0.5234 0.662 -0.656 -0.362 52 47 41 0 0
-0.1085 -0.0800 -0.5258 0.701 -0.628 -0.339 37 34 29 0 0
-0.1094 -0.0796 -0.5282 0.777 -0.577 -0.251 40 37 32 0 0
-0.1105 -0.0791 -0.5327 0.796 -0.551 -0.251 30 29 26 0 0
-0.0344 -0.1405 -0.5260 0.670 -0.697 -0.255 125 109 75 0 0
-0.0351 -0.1402 -0.5282 0.859 -0.509 0.060 144 127 93 0 0
-0.0354 -0.1402 -0.5302 0.685 -0.657 0.313 132 113 80 0 0
-0.0353 -0.1404 -0.5319 0.442 -0.739 0.508 130 111 77 0 0
-0.0347 -0.1411 -0.5333 0.426 -0.782 0.456 104 86 49 0 0
-0.0385 -0.1469 -0.6206 0.715 -0.682 0.154 178 163 118 0 0
-0.0415 -0.1519 -0.6944 0.973 -0.230 0.022 151 131 85 0 0
-0.0413 -0.1523 -0.6962 0.971 -0.212 0.115 168 151 103 0 0
-0.0690 -0.1417 -0.8134 0.488 -0.611 0.623 103 88 57 0 0
-0.0556 -0.1574 -0.8605 0.739 -0.477 0.476 49 44 38 0 0
-0.0550 -0.1580 -0.8621 0.525 -0.714 0.463 72 68 59 0 0
-0.0554 -0.1580 -0.8646 0.603 -0.770 0.207 111 107 102 0 0
-0.0269 -0.1255 -0.2987 0.234 -0.295 0.927 67 62 56 0 0
-0.0267 -0.1258 -0.3002 0.713 -0.198 0.673 61 53 45 0 0
-0.0253 -0.1270 -0.3012 0.853 -0.520 0.044 81 72 59 0 0
-0.0217 -0.1311 -0.3123 0.813 -0.553 0.181 78 63 34 0 0
-0.0215 -0.1314 -0.3137 0.634 -0.588 0.502 85 70 41 0 0
-0.0210 -0.1319 -0.3151 0.720 -0.504 0.477 84 69 40 0 0
-0.0206 -0.1324 -0.3165 0.752 -0.480 0.451 87 72 43 0 0
-0.0192 -0.1336 -0.3175 0.788 -0.599 0.141 94 79 50 0 0
-0.0930 -0.0868 -0.4465 0.799 -0.232 0.555 88 76 54 0 0
-0.0960 -0.0858 -0.4606 0.857 -0.514 0.047 77 66 48 0 0
-0.1026 -0.0823 -0.4787 0.704 -0.704 0.091 38 33 23 0 0
-0.0992 -0.0860 -0.4879 0.570 -0.805 0.165 32 25 17 0 0
-0.0971 -0.0885 -0.4959 0.746 -0.600 0.291 24 19 13 0 0
-0.0973 -0.0886 -0.4979 0.778 -0.516 0.358 35 28 20 0 0
-0.0312 -0.1443 -0.5160 0.406 -0.913 -0.034 99 82 57 0 0
-0.0366 -0.1415 -0.5320 0.636 -0.750 0.183 130 112 75 0 0
-0.0366 -0.1417 -0.5337 0.661 -0.748 0.062 115 97 59 0 0
-0.0364 -0.1452 -0.5662 0.886 -0.457 0.076 120 100 66 0 0
-0.0370 -0.1462 -0.5813 0.897 -0.440 0.042 181 159 117 0 0
-0.0386 -0.1469 -0.6010 0.915 -0.350 0.199 170 151 109 0 0
-0.0399 -0.1478 -0.6188 0.848 -0.530 0.003 180 164 120 0 0
-0.0395 -0.1484 -0.6223 0.763 -0.516 0.389 186 168 123 0 0
-0.0393 -0.1488 -0.6240 0.787 -0.582 0.206 149 132 90 0 0
-0.0391 -0.1491 -0.6258 0.787 -0.582 0.206 177 160 115 0 0
-0.0404 -0.1503 -0.6477 0.856 -0.451 0.253 161 143 94 0 0
-0.0939 -0.1205 -0.7817 0.475 -0.546 0.690 78 70 49 0 0
-0.0928 -0.1215 -0.7828 0.442 -0.528 0.725 101 92 69 0 0
-0.0919 -0.1224 -0.7841 0.431 -0.644 0.632 99 91 71 0 0
-0.0912 -0.1231 -0.7856 0.475 -0.569 0.671 69 61 43 0 0
-0.0900 -0.1242 -0.7867 0.619 -0.631 0.468 75 68 49 0 0
-0.0878 -0.1262 -0.7890 0.114 -0.797 0.594 120 106 89 0 0
-0.0866 -0.1273 -0.7900 0.048 -0.831 0.555 82 69 50 0 0
-0.0706 -0.1434 -0.8201 0.157 -0.695 0.702 94 80 50 0 0
-0.0597 -0.1576 -0.8720 0.770 -0.567 0.294 172 172 170 0 0
-0.0593 -0.1581 -0.8738 0.834 -0.475 0.279 184 184 183 0 0
-0.0272 -0.1271 -0.2984 0.656 -0.309 0.689 71 66 61 0 0
-0.0263 -0.1280 -0.2996 0.861 -0.386 0.332 72 65 56 0 0
-0.0192 -0.1344 -0.3062 0.858 -0.407 0.313 82 65 40 0 0
-0.0219 -0.1330 -0.3134 0.784 -0.231 0.577 82 67 38 0 0
-0.0914 -0.0879 -0.4236 0.870 -0.485 0.090 89 77 51 0 0
-0.1005 -0.0881 -0.4971 0.753 -0.514 0.411 24 18 13 0 0
-0.1012 -0.0878 -0.4993 0.750 -0.270 0.603 27 20 13 0 0
-0.0382 -0.1461 -0.5684 0.727 -0.681 0.088 158 142 100 0 0
-0.0381 -0.1463 -0.5702 0.727 -0.681 0.088 158 140 99 0 0
-0.0379 -0.1477 -0.5810 0.952 -0.269 0.148 165 143 102 0 0
-0.0388 -0.1472 -0.5835 0.912 -0.410 0.026 171 151 109 0 0
-0.0401 -0.1505 -0.6256 0.787 -0.582 0.206 175 162 117 0 0
-0.0899 -0.1270 -0.7897 0.114 -0.797 0.594 96 82 61 0 0
-0.0728 -0.1441 -0.8209 0.182 -0.860 0.476 103 90 57 0 0
-0.0653 -0.1519 -0.8372 0.156 -0.922 0.354 137 122 86 0 0
-0.0613 -0.1587 -0.8723 0.556 -0.326 0.765 175 174 174 0 0
-0.0432 -0.1731 -0.8687 -0.054 0.152 0.987 201 200 198 0 0
-0.0271 -0.1291 -0.2979 0.972 -0.158 0.175 70 64 58 0 0
-0.0265 -0.1306 -0.3070 0.699 -0.570 0.431 72 56 33 0 0
-0.0204 -0.1367 -0.3185 0.724 -0.618 0.306 99 84 55 0 0
-0.0200 -0.1372 -0.3199 0.433 -0.746 0.506 94 79 50 0 0
-0.0239 -0.1355 -0.3341 0.844 -0.527 0.100 100 84 51 0 0
-0.0235 -0.1366 -0.3418 0.772 -0.633 0.050 101 84 52 0 0
-0.0229 -0.1387 -0.3574 0.068 -0.896 0.438 36 30 17 0 0
-0.1021 -0.0862 -0.4697 0.653 -0.687 0.317 38 28 20 0 0
-0.1030 -0.0858 -0.4720 0.898 -0.434 0.069 42 32 24 0 0
-0.1018 -0.0870 -0.4750 0.763 -0.578 0.290 39 32 26 0 0
-0.1035 -0.0861 -0.4796 0.658 -0.674 0.335 50 43 34 0 0
-0.0403 -0.1498 -0.6004 0.647 -0.703 0.295 160 138 95 0 0
-0.0400 -0.1503 -0.6020 0.647 -0.703 0.295 178 158 115 0 0
-0.0414 -0.1512 -0.6218 0.725 -0.681 0.107 169 150 103 0 0
-0.0430 -0.1520 -0.6420 0.849 -0.529 0.001 160 140 97 0 0
-0.0921 -0.1277 -0.7904 0.262 -0.628 0.733 100 86 61 0 0
-0.0916 -0.1282 -0.7921 0.732 -0.644 0.221 107 92 68 0 0
-0.0914 -0.1286 -0.7941 0.749 -0.631 0.204 98 84 59 0 0
-0.0809 -0.1392 -0.8144 0.697 -0.716 0.048 130 113 80 0 0
-0.0810 -0.1394 -0.8166 0.697 -0.716 0.048 128 114 79 0 0
-0.0258 -0.1320 -0.2970 0.875 -0.329 -0.354 75 67 55 0 0
-0.0212 -0.1380 -0.3184 0.753 -0.307 0.582 94 79 50 0 0
-0.0234 -0.1376 -0.3318 0.803 -0.596 -0.001 97 81 48 0 0
-0.0254 -0.1372 -0.3436 0.671 -0.609 0.423 122 106 66 0 0
-0.1033 -0.0875 -0.4696 0.490 -0.744 0.454 36 28 21 0 0
-0.1043 -0.0869 -0.4720 0.939 -0.332 0.093 38 29 22 0 0
-0.1057 -0.0864 -0.4782 0.781 -0.397 0.482 49 40 32 0 0
-0.1051 -0.0871 -0.4797 0.527 -0.688 0.499 51 42 34 0 0
-0.0380 -0.1449 -0.5144 0.698 -0.005 0.716 107 92 56 0 0
-0.0373 -0.1483 -0.5407 0.864 -0.503 0.019 146 128 85 0 0
-0.0373 -0.1484 -0.5425 0.864 -0.503 0.019 161 144 101 0 0
-0.0434 -0.1563 -0.6643 0.798 -0.596 -0.089 138 124 79 0 0
-0.0936 -0.1291 -0.7927 0.210 -0.887 0.410 112 96 72 0 0
-0.0748 -0.1478 -0.8266 0.361 -0.686 0.632 125 109 76 0 0
-0.0663 -0.1597 -0.8746 0.614 -0.326 0.719 178 176 178 0 0
-0.0358 -0.1222 -0.2618 -0.117 -0.404 0.907 146 129 110 0 0
-0.0218 -0.1353 -0.2783 0.511 -0.653 0.559 83 67 50 0 0
-0.0249 -0.1386 -0.3334 0.471 -0.786 0.400 98 82 49 0 0
-0.0958 -0.0922 -0.4363 0.796 -0.605 0.024 72 58 40 0 0
-0.0957 -0.0934 -0.4469 0.664 -0.718 -0.210 75 64 46 0 0
-0.1036 -0.0917 -0.4910 0.636 -0.680 0.365 35 28 20 0 0
-0.0403 -0.1449 -0.5115 0.862 -0.199 0.466 110 95 66 0 0
-0.0398 -0.1454 -0.5130 0.687 -0.079 0.723 91 75 42 0 0
-0.0409 -0.1522 -0.5860 0.802 -0.597 0.022 132 113 81 0 0
-0.0422 -0.1536 -0.6092 0.823 -0.551 0.138 170 153 109 0 0
-0.0415 -0.1559 -0.6257 0.769 -0.498 0.401 170 153 104 0 0
-0.0424 -0.1576 -0.6491 0.871 -0.470 0.143 165 145 98 0 0
-0.0958 -0.1298 -0.7934 0.226 -0.866 0.446 88 71 51 0 0
-0.0935 -0.1321 -0.7977 0.255 -0.952 0.168 107 87 62 0 0
-0.0925 -0.1335 -0.8032 0.198 -0.951 0.237 106 89 61 0 0
-0.0921 -0.1340 -0.8051 0.205 -0.939 0.277 97 81 52 0 0
-0.0920 -0.1343 -0.8071 0.139 -0.980 0.141 105 90 59 0 0
-0.0842 -0.1412 -0.8127 0.733 -0.680 -0.008 91 75 47 0 0
-0.0763 -0.1490 -0.8268 0.420 -0.700 0.578 137 121 85 0 0
-0.0676 -0.1610 -0.8746 0.612 -0.585 0.532 181 179 182 0 0
-0.0344 -0.1253 -0.2624 -0.192 -0.589 0.785 145 130 111 0 0
-0.0203 -0.1372 -0.2668 0.607 -0.605 0.516 62 49 28 0 0
-0.0281 -0.1392 -0.3453 0.774 -0.474 0.421 127 109 74 0 0
-0.0272 -0.1402 -0.3481 0.774 -0.474 0.421 142 128 93 0 0
-0.0276 -0.1415 -0.3626 0.358 -0.895 0.266 60 51 41 0 0
-0.0956 -0.0939 -0.4302 0.681 -0.711 -0.173 82 69 47 0 0
-0.0953 -0.0943 -0.4318 0.667 -0.743 -0.053 95 82 62 0 0
-0.0953 -0.0945 -0.4336 0.763 -0.615 0.197 75 63 44 0 0
-0.0965 -0.0938 -0.4359 0.713 -0.695 -0.094 77 63 45 0 0
-0.0957 -0.0946 -0.4373 0.826 -0.507 0.244 77 64 45 0 0
-0.1055 -0.0911 -0.4785 0.642 -0.765 0.057 56 46 37 0 0
-0.1053 -0.0928 -0.4931 0.665 -0.649 0.368 23 18 13 0 0
-0.1049 -0.0933 -0.4947 0.665 -0.649 0.368 23 18 11 0 0
-0.1044 -0.0938 -0.4963 0.730 -0.575 0.369 22 15 10 0 0
-0.1061 -0.0936 -0.5065 0.498 -0.729 0.471 53 45 35 0 0
-0.1057 -0.0940 -0.5082 0.487 -0.786 0.381 46 39 28 0 0
-0.0435 -0.1442 -0.5092 0.743 0.038 0.669 88 74 43 0 0
-0.0382 -0.1486 -0.5112 0.750 -0.651 0.112 94 78 46 0 0
-0.0386 -0.1528 -0.5543 0.827 -0.495 0.265 159 140 99 0 0
-0.0432 -0.1544 -0.6034 0.512 -0.718 0.472 177 162 116 0 0
-0.0428 -0.1570 -0.6257 0.714 -0.658 0.238 175 160 111 0 0
-0.0425 -0.1574 -0.6273 0.773 -0.553 0.311 169 152 105 0 0
-0.0419 -0.1581 -0.6287 0.644 -0.760 0.094 166 149 103 0 0
-0.0419 -0.1583 -0.6306 0.644 -0.760 0.094 174 156 110 0 0
-0.0408 -0.1631 -0.6679 0.356 -0.926 0.124 144 123 74 0 0
-0.0957 -0.1330 -0.8006 0.432 -0.789 0.437 125 107 79 0 0
-0.0957 -0.1332 -0.8028 0.712 -0.609 0.349 122 105 75 0 0
-0.0953 -0.1337 -0.8046 0.712 -0.609 0.349 118 102 70 0 0
-0.0949 -0.1343 -0.8064 0.712 -0.609 0.349 120 104 71 0 0
-0.0950 -0.1344 -0.8086 0.514 -0.849 0.120 120 104 70 0 0
-0.0935 -0.1357 -0.8094 0.308 -0.912 0.272 116 100 66 0 0
-0.0925 -0.1367 -0.8106 0.250 -0.744 0.619 117 101 68 0 0
-0.0867 -0.1414 -0.8117 0.258 -0.892 0.372 102 87 54 0 0
-0.0840 -0.1442 -0.8177 0.676 -0.516 0.527 113 98 68 0 0
-0.0774 -0.1504 -0.8266 0.336 -0.635 0.696 124 108 70 0 0
-0.0772 -0.1508 -0.8285 0.469 -0.689 0.553 129 114 73 0 0
-0.0754 -0.1525 -0.8311 0.290 -0.930 0.225 138 122 86 0 0
-0.0766 -0.1519 -0.8343 0.443 -0.613 0.655 139 123 87 0 0
-0.0689 -0.1623 -0.8745 0.612 -0.585 0.532 184 183 185 0 0
-0.0667 -0.1644 -0.8766 0.531 -0.643 0.552 195 193 195 0 0
-0.0217 -0.1379 -0.2668 0.565 -0.642 0.518 63 51 33 0 0
-0.0268 -0.1372 -0.2975 0.999 -0.028 -0.041 61 44 24 0 0
-0.0277 -0.1413 -0.3430 0.936 -0.249 0.250 111 95 63 0 0
-0.0286 -0.1409 -0.3466 0.778 -0.521 0.351 132 115 79 0 0
-0.0281 -0.1414 -0.3480 0.742 -0.535 0.404 144 130 91 0 0
-0.0289 -0.1420 -0.3595 0.745 -0.663 0.075 119 109 79 0 0
-0.0965 -0.0955 -0.4317 0.501 -0.861 0.087 79 67 44 0 0
-0.0968 -0.0955 -0.4336 0.621 -0.783 0.028 75 62 41 0 0
-0.0985 -0.0946 -0.4380 0.370 -0.927 0.054 70 58 36 0 0
-0.0980 -0.0951 -0.4396 0.254 -0.967 -0.002 64 52 31 0 0
-0.1081 -0.0897 -0.4645 0.808 -0.573 -0.134 33 24 17 0 0
-0.1077 -0.0902 -0.4662 0.763 -0.562 0.317 28 21 15 0 0
-0.1064 -0.0923 -0.4764 0.775 -0.628 -0.066 54 45 36 0 0
-0.1068 -0.0923 -0.4784 0.919 -0.394 0.008 58 48 39 0 0
-0.1065 -0.0940 -0.4930 0.750 -0.560 0.353 24 19 15 0 0
-0.1061 -0.0945 -0.4946 0.750 -0.560 0.353 28 23 16 0 0
-0.1064 -0.0954 -0.5059 0.527 -0.848 0.059 42 34 24 0 0
-0.0394 -0.1543 -0.5540 0.873 -0.471 0.127 129 110 72 0 0
-0.0398 -0.1550 -0.5633 0.872 -0.469 0.145 128 110 75 0 0
-0.0425 -0.1553 -0.5872 0.646 -0.637 0.420 71 60 40 0 0
-0.0423 -0.1579 -0.6093 0.776 -0.631 -0.024 176 159 114 0 0
-0.0438 -0.1584 -0.6255 0.697 -0.628 0.346 158 141 95 0 0
-0.0435 -0.1588 -0.6271 0.697 -0.628 0.346 168 151 102 0 0
-0.0434 -0.1597 -0.6346 0.665 -0.688 0.289 168 150 101 0 0
-0.0435 -0.1604 -0.6423 0.823 -0.439 0.360 170 152 104 0 0
-0.0439 -0.1607 -0.6483 0.732 -0.679 0.053 169 147 101 0 0
-0.0969 -0.1349 -0.8047 0.504 -0.786 0.357 126 110 77 0 0
-0.0964 -0.1354 -0.8065 0.504 -0.786 0.357 120 104 71 0 0
-0.0967 -0.1355 -0.8089 0.514 -0.849 0.120 118 102 69 0 0
-0.0946 -0.1372 -0.8091 0.709 -0.479 0.518 115 99 65 0 0
-0.0891 -0.1418 -0.8104 0.074 -0.812 0.579 112 98 64 0 0
-0.0887 -0.1423 -0.8123 0.258 -0.892 0.372 107 95 61 0 0
-0.0877 -0.1432 -0.8134 0.430 -0.884 0.186 100 91 55 0 0
-0.0856 -0.1456 -0.8201 0.511 -0.639 0.575 113 100 70 0 0
-0.0797 -0.1511 -0.8274 0.555 -0.762 0.333 125 109 75 0 0
-0.0781 -0.1531 -0.8345 0.221 -0.913 0.342 144 129 93 0 0
-0.0705 -0.1623 -0.8638 0.130 -0.935 0.329 84 78 63 0 0
-0.0695 -0.1632 -0.8650 0.107 -0.825 0.554 110 105 92 0 0
-0.0680 -0.1657 -0.8766 0.428 -0.748 0.507 196 194 196 0 0
-0.0397 -0.1251 -0.2633 -0.161 -0.474 0.865 156 145 127 0 0
-0.0233 -0.1404 -0.2835 0.579 -0.629 -0.519 87 72 46 0 0
-0.0267 -0.1391 -0.2970 0.950 0.095 0.297 65 49 27 0 0
-0.0268 -0.1392 -0.2985 0.961 0.030 0.276 60 44 22 0 0
-0.0294 -0.1441 -0.3639 0.917 -0.395 -0.059 114 102 77 0 0
-0.0988 -0.0959 -0.4322 0.514 -0.851 0.106 82 70 46 0 0
-0.0987 -0.0961 -0.4339 0.514 -0.851 0.106 77 65 42 0 0
-0.1031 -0.0942 -0.4486 0.816 -0.486 -0.314 64 52 37 0 0
-0.1080 -0.0922 -0.4656 0.875 -0.398 0.276 31 24 18 0 0
-0.1074 -0.0929 -0.4690 0.937 -0.347 0.033 36 32 28 0 0
-0.1071 -0.0959 -0.4945 0.557 -0.770 0.311 32 25 16 0 0
-0.0404 -0.1512 -0.5128 0.623 -0.772 0.128 115 99 62 0 0
-0.0399 -0.1518 -0.5142 0.845 -0.488 0.217 123 105 68 0 0
-0.0404 -0.1568 -0.5647 0.844 -0.290 0.452 142 124 81 0 0
-0.0412 -0.1564 -0.5670 0.854 -0.517 -0.061 161 139 99 0 0
-0.0434 -0.1593 -0.6111 0.837 -0.545 -0.053 168 149 107 0 0
-0.0446 -0.1601 -0.6269 0.788 -0.544 0.289 170 149 100 0 0
-0.0442 -0.1606 -0.6285 0.672 -0.702 0.238 168 148 99 0 0
-0.0445 -0.1609 -0.6345 0.763 -0.607 0.223 161 143 95 0 0
-0.0448 -0.1614 -0.6403 0.727 -0.571 0.382 169 150 103 0 0
-0.0444 -0.1620 -0.6439 0.776 -0.605 0.177 168 148 101 0 0
-0.0442 -0.1624 -0.6456 0.752 -0.659 0.010 176 158 110 0 0
-0.0989 -0.1355 -0.8032 0.504 -0.786 0.357 117 102 73 0 0
-0.0985 -0.1360 -0.8049 0.504 -0.786 0.357 121 106 74 0 0
-0.0980 -0.1366 -0.8067 0.504 -0.786 0.357 124 107 75 0 0
-0.0976 -0.1371 -0.8085 0.504 -0.786 0.357 116 100 67 0 0
-0.0912 -0.1425 -0.8112 0.074 -0.812 0.579 125 109 76 0 0
-0.0865 -0.1476 -0.8240 0.041 -0.956 0.290 127 111 77 0 0
-0.0703 -0.1654 -0.8688 -0.062 -0.772 0.632 169 167 168 0 0
-0.0669 -0.1685 -0.8718 0.081 -0.455 0.887 193 191 194 0 0
-0.0668 -0.1687 -0.8739 0.063 -0.489 0.870 197 195 197 0 0
-0.0249 -0.1397 -0.2716 0.864 -0.482 0.145 59 42 27 0 0
-0.0309 -0.1450 -0.3657 0.981 -0.175 0.079 98 86 56 0 0
-0.0308 -0.1453 -0.3673 0.981 -0.175 0.079 109 97 69 0 0
-0.0989 -0.0974 -0.4263 0.583 -0.812 -0.019 83 70 43 0 0
-0.1002 -0.0975 -0.4376 0.857 -0.478 0.195 69 57 33 0 0
-0.1050 -0.0963 -0.4615 0.788 -0.488 -0.375 62 53 45 0 0
-0.1086 -0.0938 -0.4652 0.867 -0.358 0.347 55 48 41 0 0
-0.1088 -0.0964 -0.4909 0.550 -0.743 0.381 37 28 17 0 0
-0.1083 -0.0970 -0.4925 0.537 -0.796 0.280 56 48 36 0 0
-0.1084 -0.0971 -0.4944 0.456 -0.847 0.273 42 34 21 0 0
-0.0394 -0.1525 -0.4973 0.798 -0.595 0.093 124 109 71 0 0
-0.0377 -0.1548 -0.5068 0.884 -0.372 0.285 122 108 72 0 0
-0.0513 -0.1523 -0.5842 0.278 -0.928 0.248 57 51 42 0 0
-0.0997 -0.1377 -0.8069 0.422 -0.847 0.324 126 109 80 0 0
-0.0992 -0.1382 -0.8087 0.504 -0.786 0.357 127 112 79 0 0
-0.0934 -0.1432 -0.8119 0.107 -0.901 0.421 125 109 76 0 0
-0.0914 -0.1462 -0.8251 -0.088 -0.983 0.161 115 100 71 0 0
-0.0901 -0.1474 -0.8260 -0.160 -0.915 0.371 124 109 76 0 0
-0.0726 -0.1660 -0.8698 -0.062 -0.772 0.632 176 174 177 0 0
-0.0359 -0.1324 -0.2673 -0.080 -0.500 0.862 141 125 99 0 0
-0.0327 -0.1462 -0.3707 0.967 -0.236 -0.094 117 103 78 0 0
-0.1016 -0.0984 -0.4358 0.506 -0.858 0.085 82 70 46 0 0
-0.1117 -0.0956 -0.4844 0.535 -0.778 0.329 38 28 18 0 0
-0.1102 -0.0975 -0.4910 0.470 -0.831 0.299 72 60 44 0 0
-0.1100 -0.0981 -0.4946 0.456 -0.847 0.273 47 39 22 0 0
-0.0403 -0.1536 -0.4954 0.786 -0.522 0.330 123 104 69 0 0
-0.0402 -0.1538 -0.4971 0.788 -0.580 0.205 129 111 74 0 0
-0.0411 -0.1557 -0.5205 0.892 -0.417 0.175 123 102 61 0 0
-0.0402 -0.1567 -0.5234 0.497 -0.852 0.164 151 132 93 0 0
-0.0402 -0.1571 -0.5270 0.804 -0.501 0.320 144 125 87 0 0
-0.0403 -0.1574 -0.5306 0.848 -0.505 0.163 158 140 96 0 0
-0.0409 -0.1574 -0.5345 0.865 -0.495 0.083 146 126 84 0 0
-0.0421 -0.1596 -0.5641 0.787 -0.440 0.433 132 110 71 0 0
-0.0538 -0.1526 -0.5851 0.563 -0.608 0.560 62 57 48 0 0
-0.0541 -0.1525 -0.5872 0.214 -0.759 0.614 45 41 33 0 0
-0.0452 -0.1621 -0.6105 0.837 -0.545 -0.053 146 125 79 0 0
-0.1200 -0.1217 -0.7872 -0.040 -0.745 0.666 100 88 66 0 0
-0.1197 -0.1222 -0.7890 -0.016 -0.802 0.597 99 87 62 0 0
-0.1182 -0.1235 -0.7899 0.084 -0.827 0.556 106 95 67 0 0
-0.0919 -0.1486 -0.8287 0.541 -0.754 0.372 131 117 82 0 0
-0.0912 -0.1493 -0.8301 0.652 -0.624 0.431 137 124 83 0 0
-0.0906 -0.1499 -0.8318 0.746 -0.520 0.416 138 123 84 0 0
-0.0760 -0.1659 -0.8718 -0.078 -0.673 0.736 180 179 179 0 0
0.0709 -0.2823 -0.8674 0.742 -0.046 0.668 215 214 212 0 0
-0.0408 -0.1304 -0.2670 -0.134 -0.497 0.857 141 126 100 0 0
-0.0383 -0.1325 -0.2677 -0.109 -0.440 0.891 135 119 93 0 0
-0.0238 -0.1484 -0.3083 0.718 -0.684 0.132 73 53 29 0 0
-0.0261 -0.1494 -0.3340 0.681 -0.695 0.229 86 71 42 0 0
-0.0310 -0.1471 -0.3487 0.847 -0.319 0.426 117 101 67 0 0
-0.1020 -0.1000 -0.4336 0.599 -0.788 0.145 84 73 48 0 0
-0.1040 -0.1005 -0.4524 0.580 -0.813 -0.052 77 68 47 0 0
-0.1042 -0.1005 -0.4543 0.435 -0.874 -0.215 80 72 51 0 0
-0.0417 -0.1546 -0.4955 0.923 -0.201 0.327 117 98 65 0 0
-0.0409 -0.1553 -0.4968 0.858 -0.492 0.145 121 103 68 0 0
-0.0410 -0.1574 -0.5161 0.719 -0.695 -0.011 137 118 75 0 0
-0.0411 -0.1577 -0.5197 0.799 -0.594 0.095 152 134 91 0 0
-0.0406 -0.1582 -0.5212 0.626 -0.742 0.238 148 128 86 0 0
-0.0410 -0.1581 -0.5232 0.749 -0.657 0.093 152 131 91 0 0
-0.0411 -0.1585 -0.5268 0.804 -0.501 0.320 149 130 89 0 0
-0.0425 -0.1592 -0.5437 0.791 -0.607 -0.071 113 93 64 0 0
-0.0431 -0.1596 -0.5513 0.824 -0.557 0.107 109 93 57 0 0
-0.0439 -0.1605 -0.5663 0.742 -0.670 0.037 156 140 99 0 0
-0.0563 -0.1530 -0.5878 0.374 -0.705 0.602 68 64 53 0 0
-0.1243 -0.1208 -0.7875 0.012 -0.796 0.606 75 64 46 0 0
-0.1231 -0.1219 -0.7886 -0.016 -0.802 0.597 85 74 54 0 0
-0.1047 -0.1399 -0.8198 0.201 -0.972 0.121 129 115 80 0 0
-0.0943 -0.1490 -0.8274 0.778 -0.389 0.493 124 109 78 0 0
-0.0794 -0.1658 -0.8738 -0.031 -0.815 0.578 184 184 182 0 0
-0.0371 -0.1357 -0.2699 -0.055 -0.305 0.951 139 120 95 0 0
-0.0264 -0.1480 -0.3058 0.769 -0.470 0.434 74 55 31 0 0
-0.1036 -0.1009 -0.4337 0.396 -0.909 0.129 93 83 58 0 0
-0.1050 -0.1016 -0.4505 0.181 -0.982 -0.049 96 85 64 0 0
-0.1061 -0.1012 -0.4546 0.068 -0.998 -0.005 103 92 69 0 0
-0.1065 -0.1011 -0.4566 0.234 -0.963 -0.130 108 97 75 0 0
-0.1079 -0.1003 -0.4591 0.340 -0.900 -0.275 97 86 66 0 0
-0.1108 -0.0986 -0.4643 0.574 -0.608 0.548 72 63 48 0 0
-0.0419 -0.1564 -0.4949 0.786 -0.600 0.150 139 121 82 0 0
-0.0418 -0.1567 -0.4965 0.786 -0.600 0.150 133 115 76 0 0
-0.0412 -0.1575 -0.4997 0.827 -0.556 0.084 129 111 71 0 0
-0.0418 -0.1600 -0.5264 0.814 -0.364 0.454 137 118 76 0 0
-0.0425 -0.1598 -0.5304 0.890 -0.456 0.027 126 107 66 0 0
-0.0427 -0.1599 -0.5323 0.873 -0.486 -0.025 148 127 84 0 0
-0.0430 -0.1601 -0.5361 0.873 -0.486 -0.025 98 79 44 0 0
-0.0444 -0.1620 -0.5640 0.853 -0.430 0.296 157 140 96 0 0
-0.0553 -0.1548 -0.5769 0.288 -0.724 -0.627 85 77 69 0 0
-0.0559 -0.1545 -0.5792 0.039 -0.945 -0.324 93 84 77 0 0
-0.0653 -0.1482 -0.5895 -0.491 -0.334 0.805 90 84 76 0 0
-0.0568 -0.1547 -0.5872 0.711 -0.515 0.478 93 89 78 0 0
-0.0562 -0.1553 -0.5887 0.711 -0.515 0.478 70 66 56 0 0
-0.0459 -0.1637 -0.5906 0.812 -0.498 0.303 114 103 76 0 0
-0.0483 -0.1667 -0.6354 0.869 -0.425 0.253 162 144 98 0 0
-0.0468 -0.1684 -0.6399 0.899 -0.330 0.289 164 144 95 0 0
-0.1086 -0.1377 -0.8070 -0.098 -0.838 0.537 123 107 77 0 0
-0.1073 -0.1389 -0.8080 -0.019 -0.895 0.446 123 107 78 0 0
