ply
format ascii 1.0
element vertex 654
property float x
property float y
property float z
property uchar diffuse_red
property uchar diffuse_green
property uchar diffuse_blue
end_header
-0.058542829162413094 -0.020596537524049885 -0.45858029961940305 57 49 39
-0.058242957604527336 -0.021631530473492783 -0.45995155652539127 66 58 43
-0.057984301437232565 -0.022564154391968877 -0.46136642428784846 67 54 40
-0.058100956019121214 -0.022566536671672383 -0.46318970017521804 78 66 50
-0.05809599252755319 -0.022870621239023364 -0.4648821510124764 66 55 39
-0.05816500368044826 -0.02299170630542785 -0.4666571561545681 82 73 58
-0.05804631485817117 -0.023577877456671698 -0.4682270633235677 80 68 54
-0.05775208553634151 -0.024598634421953453 -0.46960299837448183 50 36 24
-0.057502440482952416 -0.025508869041825172 -0.4710273551423301 76 65 50
-0.057156675384261814 -0.026656770502763022 -0.4723437672539758 98 86 68
-0.05669975779076218 -0.028079311192202278 -0.4735342071654451 86 72 52
-0.056509306824204915 -0.028842585567117135 -0.47502156795312267 80 65 44
-0.056107880546633904 -0.030127303142043343 -0.4762707467842393 104 89 67
-0.05634932791864077 -0.029823083933317757 -0.47824558234879977 107 91 68
-0.05667216694724761 -0.029318372892615935 -0.4803162303080638 94 78 53
-0.05667675008423239 -0.029600332505260923 -0.4820280146385973 111 97 73
-0.056599439898656526 -0.03008471666978177 -0.48364745161221856 98 85 64
-0.056559680224925635 -0.030476537129929593 -0.48531071025153355 95 84 65
-0.05672835660136143 -0.03035421722042872 -0.48721525918022546 104 94 76
-0.05672463799621114 -0.03065762866259103 -0.48892310243352666 88 77 59
-0.057322261262957176 -0.02947832816466328 -0.49133052072908023 92 81 64
-0.056928775316492944 -0.030743527482499533 -0.49258928611151126 94 82 66
-0.056748645512069144 -0.031482552064826114 -0.49409562985177163 77 66 51
-0.0567672507859074 -0.0317318882173655 -0.4958350768921546 60 49 39
-0.05687649974274844 -0.031758213100203464 -0.4976828048271362 42 28 20
-0.05694274732956179 -0.03189081617108014 -0.4994819668268214 73 59 49
-0.05708591452632731 -0.031834393465118654 -0.5013742957768705 98 90 77
-0.05708368567513171 -0.032136228887168855 -0.503096075695016 79 71 58
-0.057195945478926105 -0.03215662177056683 -0.5049559867397341 74 66 53
-0.05739503289276429 -0.031963854946858467 -0.5069223133778916 78 70 58
-0.05739103658272215 -0.032270955692693365 -0.5086473168914591 67 59 48
-0.05757175148052219 -0.03212424857516699 -0.5105966868950322 58 49 40
-0.05870035062718755 -0.029648746489072536 -0.513697528559111 61 52 43
-0.0589072684063507 -0.029439353099766752 -0.5156885625591003 54 45 36
-0.05886387029445943 -0.029845248312959705 -0.5173772855064935 66 57 48
-0.05883263810192681 -0.030221446822353448 -0.519081910136077 76 67 58
-0.05910766525508816 -0.029846139303912417 -0.5211639411521304 81 72 63
-0.05935690919965264 -0.02953473448542629 -0.5232178959386834 72 63 55
-0.05945713542081321 -0.029589468969626526 -0.525090986168008 70 61 52
-0.059526758366626804 -0.02971963438476402 -0.5269283184254587 60 52 42
-0.05969452796888076 -0.02960953076059772 -0.5288898878920442 61 53 42
-0.059673567212460324 -0.029962449256049767 -0.5306183672293414 82 74 62
-0.0598279710919842 -0.02988592218962849 -0.5325680015214486 76 68 55
-0.059933852598754174 -0.029928707284085643 -0.5344592777788798 84 75 62
-0.06011570760367252 -0.029785859016082578 -0.5364487861063607 73 64 49
-0.0604337273011104 -0.029310206003657052 -0.5386137679395603 69 60 45
-0.06088567463222671 -0.028507523518359085 -0.5409531303082069 90 81 66
-0.06085750041480779 -0.028880307795730836 -0.5426853196929109 81 72 54
-0.06106688805036919 -0.02867229894623985 -0.5447227198096393 87 79 60
-0.06140135103392695 -0.028159041813771518 -0.546923936493602 90 82 63
-0.06164426151329202 -0.02787028966484803 -0.5490114674563319 69 61 42
-0.0617955655202008 -0.02780597251533415 -0.5509840683723419 95 84 66
-0.06201233535993447 -0.02758220820245591 -0.5530442933432478 84 73 55
-0.06209632722542368 -0.02768324524415794 -0.5549350047862096 75 64 46
-0.062252153451128604 -0.027609286545895784 -0.5569216459874958 82 71 52
-0.0620658327096458 -0.028370803718968662 -0.5584628451556142 81 71 54
-0.06286552939004322 -0.0267266672547401 -0.5612997613234745 70 60 49
-0.06264287833741466 -0.027577460635277357 -0.5627969355671194 53 43 34
-0.0628201097785007 -0.027453154348731496 -0.5648226224231044 49 41 31
-0.06286689242771308 -0.02764732644991516 -0.5666781306508233 57 49 41
-0.06295166177578729 -0.02774924888440297 -0.5685860535378452 80 69 59
-0.06337799699885724 -0.027019481522919914 -0.5709524360236109 93 79 65
-0.06325216077010956 -0.0276352853468205 -0.572583910402112 78 65 47
-0.06302032918166697 -0.02850919730868906 -0.5740732113859307 56 43 24
-0.026606814423370456 -0.1248645019302936 -0.5699503132450139 119 104 80
-0.02548791460527912 -0.12785348861200763 -0.5699878341146679 121 105 80
-0.028001215272664 -0.1220777381553123 -0.575362767725673 125 108 81
-0.028332307447503285 -0.12156931743154178 -0.5775398428437614 129 113 86
-0.028503113686598934 -0.12144810739544998 -0.5794838860343166 130 113 84
-0.027034737045520042 -0.12527842671718148 -0.5789963524314654 137 119 89
-0.027174214845337302 -0.1252324438891352 -0.580892204285374 144 124 92
-0.028302879600247972 -0.12280411930876842 -0.5842685849648536 145 124 91
-0.028470853831029506 -0.12269116995261403 -0.5862167693560634 150 129 95
-0.028508472252929365 -0.12289252007958543 -0.5879719007212424 154 134 96
-0.02819837120698853 -0.12393096346507806 -0.5892045671609994 157 138 97
-0.028628697302090632 -0.12318787147978569 -0.591555316823351 150 132 93
-0.02878208444219245 -0.12311171562963724 -0.5934913406779929 145 126 92
-0.028949101884746975 -0.1230032626685775 -0.5954508485460743 143 125 89
-0.029101826307364402 -0.12292965721731339 -0.5973914336045325 147 128 92
-0.029209121219787915 -0.12296567809798581 -0.5992652726978305 154 135 97
-0.02931660106101086 -0.12300165867714916 -0.6011417456864128 152 136 95
-0.029316825102472764 -0.12329558059328152 -0.6028555241638927 159 144 102
-0.029450474680273356 -0.12326947101230684 -0.604776615760941 157 140 100
-0.029584366169444994 -0.12324322699252252 -0.6067006773264162 159 140 102
-0.029718459333877692 -0.12321694615859893 -0.6086276528319745 167 147 110
-0.029847719360918776 -0.12320270325742094 -0.6105497097637921 157 139 101
-0.029786989386673728 -0.12364435951523456 -0.6121776905943391 158 138 102
-0.029908021909501994 -0.12365056872568297 -0.614091140681026 159 140 101
-0.03000242200610341 -0.12372101090682303 -0.6159652642507357 174 157 116
-0.030182735243766037 -0.1235860839747126 -0.6179769519251029 184 168 127
-0.03021664245882307 -0.1238021999557477 -0.6197604403435024 184 167 127
-0.030247627265541865 -0.12402560543074723 -0.621541016541963 175 157 117
-0.030412259632855564 -0.12392953515958732 -0.6235355835099468 167 150 107
-0.030500018747385005 -0.12401783230513444 -0.6254105960172118 176 159 116
-0.03054911101070766 -0.1241989640910337 -0.6272260480185645 177 159 119
-0.030678454464056627 -0.12418859417296779 -0.6291719354814446 187 169 131
-0.030763998035990524 -0.12428332970379918 -0.6310500473491788 184 169 128
-0.030709032386080207 -0.12471407867311793 -0.6327039693800052 176 160 117
-0.031051720082978067 -0.12419542049313528 -0.6350013303167363 171 152 110
-0.03117714164656534 -0.12419618893422546 -0.6369511989137705 163 145 105
-0.03139582496798178 -0.12397484378008708 -0.6390551804957101 167 149 110
-0.031087936521179506 -0.12501026224087164 -0.6403045645186773 170 152 113
-0.03128575079513984 -0.12483945063373805 -0.6423788989508898 163 145 107
-0.03151758805849899 -0.12458808559907544 -0.6445122267669633 179 161 122
-0.031403086673576205 -0.12516273106314554 -0.6460800178504971 181 163 124
-0.03127097537240978 -0.1257793978638327 -0.647619181998315 169 151 111
-0.031557209989328774 -0.12539975539482875 -0.649849825826031 183 165 125
-0.03170000310386155 -0.12536232475674794 -0.651846865455467 182 164 124
-0.031978736588456805 -0.12500182146018257 -0.6540725292283228 181 163 122
-0.032053819134566584 -0.1251265478040112 -0.6559628951828246 173 156 114
-0.03223445505365374 -0.12500058539536368 -0.6580317516266811 167 150 107
-0.03186583506736534 -0.12618111793227724 -0.6591835417280599 178 161 118
-0.032391576239947824 -0.1252355122409953 -0.6618358541016833 178 161 117
-0.032177809727146914 -0.12604813737189707 -0.6632487378765456 181 165 121
-0.032026334633320136 -0.1267127125249981 -0.6647663269254308 172 156 112
-0.03198261337880023 -0.12712143460657635 -0.6664664869263226 172 156 112
-0.03218373979367357 -0.12694913762631638 -0.6685835522900602 168 153 109
-0.03204763069244338 -0.12757764741039368 -0.6701296202782232 170 152 108
-0.032256243515629314 -0.12738846625818673 -0.6722645589459318 170 153 106
-0.03216921227115089 -0.12790094076437497 -0.673896668874217 167 150 105
-0.03227297006033487 -0.1279612560941465 -0.6758570111875808 162 144 102
-0.032369832443264766 -0.12803832994595754 -0.6778079160061822 162 143 100
-0.03218286926212305 -0.12878817805801165 -0.6792712492332877 162 143 100
-0.03223317947058424 -0.12897608328098423 -0.6811450065987009 157 138 95
-0.03227855780285794 -0.12917599802270288 -0.683012148527771 162 144 102
-0.03275310887447764 -0.12836058323982716 -0.6856280264779889 156 135 100
-0.032897448374103154 -0.12832737866038138 -0.6876736429092538 169 147 108
-0.033196182665414055 -0.12792952583034137 -0.689992203174215 167 146 102
-0.033346967225112614 -0.12788218141833863 -0.6920555097433977 162 141 99
-0.033110403014213544 -0.12875077026410528 -0.6934404289513969 157 136 94
-0.03316187377280542 -0.12893874325607996 -0.6953325817961118 163 144 101
-0.03289318750615196 -0.12988317925528609 -0.6966606073910646 145 123 80
-0.03301062009393344 -0.1299158426185051 -0.6986721535405054 169 148 104
-0.03310287081824881 -0.13000838428056946 -0.7006415332408756 163 143 98
-0.03309879645486869 -0.1303285928669452 -0.7024415993447151 176 157 109
-0.03315199038169898 -0.13051398509858833 -0.7043454628252006 177 159 112
-0.033203532539298024 -0.1307036156520529 -0.7062483683214837 168 152 109
-0.03332160030453451 -0.13073679451508394 -0.7082727662674431 139 125 89
-0.033306982593404644 -0.1310830406043724 -0.7100608056419756 95 83 49
-0.03353308345248891 -0.1308625651249769 -0.7122849002132419 140 126 90
-0.03369832974343416 -0.13078599512125344 -0.714402459851947 175 160 116
-0.033826233330238244 -0.13079784466201125 -0.7164553066340964 181 165 123
-0.034212867773800906 -0.13020141090042095 -0.7189817510461024 130 117 77
-0.03419960536572362 -0.13054643299900692 -0.7207836900608275 145 130 87
-0.034386167355688134 -0.1304218656345106 -0.7229525826260641 178 160 113
-0.034637527316397 -0.13014556262273258 -0.7252436126981484 164 145 101
-0.034693286017854784 -0.1303295124754316 -0.727178864990595 168 149 106
-0.034559715604960566 -0.1309585059248074 -0.7287671246362 165 146 103
-0.03445605654636281 -0.1315173140359852 -0.7304109335590657 180 161 116
-0.03451076184392433 -0.13170451356079868 -0.7323487561743685 172 154 108
-0.03514093714918889 -0.13054183028571292 -0.7353577788130224 176 158 112
-0.0354081393424578 -0.13023179515368555 -0.7376982516693378 184 166 120
-0.03527094557422189 -0.13087064191001818 -0.7392876453812663 181 163 116
-0.035217796702464096 -0.13131253934501777 -0.7410346190662761 182 164 116
-0.03576059066057122 -0.13035829548526015 -0.7439011702446208 177 159 111
-0.03656910747057962 -0.12878282612542277 -0.7472744615495361 172 154 109
-0.03738347196317272 -0.12719525935418116 -0.7506680618025022 158 141 98
-0.03815384414418727 -0.12571226603828567 -0.753987806082394 140 121 83
-0.038694843711872005 -0.12476748437868548 -0.7568815843446105 153 134 94
-0.03946713190544504 -0.123282893951972 -0.7602217542047955 143 124 86
-0.04077068404506951 -0.1205576929315742 -0.7645832942464523 131 112 73
-0.04134633655725066 -0.11953622104132341 -0.7675683166134603 104 88 50
-0.041840268409644964 -0.11870690825679317 -0.7704039361275323 89 76 46
-0.04233583518850122 -0.11787486554001347 -0.7732490295539085 111 100 76
-0.04282750925499009 -0.1170530042829315 -0.7760929885750606 98 88 65
-0.04328235118630825 -0.11631819611205652 -0.7788722028172725 70 59 36
-0.04199150785540389 -0.11965736256378842 -0.7782803932860849 58 44 25
-0.04175741101642709 -0.12052999170305467 -0.7797270936500692 53 39 22
-0.04147472719456058 -0.1215157874047409 -0.781078673173018 69 55 38
-0.04133066313616282 -0.12217831287006203 -0.7826992868657424 66 51 31
-0.04090904272706196 -0.12348753341755608 -0.7837778176653243 62 46 23
-0.040959277311379425 -0.12369737807944875 -0.7857780655226576 71 57 33
-0.040803531364482434 -0.12438713885464753 -0.7873759626563434 72 57 34
-0.040620180703402065 -0.12514116132763298 -0.7889196194046961 78 64 39
-0.04038488470670639 -0.12601600493299026 -0.7903606055590475 75 59 33
-0.04005604378452589 -0.12710828633569357 -0.7916158785340356 76 60 37
-0.04019352056942266 -0.1271161852470213 -0.7937942255792743 54 42 23
-0.04003559103154477 -0.1278111132738381 -0.7953883210659357 47 33 13
-0.03991945834914514 -0.12840895336433444 -0.7970657766157554 62 46 27
-0.039663019876286024 -0.12933271129504176 -0.7984634524089491 51 38 19
-0.039387717778667695 -0.13030010854002305 -0.799822470017767 54 41 21
-0.03888158650520136 -0.1318029940661237 -0.8007170820037551 85 71 44
-0.03911025357742878 -0.13160071902660556 -0.803086887375739 139 123 88
-0.039079428899318897 -0.13200085823593172 -0.8049371415406024 170 153 114
-0.038994504288486324 -0.13252663430471406 -0.806679327697039 177 160 119
-0.038931986459776996 -0.13300062328350248 -0.8084677183538723 178 160 118
-0.03901554053223552 -0.1331364191279314 -0.8105538973823053 178 160 114
-0.0382483652464861 -0.13524258154034685 -0.8109099008381573 173 155 108
-0.03880999507833488 -0.13427187299820878 -0.8139728063315579 168 151 101
-0.03962742010501157 -0.1327105056424513 -0.8175663300020861 176 159 108
-0.03963347146114858 -0.13302755932196064 -0.8195050966881656 180 161 111
-0.039639566191864574 -0.13334480415962277 -0.8214456484824748 179 161 112
-0.03943439738084624 -0.13415064942013796 -0.8229524386461274 180 162 114
-0.04035837934180074 -0.13234749874186158 -0.8267918387528322 178 160 112
-0.03996932464232296 -0.13357888683868657 -0.8279225923674292 180 162 114
-0.03988745330853137 -0.134100664313518 -0.8296888700618685 180 162 115
-0.039885339003783944 -0.13443850848276448 -0.8316219581361471 178 160 112
-0.03993560033393329 -0.13465579532816668 -0.8336659261955632 178 160 112
-0.040102009494751636 -0.13460558255347482 -0.8359548931377301 174 157 111
-0.04026866390031579 -0.13455537213757934 -0.8382476777639856 170 154 111
-0.040444669603094924 -0.13448417987025674 -0.840563417733429 161 145 104
-0.04076538606880998 -0.13408020009856791 -0.8431872884829992 159 143 106
-0.04118649211143746 -0.13344586999319474 -0.8460279020767729 147 133 99
-0.041281257872751304 -0.13356378511165742 -0.8481839378857232 136 125 94
-0.04214081810926901 -0.13192223762893746 -0.8519644547074606 137 129 103
-0.04300489274862669 -0.13027206469208322 -0.8557648031391906 94 89 74
-0.04397033970214907 -0.1283905608376494 -0.8597914315978101 32 30 23
-0.044865646626242234 -0.12667222502793457 -0.8636795866138699 23 19 16
-0.04580869764351371 -0.12484601351364258 -0.8676805755149191 45 42 37
-0.04683255549699072 -0.12283611086740492 -0.8718660673995438 88 86 82
-0.042036954309814 -0.13452890055829111 -0.8655213584234203 138 137 135
-0.04215417351140311 -0.13459936213220386 -0.8677495389258528 154 153 151
-0.0284032642161511 -0.053498297490001775 -0.1585461314215277 178 178 180
-0.028373364584563035 -0.053811843225927136 -0.15990005459470086 178 177 181
-0.029501256848261395 -0.05112787875285935 -0.16169703688622336 176 177 176
-0.029404028071330034 -0.05161669222284247 -0.16303070709658707 174 173 166
-0.029272048897691454 -0.052195485836011 -0.16435114714336277 166 163 154
-0.028620909685616633 -0.054117478154397054 -0.16546770858939994 160 152 141
-0.028360678390556934 -0.05502770292344149 -0.16673553013730052 150 137 124
-0.028534494776409923 -0.05481533122403573 -0.16817608974674986 164 150 125
-0.028528784413935086 -0.05506749134021506 -0.16954644012379652 184 170 136
-0.028311392273095447 -0.05586696009070555 -0.17083154603878 172 156 123
-0.02812311353475326 -0.056591097301552845 -0.1721280400360907 137 122 93
-0.027347180574433968 -0.058833373655286805 -0.17318062374822024 124 109 85
-0.025444808198589776 -0.06398429828200101 -0.17375767756641436 159 146 122
-0.023874328412180956 -0.06827598630678972 -0.17446190975188652 178 166 139
-0.022723174563452516 -0.07148333958544498 -0.17533409801541758 167 155 122
-0.0197232912976476 -0.07946097392915161 -0.1754059691703687 140 125 98
-0.020275860564785298 -0.07826839803164534 -0.17699368154051578 93 78 57
-0.020815185881648823 -0.07711085167271908 -0.17858061089534943 95 80 56
-0.021029274310029177 -0.07679297402764848 -0.18002939979775948 90 74 48
-0.02076279939249766 -0.07771465850134977 -0.18126762742054486 88 71 44
-0.02017792181579846 -0.07945697272150253 -0.18236255164362938 80 63 35
-0.01977602353783995 -0.08072714368825287 -0.1835366801935843 78 61 33
-0.020103865817310666 -0.08011673733606613 -0.18504044123440228 102 87 57
-0.02017807776176494 -0.08016025675616073 -0.18643141486799633 114 99 69
-0.020494876380020777 -0.07957930092615656 -0.18793591433166992 88 74 45
-0.019254361367966856 -0.08300852671216893 -0.18871907708841482 79 65 38
-0.019246959751991078 -0.08326224305579115 -0.19007246077116643 91 77 49
-0.01893853207733463 -0.08429079170192645 -0.1912845093426409 90 76 48
-0.0206388130577284 -0.08015111734007785 -0.193452011270067 92 78 52
-0.020521318180413525 -0.08068938966468975 -0.19476052282364342 99 85 59
-0.020674510337473553 -0.08053160533279825 -0.1962000792581574 118 104 76
-0.020795442863476246 -0.08045712439629656 -0.19762603930193093 106 93 62
-0.020990248552297735 -0.08019309660409926 -0.19909015585702652 88 74 47
-0.02145288389088783 -0.07924126702774087 -0.20068917989773852 90 76 48
-0.021529037630725688 -0.07928306756730397 -0.2021000261926313 100 87 55
-0.02137610564284457 -0.07991351284180767 -0.20339744386396819 97 82 54
-0.021595543149290325 -0.07958779713742954 -0.20488303396218435 86 71 45
-0.02154840155096646 -0.07994686605261224 -0.20623546998256773 94 80 54
-0.021683284562054626 -0.07983889334039865 -0.20768195164335043 103 92 64
-0.02182736109764516 -0.07970767877713442 -0.2091351898952271 90 78 52
-0.02221873997513558 -0.07894245100864436 -0.21071920174958256 87 75 52
-0.02090771826961703 -0.08254375616748862 -0.21141489274501526 73 60 40
-0.020833053882037395 -0.08297367562167414 -0.21275445092259973 72 60 41
-0.02149119169566313 -0.08200392018345762 -0.21725127856003665 72 58 44
-0.0219418183320473 -0.08108928211930716 -0.21888098451906962 79 66 49
-0.02217424259670215 -0.08073414671859183 -0.22039584584194474 91 80 62
-0.023015802224853305 -0.07882007296995472 -0.22224850112207617 90 80 62
-0.022749920906235347 -0.07974164444501249 -0.2234951886048144 95 84 67
-0.021951720825910445 -0.08202512688270733 -0.22444417452584794 105 93 74
-0.02066771884063854 -0.08555049679107635 -0.2251156196081945 130 117 93
-0.01950993340156776 -0.0887515950770413 -0.22584982925276204 150 135 107
-0.018427615375150322 -0.09175842089945024 -0.22661934713195397 150 133 103
-0.016465855608681877 -0.0970120398408636 -0.22687844598103632 160 143 110
-0.015692012144652826 -0.09922753983686422 -0.22780828472245496 158 141 108
-0.01484963443446337 -0.10161731322581986 -0.22869361978866135 164 147 114
-0.014717328224738317 -0.10219247760339542 -0.22998805435481534 164 147 112
-0.014543786554317139 -0.10287294488083783 -0.23125829471033332 161 143 112
-0.014228494084418071 -0.10391524550331165 -0.23244446697592472 157 138 106
-0.014306632054577058 -0.10395316023703954 -0.23386330800377955 163 145 110
-0.013458549628889654 -0.10635474470881416 -0.2347293544264977 163 147 112
-0.013058360450131635 -0.107612827093214 -0.235859824361211 153 135 102
-0.012780119525543334 -0.10855955415040569 -0.23706221337994504 137 116 80
-0.012229714814989856 -0.11020003252534104 -0.238097555946094 166 147 103
-0.011537827386730367 -0.11220061789419591 -0.23904296418901452 172 157 114
-0.010825362581713396 -0.11425291783157927 -0.23997147769948535 153 139 103
-0.011670463152258552 -0.11304797228740497 -0.24597875604415426 111 99 64
-0.011088598111123501 -0.11476651997184473 -0.24698250939944866 115 101 68
-0.011157092857496543 -0.11482965046233634 -0.24839910317464672 119 104 71
-0.011556484656477505 -0.11405129976536975 -0.25003025517737965 116 101 67
-0.01186838796100617 -0.11349614769328845 -0.2516087995979447 117 104 68
-0.011810543276980747 -0.11388167475521702 -0.2529499004704543 116 104 67
-0.011891060708346859 -0.11391560507110181 -0.2543822338300012 118 105 70
-0.012040147162058222 -0.11377557020543672 -0.25586138688010285 117 104 70
-0.011838276131808642 -0.11452753617577024 -0.25711011421321117 118 105 71
-0.011520116212354842 -0.11557477701269026 -0.25828082882864184 117 104 70
-0.011551539226171947 -0.11573410218973157 -0.2596844873203947 114 100 67
-0.011605353510209636 -0.1158368049043634 -0.261104510349394 113 98 65
-0.011814028591486937 -0.11554673195722782 -0.26263096076296943 113 98 65
-0.011903820478137928 -0.1155587510439991 -0.2640789870128297 117 102 69
-0.011960593347108108 -0.1156548238462006 -0.2655060968206433 117 102 69
-0.011976012536538119 -0.11585602156543084 -0.26690616834505587 112 97 64
-0.012020996088594908 -0.11598246505796743 -0.2683278894098233 111 96 63
-0.012123322857725657 -0.11596380421656094 -0.26979096265409613 108 93 62
-0.012651592098724254 -0.11486613630018327 -0.271554377566097 100 87 56
-0.0125797184118848 -0.11528969059876164 -0.27289997593372733 97 83 52
-0.01247734517333204 -0.11579057464121184 -0.27422445920074706 100 87 55
-0.012735619107103071 -0.11537835403767462 -0.2758061045336523 102 89 57
-0.012848771488914789 -0.11533400503016876 -0.2772868461385607 102 90 59
-0.0129465068525553 -0.1153290026362897 -0.2787584045132253 98 87 58
-0.013025788827092436 -0.11537099846123888 -0.28021840621372507 89 77 52
-0.013136206183960629 -0.1153345302600683 -0.2817027260581964 68 58 40
-0.013631232371708797 -0.11432584895348949 -0.28347030758244524 45 37 24
-0.013731426314969415 -0.11431613998474158 -0.2849523973598741 42 33 21
-0.013979249753514951 -0.11393364035723909 -0.28654545149548766 41 31 20
-0.014340581689855567 -0.11326485776457523 -0.28822582457881285 38 28 18
-0.014734022255627224 -0.11251563498443523 -0.2899340311964581 38 28 18
-0.014909848923995586 -0.11231666579306718 -0.2914829485217809 38 28 20
-0.015150957456861484 -0.11195330204239898 -0.29308355786300405 42 33 23
-0.014225983870405764 -0.1145336133001274 -0.2938025510557569 44 35 23
-0.01393601761545592 -0.11551055009191685 -0.2949996030208285 48 37 22
-0.013716834634920827 -0.1163087220771845 -0.29624971701256486 69 57 35
-0.014052189861433003 -0.11570825602950321 -0.29792629660284925 104 92 59
-0.014147267309266472 -0.11571423682351688 -0.2994205553620681 137 123 88
-0.013612301567382384 -0.11730863445024357 -0.3004264806140336 145 131 96
-0.013876786462871726 -0.1168879184897324 -0.3020543586463962 113 100 69
-0.013916108593063406 -0.11703499220548945 -0.30350844901615814 115 101 74
-0.014279981626624007 -0.11636488740975434 -0.3052201891806639 121 107 76
-0.014357103024539328 -0.11641748091730746 -0.3067082976328596 128 113 80
-0.013499173729204774 -0.11882413219522923 -0.3074524667819045 132 116 82
-0.01394712383699884 -0.11794345277584833 -0.30923743410309223 131 115 82
-0.013913544987710654 -0.11827504905327849 -0.3106392423673185 130 116 82
-0.013808785727250177 -0.11878582222429772 -0.3119842742950416 135 122 87
-0.01378304875696761 -0.11909793427719009 -0.3133938150323675 141 128 93
-0.013623612743372423 -0.11974630241692918 -0.3146950116729406 139 126 91
-0.013304768582206045 -0.12079526751236225 -0.31586519132389573 136 123 88
-0.013245676770992355 -0.12119135248816967 -0.31724819273899135 134 121 86
-0.014042260405380175 -0.11943821551520947 -0.3193409087105024 131 118 83
-0.014458497420854227 -0.11864146328934524 -0.3211242772527983 129 116 81
-0.015666443412496234 -0.11585788476242209 -0.3235743050102744 128 114 79
-0.015768907917623073 -0.11585068924251561 -0.325105786653045 126 112 77
-0.016199940956485873 -0.11501940039567174 -0.3269166165291751 127 113 78
-0.01497525355796314 -0.11834218411588376 -0.32732731257342884 128 114 79
-0.015125841135065281 -0.11821461442265246 -0.3289015866885941 129 114 80
-0.014714561236748485 -0.1194960918346657 -0.3299970590175466 129 115 79
-0.015154764788352183 -0.11864303391197865 -0.3318228079519601 128 116 80
-0.015613535677872494 -0.11774424258288585 -0.3336691762511111 126 115 80
-0.016696010072528085 -0.11528386591571611 -0.33606169079340126 114 105 76
-0.01645145422170859 -0.11614851837474362 -0.33730666536784076 94 86 66
-0.015779930163326978 -0.11808201652691067 -0.338176796383976 58 49 36
-0.015128042698005799 -0.1199656365320145 -0.3390599971447124 32 24 14
-0.014444446258746047 -0.121927900075293 -0.3399111116520011 31 24 15
-0.04715573646337628 -0.04475848348702699 -0.395908972256343 87 78 61
-0.04777723152822845 -0.043488475017705336 -0.3981071443497444 82 73 59
-0.04836635096506027 -0.04230013235872783 -0.4002804705034787 51 41 30
-0.048957633023087185 -0.04110744127511792 -0.4024618552221809 43 34 20
-0.04970923428968995 -0.03951694750645654 -0.40480440079414404 61 49 33
-0.05037128649570459 -0.03815043245816674 -0.4070672145309587 78 65 48
-0.05097579342548429 -0.036928136205573475 -0.40928045368986865 95 84 64
-0.05171088338182986 -0.035382310012701035 -0.41162778231974395 93 82 62
-0.05249914543718654 -0.03370559464253317 -0.4140346196809857 102 91 71
-0.053182199889849804 -0.032291565263450894 -0.41634513722495187 100 89 69
-0.053454676222440434 -0.03189841991992354 -0.4182551203201121 100 89 69
-0.05268116304395589 -0.03410295846591227 -0.41912664940952093 101 90 70
-0.054019120094566116 -0.03106554802830197 -0.4221049875139434 102 91 71
-0.05467502791565891 -0.029722734266454304 -0.424410513102628 88 80 59
-0.05534370160698178 -0.02834939104818429 -0.4267355019716 83 75 54
-0.05542531563062638 -0.02843316826397113 -0.4284728912713799 88 80 61
-0.05576892328513072 -0.027867696981211415 -0.4304785100648346 92 83 66
-0.056619035075026705 -0.026047466202505615 -0.43300507329275706 103 94 76
-0.057543912863332124 -0.024043385048989258 -0.43561643800281064 100 92 74
-0.05801370636405162 -0.023168198355636688 -0.43776851572527886 101 93 75
-0.058211389276793764 -0.02296779796952919 -0.4396447058487102 107 98 80
-0.0583762032685531 -0.02284927884635915 -0.44148972252077745 104 95 78
-0.05879820893130362 -0.02209462597306011 -0.4436050775487824 99 90 73
-0.05952498165899379 -0.020586662171873105 -0.4460436405702846 91 82 66
-0.059596146523639676 -0.020701757285481792 -0.44780169277238796 64 56 45
-0.060395559175949305 -0.01901619479486369 -0.4503285646775577 32 25 21
-0.060816225509209544 -0.01826837556283817 -0.45246287053977274 37 33 30
-0.062366397357628854 -0.014729671251538817 -0.4558006989215259 45 42 37
-0.06084051885372461 -0.018794036306490708 -0.4558752650593302 34 29 26
-0.06085854030879862 -0.019042720860956014 -0.4575898622189102 36 28 24
-0.061467611843268585 -0.01783206639707488 -0.459940493659731 56 47 37
-0.06108370083836143 -0.01907395915474741 -0.4612272640806364 78 69 55
-0.060119581064490904 -0.02174752724833784 -0.46188448691845846 71 58 44
-0.05919488368060167 -0.024322681056974382 -0.4625778995498667 64 52 36
-0.059101561668610976 -0.024846039589835 -0.4641712919149523 67 57 41
-0.05919331602311259 -0.02491310756543444 -0.46596774596269896 74 64 51
-0.059105669854847026 -0.02542279503248407 -0.4675692290819118 62 50 38
-0.05906798812421632 -0.025809448028805 -0.4692263921063615 47 33 21
-0.05912702102499147 -0.02595799144258265 -0.47099159016936487 64 49 33
-0.05873024841525156 -0.027229528347277182 -0.47225230858325423 119 105 83
-0.058340164230478775 -0.0284842565782778 -0.4735185214020717 102 87 65
-0.05801457174682289 -0.02957989948159484 -0.474854993835463 90 75 56
-0.057619853430089144 -0.030845417366096167 -0.4761124481297063 100 85 64
-0.057745831804028994 -0.03082957902935729 -0.47795495283308914 106 90 69
-0.05790728457955318 -0.030726902103186682 -0.47983996781415306 101 85 62
-0.0577959255477819 -0.03129546657807897 -0.4814178326674579 112 97 73
-0.05755140092600876 -0.03219142754068666 -0.4828443160496167 101 87 64
-0.05752426000042529 -0.03255308411111857 -0.48451877464504295 86 74 51
-0.057511800755898256 -0.03287886462427406 -0.48621119435841387 106 94 71
-0.05755644471775081 -0.03306461878114855 -0.48797064293564635 109 97 76
-0.05798524678992025 -0.03230749806275057 -0.4901760705185899 99 86 67
-0.05775716706440284 -0.033163503762951324 -0.49162399835865755 102 89 71
-0.05775259059894102 -0.03347099771603321 -0.4933317034970406 75 63 45
-0.05778305197468209 -0.03369276909170557 -0.4950816695267678 90 78 64
-0.05787912331193012 -0.03375392321247278 -0.49691020549166276 52 38 28
-0.05808557928914023 -0.03354483593192406 -0.4988708555216429 63 49 37
-0.05836848945577637 -0.033148905193656014 -0.5009249186479076 90 80 68
-0.05840610389920621 -0.03335461526474559 -0.5026918338869344 66 56 44
-0.05816514176123906 -0.034242949484021956 -0.5041289116184374 73 62 50
-0.05857565289478899 -0.03353594360005377 -0.5063432971786626 67 58 46
-0.05867442309744869 -0.03359288318291087 -0.5081888985496698 64 56 45
-0.05899890024731626 -0.03309785427320225 -0.5103081220407922 51 42 33
-0.05920256929591753 -0.03289908443614811 -0.5122856423748955 57 48 39
-0.05935376822082432 -0.03282917422956205 -0.5142026959852801 66 57 48
-0.059594889486810375 -0.03253986024436037 -0.5162316650606027 61 52 43
-0.05983643314214539 -0.03225010178919069 -0.5182645488946824 62 53 44
-0.05994356065180787 -0.03228938331202455 -0.5201363549433515 61 52 44
-0.06044642741417917 -0.031362344469537756 -0.5224963750435572 65 56 47
-0.06058428302861309 -0.03132766254772287 -0.5244122693838511 76 67 57
-0.060534343749998915 -0.03175189136176948 -0.526098516018885 80 72 61
-0.06074038351476816 -0.031551540601748834 -0.5281032917098374 68 59 47
-0.06117066698746037 -0.030804604102043276 -0.53039034882588 77 68 55
-0.06078272763334362 -0.03205429731051371 -0.5316603770923989 76 68 53
-0.061231048547862245 -0.03126451890360449 -0.5339766373205765 78 70 55
-0.061218496050812234 -0.031599095782690906 -0.5357184869721016 77 68 53
-0.06135632730844886 -0.031567418781670825 -0.5376513821716715 81 72 57
-0.0617222612828395 -0.030980481848323277 -0.5398756490757844 87 78 63
-0.062062135645860536 -0.03045779188072542 -0.5420713189658901 88 80 62
-0.062194065212158034 -0.030442131834981317 -0.5440062202867247 79 71 52
-0.062370437163034725 -0.03031873592057313 -0.5460004824324445 84 76 57
-0.06270221117971342 -0.029817711208586867 -0.5481970627001901 81 72 53
-0.06286196318461841 -0.029735863560121395 -0.5501764038655316 92 81 63
-0.06303621136523442 -0.029619243640008897 -0.5521772403921079 80 69 51
-0.06321361385695297 -0.029495456568260442 -0.5541850622059755 70 59 41
-0.06315013747369974 -0.029957579488068126 -0.5558825884278948 82 71 53
-0.06324043836292415 -0.03004624383358956 -0.5577816008320522 75 65 49
-0.06385267147133855 -0.028867618299788705 -0.5603659653092761 64 55 43
-0.06390140712700175 -0.029058349679104284 -0.5622170105135114 55 45 35
-0.06407352296093509 -0.028949916391054542 -0.564232446220957 46 38 29
-0.06411935187100608 -0.02914842825873562 -0.5660838532723836 57 49 42
-0.06439542371261957 -0.028788725621100936 -0.5682424060091162 49 37 28
-0.06463598067767964 -0.028515806845490127 -0.5703575106357908 81 66 53
-0.06459216588623634 -0.028932904666668063 -0.5720965512792021 87 74 55
-0.02897143674807652 -0.12160089748332949 -0.5610460587978187 100 87 67
-0.028097554770312415 -0.1239938707621267 -0.5614662265267105 112 97 76
-0.02819685321431311 -0.12404403376133777 -0.5632807547413033 111 95 72
-0.02828104050119496 -0.12413092938176551 -0.5650756810550587 114 98 74
-0.028295903365439343 -0.12438489156531676 -0.5667723017864077 126 109 81
-0.02826915172798837 -0.12473914859654461 -0.5684099519448185 124 107 77
-0.028064884604085058 -0.1255202028153331 -0.5697900848283496 127 111 81
-0.028026286381342337 -0.12590316910591015 -0.5714118604457912 137 120 89
-0.02665982044904805 -0.12947541312960648 -0.571088308776552 134 116 84
-0.027848949369727115 -0.12691005275394257 -0.5745112097463063 138 119 86
-0.027899042172378555 -0.1270805945001826 -0.5762663517810025 146 128 93
-0.028003171057664755 -0.1271217939480172 -0.5781032110925369 150 130 96
-0.029500367569637365 -0.1238219610132639 -0.5820089170196283 153 133 98
-0.02929760190251539 -0.12460090227119916 -0.5833998836455904 155 137 98
-0.02938598970698999 -0.12468185114071625 -0.5852249136355794 156 138 99
-0.029291449941916764 -0.12520152235411036 -0.5867782899340798 156 138 98
-0.02937604365206882 -0.1252921633918794 -0.5886011122969117 160 143 100
-0.029461923940052544 -0.12538009006716733 -0.5904279920984505 163 145 104
-0.029596943971907333 -0.1253507454117917 -0.5923312138267557 156 138 100
-0.029732170233894226 -0.12532135252706728 -0.5942373228368395 160 142 106
-0.029831799800052905 -0.12537756934256006 -0.5960919384675059 162 142 105
-0.030032803274419588 -0.1251917236041667 -0.5981032641790871 167 148 109
-0.030129350056299097 -0.12525617340174816 -0.599958155392564 164 148 106
-0.029895570852586706 -0.12611053570928663 -0.6013090796723463 169 154 112
-0.03030358473570042 -0.12543129819759244 -0.6036456860971785 174 159 118
-0.03045039752208519 -0.12537683398215713 -0.6055847119829231 171 154 115
-0.03054783253335374 -0.12544074202927377 -0.607450107280323 163 143 106
-0.030805221529178 -0.125123225162902 -0.6095657544831168 151 132 94
-0.0307465860344137 -0.12556046546031607 -0.6111937262957546 161 144 103
-0.030846151069798537 -0.12562047066927037 -0.6130692561434103 168 150 109
-0.030874909604746634 -0.12584972462025587 -0.6148363444089153 159 140 100
-0.030962368488150344 -0.1259393274493792 -0.6166971513206471 174 155 116
-0.03103680098409326 -0.1260603521873842 -0.6185396556222742 179 160 122
-0.03104636922548657 -0.1263362657706255 -0.6202819161368973 174 156 117
-0.031136925716263683 -0.1264195560736968 -0.6221537793348421 166 147 108
-0.031228948680915566 -0.1264997392342264 -0.624030190727215 171 152 112
-0.03132973273995386 -0.12655945776826563 -0.6259227780559631 158 139 99
-0.03146297144997266 -0.12654235994460175 -0.6278694646170225 174 155 115
-0.031505554433044994 -0.12674133577323568 -0.6296737212291175 171 156 113
-0.03158995983654141 -0.12684118234088482 -0.6315468800438759 183 167 124
-0.03189437630588579 -0.12641846288177994 -0.6337762233583158 176 157 115
-0.03197849886901883 -0.12651990853495246 -0.6356542859607566 155 137 98
-0.03232070671504227 -0.12600869562267486 -0.6379521423155079 157 139 103
-0.03212009805786224 -0.12678720481719116 -0.639373726209982 161 143 105
-0.03212320701038261 -0.1270820697789842 -0.6411263994986016 168 151 109
-0.03226652786586104 -0.12704446833332386 -0.6431093179645275 171 154 112
-0.032163315797781235 -0.12759215901783139 -0.6446915644761848 178 161 119
-0.032161717179881394 -0.12789896924733446 -0.646441033669903 167 150 108
-0.03230292466618805 -0.12786748848177387 -0.6484268970975233 154 136 96
-0.03230969261076398 -0.12815507445490376 -0.6501936571364331 164 146 106
-0.032702387501896496 -0.12752865143763 -0.652600458112306 173 156 114
-0.033006661038884465 -0.12711250002376334 -0.6548655842487658 178 161 119
-0.03330980873075097 -0.12669974481286694 -0.6571330630764924 180 163 120
-0.03312578101970877 -0.1274406895072148 -0.658592003797403 168 151 108
-0.033236584757693526 -0.12748406551599242 -0.6605439239527152 173 156 112
-0.03315648063361532 -0.12797937529789466 -0.6621780629263362 180 163 119
-0.03310128973551999 -0.12841590699591324 -0.6638548207281074 168 150 106
-0.03295798321958412 -0.1290608600198285 -0.6653838989919377 164 146 103
-0.0330782584639286 -0.12908307925964355 -0.6673588996406854 160 142 99
-0.03307188609738738 -0.12940486706389887 -0.6691216818855299 161 143 100
-0.03310469776890239 -0.12963437986971219 -0.6709524926842482 167 149 104
-0.033009977125378474 -0.1301652089005912 -0.6725676078273972 167 149 105
-0.03317404985273288 -0.13008552098551637 -0.6746257707380839 167 148 107
-0.033207998250089334 -0.13031326974332216 -0.6764638331993114 162 143 102
-0.03335654067133012 -0.13027112656016837 -0.678500654938924 160 141 101
-0.033241993696586834 -0.13084959776120852 -0.6800868587059249 162 143 101
-0.03349104789746828 -0.13057139262148995 -0.6823018508350511 162 144 103
-0.03365338819140635 -0.1304980935795794 -0.6843703577491373 130 109 76
-0.033848929233875155 -0.13034713242763818 -0.6864995281258143 127 104 71
-0.03396452207070234 -0.13038492819232675 -0.6884927073392684 150 127 92
-0.034110236633122244 -0.13035228650695363 -0.6905410531098319 149 125 90
-0.03380669141164074 -0.13137691364227508 -0.6918053849487392 145 122 84
-0.03387366397869837 -0.13153004991375114 -0.693719033219454 148 129 87
-0.03367996165646648 -0.13229630731418057 -0.6951758053844838 160 138 96
-0.03377095398039023 -0.1323935193405831 -0.6971348567168365 153 133 91
-0.033725261125770345 -0.13281221434028748 -0.6988542994530906 142 124 81
-0.033720670443811815 -0.13313457514036325 -0.7006477481494441 166 147 103
-0.03391767398328344 -0.1329839582650912 -0.702801362167882 166 145 101
-0.033851703245026205 -0.13345101807399237 -0.7044891394485271 166 147 110
-0.03405582424476956 -0.13328464580313412 -0.7066609248141216 161 145 114
-0.03413489781977039 -0.1334120988045098 -0.708611850268559 128 114 84
-0.034316862422039095 -0.1332987431729241 -0.7107500276987105 110 96 63
-0.034641360797345463 -0.13285193205962914 -0.7131483778903565 161 149 107
-0.03490858847199219 -0.13254006813563493 -0.7154477594343043 192 178 139
-0.03523083067823383 -0.1321000687075309 -0.7178508577221833 171 157 121
-0.035285972623270746 -0.13228611932020876 -0.7197731907943878 144 131 89
-0.03554563732485312 -0.13199391278029796 -0.7220701229988501 170 154 112
-0.03557066763144604 -0.13225127323604033 -0.7239424886534999 164 145 103
-0.03563160565911878 -0.13242496683716917 -0.7258823564611381 164 145 104
-0.03547343966203402 -0.13311121665057177 -0.7274220872262082 155 136 94
-0.03568998023899795 -0.13292183465960106 -0.7296514993854744 152 133 90
-0.03584940975344872 -0.13286648373638593 -0.7317790966227055 170 152 106
-0.03602213661592308 -0.13278060512512782 -0.7339343268813949 166 148 102
-0.03566880323529408 -0.13392331045552094 -0.7351170273765675 179 161 116
-0.03592866482968068 -0.13363475913312337 -0.737438117266532 183 165 120
-0.03624596279596577 -0.1332129133351301 -0.7398702754534026 178 160 112
-0.03689984389750466 -0.13200696123293726 -0.7429360356524178 177 159 111
-0.0378162538679469 -0.13019036301699388 -0.7465014460130737 166 148 103
-0.03854435699811839 -0.12881434974629252 -0.7497233871693436 153 135 94
-0.03945897078617609 -0.12700533062674996 -0.7533050448344147 152 132 95
-0.040235607382287396 -0.12551938747372862 -0.7566364691291765 148 126 87
-0.04135032672182244 -0.12324799619098509 -0.7606167595907446 132 111 74
-0.042154468185724506 -0.12170142990883728 -0.7640199226474576 115 98 60
-0.04315438590116897 -0.11970105314301824 -0.7678047575103167 103 89 51
-0.043686367280478304 -0.1187907167899529 -0.7707083356640254 85 72 41
-0.04423773201001543 -0.11783647672141151 -0.7736556404997597 98 86 60
-0.044768077763731484 -0.11693226516432106 -0.7765695219749458 98 86 61
-0.045231986189811356 -0.11618353206129572 -0.7793624182345489 83 71 50
-0.0437961039709306 -0.11984722555937147 -0.7785019239490484 53 40 22
-0.04343917548254608 -0.12100433771193456 -0.7797127324300452 52 40 24
-0.04226863476596712 -0.12404901758594236 -0.7793466873725952 49 37 20
-0.04266055370448452 -0.12346783315232926 -0.7820031502175482 52 39 20
-0.042422847215642115 -0.1243474955577086 -0.7834400688989624 54 39 19
-0.042774874228422514 -0.12386010689480867 -0.786026428619868 62 44 24
-0.04266798245488306 -0.1244369163001813 -0.7877205502185262 75 60 36
-0.04208252117151802 -0.12612229154711568 -0.7884772853985373 78 64 38
-0.041699567207090456 -0.12733808516547807 -0.7896278405684154 75 58 33
-0.041424177947987986 -0.12830455243910924 -0.790988149998303 74 57 34
-0.04161982191275587 -0.12818100424834566 -0.79327740538023 71 57 32
-0.04168453468748935 -0.1283608867450711 -0.7953110099212313 67 52 29
-0.04149667941857747 -0.1291250995840402 -0.796845727120279 69 55 31
-0.04133855306002742 -0.12982056586030433 -0.798439357083012 66 52 29
-0.04118221914865294 -0.13051190341913152 -0.8000366328839668 57 43 22
-0.04104710847705527 -0.1311542411497187 -0.8016764159736199 51 37 16
-0.04064912447090096 -0.13240351814908052 -0.8027898270871099 56 41 18
-0.040482425563475394 -0.13311863745086985 -0.8043654829896238 94 82 54
-0.04031309149171738 -0.13383983398513646 -0.8059358217711734 123 110 85
-0.040119968541112154 -0.13461588462390914 -0.8074581143716659 122 109 81
-0.040335058251881425 -0.13445083525551313 -0.8098059461168804 162 148 112
-0.03969937465231482 -0.1362469994072559 -0.810432237040727 179 165 124
-0.039690711202445036 -0.13659795766376787 -0.8123285123195007 162 146 105
-0.03995443408279515 -0.13632193869279335 -0.8147813461220377 170 153 107
-0.040081935391852 -0.13636021747112895 -0.8169601430713638 180 160 112
-0.04032369624105131 -0.13613607321139554 -0.8193757501896469 177 159 110
-0.040106095996845864 -0.136969254400732 -0.8208525903897802 176 158 110
-0.04071049903547004 -0.1359122517812253 -0.8240199813301007 178 160 113
-0.0407822339100294 -0.13608091052559604 -0.8260964956780477 169 151 105
-0.04077094110783104 -0.13644074475489365 -0.8280037257025912 165 147 102
-0.04087967410305213 -0.13652516414099244 -0.8301611722881211 174 156 109
-0.04118442468053771 -0.1361600001542257 -0.8327284373514177 175 158 111
-0.04110532769577642 -0.13667661744651977 -0.8345012409101185 172 157 112
-0.041199310456445315 -0.1367962921673957 -0.8366360848209422 169 154 107
-0.04134460521148501 -0.13679873211519852 -0.8388808315283036 172 154 109
-0.041611434035948615 -0.13652308069803376 -0.8413834745958992 165 148 107
-0.04192547855580684 -0.1361399664422347 -0.8439896344512668 153 137 100
-0.04239431304668513 -0.13540307451903047 -0.8469266252136777 148 134 100
-0.04313146589390429 -0.1340528239015375 -0.8504364648281387 143 131 97
-0.04370414834353992 -0.13308062024093573 -0.8536071825445164 131 122 95
-0.04430000893398165 -0.13205664932654598 -0.856834418607686 96 90 75
-0.0452106508378855 -0.13031395230145937 -0.8607385798635354 38 33 26
-0.04607707068488525 -0.1286742268470174 -0.8645592151581857 34 31 24
-0.04694797622417309 -0.1270260296944258 -0.8683997327404561 57 54 49
-0.04807211141437746 -0.12480103350684035 -0.8727928418780239 97 96 91
-0.048619630284926066 -0.12389524891418358 -0.8759612782660664 125 124 120
-0.042914408132380746 -0.13726646404386028 -0.8656857205669607 144 143 141
-0.04264991597893515 -0.1382109802502483 -0.8670864042886558 160 159 157
-0.02963131127492834 -0.05480084571337193 -0.1611616712142923 178 177 178
-0.02946808766048868 -0.05545944499324207 -0.16246546384873645 177 178 175
-0.03152509125072878 -0.050395701313061925 -0.16462971563453047 176 176 174
-0.03117444614663442 -0.05153855675584704 -0.16586777883004028 175 175 171
-0.03106400114473764 -0.05206236648519225 -0.16719915324602264 174 171 168
-0.030851428065327917 -0.052849240109597975 -0.16849004095089337 176 170 163
-0.030783661280799866 -0.05326316575060076 -0.1698386070546005 184 175 163
-0.030583078914050318 -0.05401907765942454 -0.17113381294453636 180 172 156
-0.03009351257793097 -0.055518641990637885 -0.17231032382228456 154 144 127
-0.029643720522904704 -0.056915427959661515 -0.17350072443108802 131 118 102
-0.02799696682314104 -0.06139082767479517 -0.1741904790507956 144 133 114
-0.026177774231660823 -0.06630779909592455 -0.17479693141353794 168 157 134
-0.025090528817589032 -0.06934075316352865 -0.1757013034877312 166 155 127
-0.023436070437998245 -0.07383051471016573 -0.17635649210593968 142 129 104
-0.02306434830528149 -0.07502194381646522 -0.17755334939318226 105 91 66
-0.023300609425464424 -0.07465104098576572 -0.17901263721379676 108 94 69
-0.02358631932136241 -0.07415359407283485 -0.18049628136071616 101 86 60
-0.02307216009723985 -0.07571070121419389 -0.18162969213407082 88 72 44
-0.02246738223780139 -0.07749997855706531 -0.18272001127169782 83 67 37
-0.021726189189137497 -0.07963879937238474 -0.18374569019882192 81 65 35
-0.02195057747993865 -0.07929912144907637 -0.1852039636407484 96 81 50
-0.022648303549399482 -0.07774558756855775 -0.1868807882782192 111 96 64
-0.02271124858939469 -0.07782118827028923 -0.18827178148317517 94 80 52
-0.02291113688142889 -0.07754589718367809 -0.18972769250576327 76 62 35
-0.020402636871971438 -0.08421404867434107 -0.18992094248570587 85 71 43
-0.022041355453435822 -0.08025033013156643 -0.19204921533410865 88 74 46
-0.022379281431592773 -0.07962182516193601 -0.19357333367414314 90 76 50
-0.022351250838740122 -0.07993136396134959 -0.19492596827439668 91 77 51
-0.02225361692781219 -0.08041929350268269 -0.19624586661095011 116 102 73
-0.022444421968571854 -0.08016876798110678 -0.1977060414318313 118 105 75
-0.022523821657165183 -0.08020382460170832 -0.1991141315551098 94 80 54
-0.022814940746220543 -0.07969735017721526 -0.20062810791618982 88 74 47
-0.02357670284853465 -0.07798730944867305 -0.2023788072908132 98 85 55
-0.023963335242657015 -0.07723792191003212 -0.20394853142552144 98 83 54
-0.02348915703748116 -0.07869043602907023 -0.20508854666404897 90 75 48
-0.023769488702745742 -0.07821359684294207 -0.20660886948309004 93 78 51
-0.024075912932999398 -0.07767060168389282 -0.2081455917580315 103 91 61
-0.024023504761496377 -0.07804507923268528 -0.20950089569333735 94 83 55
-0.023615123616562775 -0.0793290364747465 -0.21067230845728585 85 73 49
-0.022907023209578287 -0.08137811954351384 -0.21168526671583773 75 61 41
-0.02404518405777954 -0.07871236643910454 -0.21366461725779548 73 60 40
-0.023534622442633314 -0.08025691591625175 -0.21478054483887796 78 68 49
-0.024584911334887813 -0.0783017041669189 -0.21950728383049536 82 70 52
-0.024667479268520136 -0.0783334493324471 -0.22094449468647667 88 77 57
-0.025176720521742767 -0.07727768798838432 -0.2226170958701131 87 76 57
-0.0250018177337916 -0.07796652445202555 -0.22391714165796647 84 73 54
-0.023850912371898795 -0.08114234475164081 -0.22467497495607675 87 75 56
-0.022669785231812498 -0.08439384968797639 -0.22540840834343212 108 96 74
-0.02154870164717606 -0.08749108342151396 -0.22616788806256144 139 126 99
-0.02059830583792151 -0.09015243369346104 -0.22701674282289128 153 139 108
-0.018574897098292402 -0.09554419121749853 -0.22724781853441706 159 145 111
-0.017893596345923617 -0.09751790962336612 -0.22823500856511827 162 149 113
-0.017535746836455847 -0.0986679643880231 -0.22940495248989345 164 150 115
-0.01684523856950052 -0.10066390075627885 -0.23037987924518238 164 149 113
-0.016115284615434294 -0.10275942860537898 -0.23132759804279546 158 142 111
-0.0158699617684043 -0.1036220799433737 -0.2325562022817406 150 134 105
-0.01580281564860605 -0.10403171559887153 -0.23388955034135306 159 140 110
-0.015742173970974955 -0.10442491201762123 -0.23522728729556466 156 138 103
-0.015187247377999629 -0.10607389099789087 -0.2362690468941132 150 130 97
-0.014701885794728975 -0.10754564594803996 -0.23734966454500825 153 132 93
-0.014309322090346813 -0.10878132149891714 -0.2384840298530111 183 163 114
-0.013655052892584762 -0.11068098889391634 -0.23945652418085334 193 177 128
