ply
format ascii 1.0
element vertex 850
property float x
property float y
property float z
property float nx
property float ny
property float nz
property uchar diffuse_red
property uchar diffuse_green
property uchar diffuse_blue
property uchar class
property uchar detection
end_header
-0.0091 -0.0128 -0.3584 0.816 0.195 0.544 28 21 14 0 0
-0.0023 -0.0109 -0.3747 0.938 0.216 0.271 103 88 58 0 0
-0.0736 -0.0433 -0.4617 0.867 -0.492 0.085 43 39 33 0 0
-0.0686 -0.0417 -0.4691 0.841 -0.429 0.329 57 47 38 0 0
-0.0783 -0.0496 -0.5481 0.771 -0.617 -0.156 6 4 5 0 0
-0.0823 -0.0525 -0.5747 0.778 -0.617 -0.114 29 26 22 0 0
-0.0668 -0.0473 -0.5912 0.972 0.043 0.231 59 47 37 0 0
-0.0658 -0.0471 -0.5948 0.920 0.321 0.225 76 62 49 0 0
-0.0563 -0.0441 -0.6103 0.893 -0.023 0.450 85 73 52 0 0
-0.0485 -0.0413 -0.6142 0.656 -0.128 0.744 60 49 38 0 0
-0.0388 -0.0385 -0.6335 0.739 0.009 0.673 64 52 37 0 0
-0.0351 -0.0372 -0.6375 0.731 0.283 0.622 54 41 23 0 0
-0.0338 -0.0368 -0.6389 0.688 0.222 0.691 92 79 62 0 0
-0.0283 -0.0364 -0.6734 0.879 0.283 0.385 94 86 65 0 0
-0.0274 -0.0361 -0.6750 0.853 0.246 0.461 77 66 47 0 0
-0.0351 -0.0403 -0.6972 0.978 -0.207 -0.022 26 21 12 0 0
0.0073 -0.0325 -0.8698 0.270 -0.172 0.947 149 148 146 0 0
0.0084 -0.0321 -0.8711 0.216 -0.149 0.965 157 156 154 0 0
0.0140 0.0031 -0.1939 0.479 0.781 0.401 133 116 87 0 0
0.0162 0.0038 -0.1978 0.494 0.857 0.148 138 122 91 0 0
0.0192 0.0047 -0.2031 0.971 0.233 -0.045 133 117 91 0 0
0.0209 0.0051 -0.2072 0.722 0.147 0.676 106 95 76 0 0
0.0215 0.0053 -0.2085 0.876 0.224 0.428 95 86 72 0 0
0.0261 0.0070 -0.2106 0.484 -0.144 0.863 125 116 100 0 0
0.0282 0.0078 -0.2116 0.456 -0.060 0.888 143 132 113 0 0
0.0322 0.0092 -0.2137 0.488 0.038 0.872 170 156 120 0 0
0.0336 0.0095 -0.2193 0.925 0.307 0.226 71 58 35 0 0
0.0347 0.0099 -0.2205 0.798 0.498 0.341 61 49 28 0 0
0.0379 0.0097 -0.2479 0.907 -0.365 0.211 70 55 29 0 0
0.0427 0.0114 -0.2512 0.730 -0.127 0.672 79 65 39 0 0
0.0356 0.0072 -0.2788 0.786 0.291 0.545 105 90 61 0 0
0.0380 0.0077 -0.2873 0.918 0.396 -0.017 101 86 55 0 0
0.0377 0.0075 -0.2890 0.644 0.624 0.442 99 84 53 0 0
0.0384 0.0077 -0.2903 0.644 0.624 0.442 102 86 55 0 0
0.0379 0.0074 -0.2920 0.821 0.544 -0.171 107 90 60 0 0
-0.0114 -0.0154 -0.3576 0.922 0.359 0.146 27 18 12 0 0
-0.0096 -0.0147 -0.3587 0.899 0.417 0.135 29 20 12 0 0
-0.0747 -0.0457 -0.4623 0.893 -0.440 0.094 23 19 17 0 0
-0.0742 -0.0455 -0.4640 0.943 -0.050 0.330 16 11 11 0 0
-0.0707 -0.0444 -0.4683 0.880 -0.136 0.455 73 64 53 0 0
-0.0697 -0.0441 -0.4698 0.843 -0.312 0.439 76 64 49 0 0
-0.0687 -0.0438 -0.4712 0.914 -0.345 0.214 82 69 52 0 0
-0.0661 -0.0431 -0.4778 0.848 -0.387 0.362 71 60 42 0 0
-0.0644 -0.0425 -0.4789 0.756 -0.314 0.575 70 59 41 0 0
-0.0631 -0.0420 -0.4803 0.756 -0.314 0.575 92 83 64 0 0
-0.0622 -0.0418 -0.4818 0.859 -0.095 0.504 83 75 56 0 0
-0.0785 -0.0513 -0.5424 0.773 -0.608 -0.181 7 5 4 0 0
-0.0791 -0.0517 -0.5447 0.783 -0.596 -0.177 5 5 4 0 0
-0.0800 -0.0521 -0.5472 0.783 -0.602 -0.156 4 4 4 0 0
-0.0808 -0.0526 -0.5496 0.773 -0.610 -0.173 4 4 4 0 0
-0.0805 -0.0542 -0.5822 0.668 -0.669 0.326 66 59 52 0 0
-0.0658 -0.0490 -0.5951 0.834 0.143 0.533 103 92 77 0 0
-0.0600 -0.0473 -0.6064 0.899 -0.113 0.422 42 29 13 0 0
-0.0579 -0.0467 -0.6094 0.676 0.120 0.727 79 66 48 0 0
-0.0563 -0.0461 -0.6105 0.581 0.228 0.781 120 106 87 0 0
-0.0464 -0.0428 -0.6215 0.904 -0.086 0.420 78 65 47 0 0
-0.0394 -0.0407 -0.6341 0.657 0.159 0.737 119 112 94 0 0
-0.0272 -0.0379 -0.6730 0.586 0.407 0.701 75 63 45 0 0
-0.0251 -0.0374 -0.6781 0.850 0.514 0.116 59 49 40 0 0
-0.0127 -0.0345 -0.7173 0.403 0.313 0.860 113 100 82 0 0
-0.0115 -0.0341 -0.7186 0.475 -0.032 0.879 108 96 74 0 0
0.0201 -0.0293 -0.8662 0.034 -0.319 0.947 168 167 165 0 0
0.0227 0.0042 -0.2084 0.703 0.114 0.702 105 94 80 0 0
0.0246 0.0049 -0.2094 0.450 0.405 0.796 91 79 67 0 0
0.0257 0.0053 -0.2107 0.452 0.297 0.841 116 106 92 0 0
0.0280 0.0061 -0.2117 0.403 0.230 0.886 140 129 110 0 0
0.0321 0.0076 -0.2138 0.585 0.005 0.811 179 165 128 0 0
0.0351 0.0084 -0.2205 0.885 0.161 0.437 61 49 30 0 0
0.0364 0.0076 -0.2468 0.718 -0.246 0.651 72 56 31 0 0
0.0379 0.0064 -0.2798 0.883 0.201 0.425 107 92 65 0 0
0.0381 0.0061 -0.2874 0.876 0.479 0.060 100 85 54 0 0
-0.0051 -0.0159 -0.3828 0.983 -0.180 -0.029 138 123 91 0 0
-0.0052 -0.0161 -0.3846 0.998 -0.007 -0.068 118 103 76 0 0
-0.0057 -0.0164 -0.3865 0.999 0.016 -0.041 115 101 77 0 0
-0.0058 -0.0169 -0.3952 0.979 0.203 0.025 86 74 48 0 0
-0.0752 -0.0479 -0.4647 0.861 -0.412 0.298 15 12 11 0 0
-0.0749 -0.0479 -0.4664 0.853 -0.365 0.373 19 16 15 0 0
-0.0702 -0.0462 -0.4702 0.883 -0.227 0.410 89 77 64 0 0
-0.0786 -0.0530 -0.5366 0.729 -0.672 -0.132 6 5 5 0 0
-0.0793 -0.0534 -0.5390 0.772 -0.609 -0.182 5 4 4 0 0
-0.0802 -0.0539 -0.5415 0.776 -0.603 -0.187 5 4 4 0 0
-0.0814 -0.0545 -0.5441 0.773 -0.608 -0.181 5 5 5 0 0
-0.0819 -0.0548 -0.5463 0.783 -0.602 -0.156 5 5 5 0 0
-0.0816 -0.0548 -0.5482 0.819 -0.554 -0.148 4 4 4 0 0
-0.0832 -0.0573 -0.5839 0.512 -0.597 0.618 46 40 36 0 0
-0.0807 -0.0564 -0.5867 0.397 -0.646 0.652 73 68 59 0 0
-0.0615 -0.0499 -0.6054 0.916 0.075 0.395 50 37 23 0 0
-0.0603 -0.0495 -0.6068 0.666 0.313 0.677 57 44 28 0 0
-0.0593 -0.0492 -0.6084 0.654 0.478 0.586 83 70 53 0 0
-0.0566 -0.0482 -0.6110 0.559 0.396 0.728 130 116 97 0 0
-0.0413 -0.0432 -0.6293 0.808 -0.029 0.588 63 52 31 0 0
-0.0403 -0.0428 -0.6308 0.808 -0.029 0.588 55 44 27 0 0
-0.0382 -0.0461 -0.7087 0.956 0.228 -0.185 40 36 33 0 0
0.0009 -0.0316 -0.7255 0.921 -0.048 0.387 116 102 67 0 0
0.0258 -0.0291 -0.8665 0.630 -0.613 0.477 174 173 169 0 0
-0.0101 -0.0079 -0.1615 0.991 0.088 -0.106 178 178 178 0 0
-0.0103 -0.0081 -0.1629 0.959 0.151 -0.238 178 178 178 0 0
0.0120 -0.0003 -0.1841 0.556 0.682 0.475 133 116 85 0 0
0.0158 0.0009 -0.1878 0.605 0.600 0.524 141 126 93 0 0
0.0168 0.0013 -0.1891 0.563 0.572 0.596 139 124 91 0 0
0.0183 0.0017 -0.1917 0.645 0.687 0.333 147 133 98 0 0
0.0348 0.0055 -0.2443 0.761 0.135 0.635 76 60 35 0 0
0.0386 0.0051 -0.2796 0.812 0.419 0.407 100 86 59 0 0
-0.0055 -0.0185 -0.3952 0.979 0.203 0.025 91 80 50 0 0
-0.0761 -0.0530 -0.5178 0.867 -0.465 -0.182 82 78 66 0 0
-0.0768 -0.0534 -0.5201 0.943 -0.322 0.082 76 71 60 0 0
-0.0869 -0.0609 -0.5861 0.390 -0.338 0.856 39 34 31 0 0
-0.0861 -0.0606 -0.5878 0.300 -0.486 0.821 48 44 39 0 0
-0.0825 -0.0592 -0.5879 0.530 -0.469 0.707 61 57 48 0 0
-0.0802 -0.0584 -0.5888 0.564 -0.462 0.684 73 68 59 0 0
-0.0600 -0.0514 -0.6090 0.683 0.113 0.722 91 78 61 0 0
-0.0528 -0.0489 -0.6154 0.750 -0.044 0.660 68 57 42 0 0
-0.0513 -0.0484 -0.6166 0.715 -0.022 0.698 67 54 39 0 0
-0.0451 -0.0462 -0.6214 0.841 0.082 0.534 142 128 103 0 0
-0.0359 -0.0434 -0.6369 0.880 0.427 0.208 87 75 56 0 0
-0.0316 -0.0443 -0.6873 0.967 -0.142 -0.213 39 31 22 0 0
-0.0352 -0.0461 -0.6940 0.907 0.371 -0.199 24 21 16 0 0
-0.0402 -0.0490 -0.7104 0.886 0.328 0.328 34 30 27 0 0
-0.0289 -0.0447 -0.7138 0.436 0.345 0.831 80 69 57 0 0
-0.0136 -0.0388 -0.7164 0.587 -0.217 0.780 97 85 69 0 0
-0.0126 -0.0384 -0.7179 0.470 0.054 0.881 85 72 54 0 0
0.0010 -0.0335 -0.7258 0.877 -0.066 0.476 117 99 64 0 0
0.0099 -0.0321 -0.7655 0.978 0.024 0.208 154 139 100 0 0
0.0104 -0.0322 -0.7717 0.910 0.298 0.287 164 146 105 0 0
0.0106 -0.0322 -0.7738 0.742 0.458 0.489 154 136 95 0 0
0.0115 -0.0319 -0.7754 0.713 0.433 0.551 156 138 99 0 0
0.0125 -0.0318 -0.7791 0.887 0.295 0.355 140 121 85 0 0
-0.0024 -0.0425 -0.8699 0.421 -0.111 0.900 124 123 119 0 0
-0.0103 -0.0097 -0.1630 0.933 0.352 -0.073 178 177 178 0 0
0.0132 -0.0014 -0.1825 0.517 0.838 0.173 143 127 94 0 0
0.0199 0.0006 -0.1944 0.621 0.770 0.144 138 123 90 0 0
0.0277 0.0029 -0.2089 0.940 0.029 0.339 105 90 74 0 0
0.0354 0.0050 -0.2279 0.986 0.149 0.073 70 57 36 0 0
0.0359 0.0047 -0.2366 0.953 0.293 0.074 73 56 35 0 0
-0.0749 -0.0541 -0.5115 0.824 -0.523 -0.218 79 70 55 0 0
-0.0862 -0.0602 -0.5408 0.703 -0.705 -0.091 4 4 5 0 0
-0.0834 -0.0616 -0.5887 0.608 -0.514 0.605 42 39 32 0 0
-0.0817 -0.0610 -0.5899 0.608 -0.514 0.605 48 44 35 0 0
-0.0797 -0.0603 -0.5909 0.661 -0.583 0.473 70 65 56 0 0
-0.0782 -0.0598 -0.5922 0.695 -0.577 0.429 72 66 56 0 0
-0.0376 -0.0459 -0.6340 0.653 0.204 0.729 66 53 33 0 0
-0.0365 -0.0455 -0.6354 0.783 0.274 0.559 69 55 35 0 0
-0.0365 -0.0460 -0.6438 0.978 0.097 0.187 71 58 39 0 0
-0.0369 -0.0490 -0.6976 0.761 0.521 0.387 10 9 9 0 0
-0.0403 -0.0511 -0.7109 0.777 0.148 0.611 40 37 33 0 0
-0.0277 -0.0462 -0.7133 0.464 0.504 0.728 79 69 58 0 0
-0.0131 -0.0405 -0.7164 0.666 0.366 0.650 96 84 69 0 0
-0.0121 -0.0402 -0.7179 0.550 0.200 0.811 99 86 68 0 0
0.0104 -0.0341 -0.7700 0.865 0.417 0.279 169 152 109 0 0
0.0109 -0.0340 -0.7718 0.865 0.417 0.279 165 147 107 0 0
0.0088 -0.0350 -0.7757 0.917 0.224 0.330 161 144 104 0 0
0.0133 -0.0382 -0.8688 0.781 -0.604 0.155 166 165 163 0 0
0.0131 -0.0385 -0.8714 0.731 -0.612 0.303 169 168 166 0 0
-0.0042 -0.0091 -0.1679 0.110 0.217 0.970 139 124 99 0 0
-0.0023 -0.0084 -0.1691 0.089 0.427 0.900 152 135 103 0 0
0.0359 0.0013 -0.2698 0.942 0.051 -0.331 87 73 45 0 0
0.0351 0.0006 -0.2777 0.809 -0.257 0.529 96 82 54 0 0
0.0365 0.0011 -0.2789 0.895 -0.054 0.444 92 78 51 0 0
0.0368 0.0011 -0.2803 0.953 -0.202 0.224 96 82 55 0 0
0.0305 -0.0027 -0.3039 0.973 0.209 0.097 112 97 66 0 0
-0.0028 -0.0175 -0.3319 0.943 0.175 -0.282 71 61 45 0 0
-0.0068 -0.0226 -0.3960 0.981 -0.166 -0.100 100 90 64 0 0
-0.0807 -0.0554 -0.4579 0.751 0.213 0.625 7 7 7 0 0
-0.0832 -0.0566 -0.4609 0.853 -0.280 0.440 5 5 5 0 0
-0.0780 -0.0573 -0.5112 0.924 -0.077 -0.375 97 87 76 0 0
-0.0567 -0.0544 -0.6140 0.987 0.098 0.124 80 67 50 0 0
-0.0370 -0.0511 -0.6980 0.994 -0.108 0.010 11 7 8 0 0
-0.0401 -0.0530 -0.7110 0.788 0.155 0.596 37 32 28 0 0
-0.0392 -0.0527 -0.7127 0.845 0.401 0.354 45 40 34 0 0
-0.0125 -0.0423 -0.7164 0.744 0.335 0.578 81 70 54 0 0
-0.0107 -0.0416 -0.7173 0.769 -0.041 0.638 116 101 81 0 0
0.0011 -0.0374 -0.7264 0.782 0.282 0.555 139 123 88 0 0
0.0018 -0.0372 -0.7282 0.752 0.291 0.591 122 107 75 0 0
0.0083 -0.0369 -0.7697 0.932 0.291 0.214 171 153 113 0 0
0.0088 -0.0368 -0.7716 0.953 0.246 0.179 158 139 99 0 0
0.0086 -0.0370 -0.7739 0.917 0.224 0.330 165 146 107 0 0
0.0092 -0.0369 -0.7757 0.917 0.224 0.330 158 139 101 0 0
-0.0078 -0.0488 -0.8707 0.671 -0.226 0.706 112 111 109 0 0
-0.0037 -0.0471 -0.8696 0.416 -0.203 0.887 126 125 122 0 0
0.0120 -0.0409 -0.8705 0.830 -0.554 0.060 168 167 164 0 0
0.0115 -0.0412 -0.8732 0.731 -0.612 0.303 171 170 166 0 0
0.0142 -0.0402 -0.8733 0.288 -0.343 0.894 173 172 168 0 0
-0.0136 -0.0140 -0.1591 0.677 0.072 0.733 177 177 178 0 0
0.0171 -0.0025 -0.1732 0.791 0.481 0.377 169 154 108 0 0
0.0277 -0.0002 -0.2090 0.863 0.396 0.314 130 118 95 0 0
0.0288 -0.0016 -0.2414 0.672 0.740 0.012 78 63 38 0 0
0.0289 -0.0016 -0.2429 0.672 0.740 0.012 80 65 39 0 0
0.0371 -0.0002 -0.2757 0.690 -0.075 0.719 90 76 47 0 0
0.0356 -0.0008 -0.2777 0.839 -0.121 0.530 92 78 50 0 0
0.0361 -0.0007 -0.2791 0.953 -0.202 0.224 100 86 59 0 0
-0.0008 -0.0185 -0.3330 0.954 0.269 -0.136 118 104 78 0 0
-0.0073 -0.0224 -0.3569 0.869 0.357 -0.343 83 71 45 0 0
-0.0816 -0.0576 -0.4566 0.966 0.082 -0.244 6 6 6 0 0
-0.0833 -0.0584 -0.4592 0.847 0.520 0.115 6 6 6 0 0
-0.0874 -0.0603 -0.4628 0.977 0.188 0.099 4 4 4 0 0
-0.0813 -0.0601 -0.5030 0.569 -0.559 0.603 86 79 62 0 0
-0.0796 -0.0594 -0.5042 0.654 -0.520 0.549 73 66 49 0 0
-0.0788 -0.0592 -0.5058 0.815 -0.469 0.341 94 86 72 0 0
-0.0782 -0.0591 -0.5075 0.903 -0.430 -0.010 80 73 61 0 0
-0.0787 -0.0596 -0.5137 0.929 -0.294 -0.226 90 85 79 0 0
-0.0792 -0.0599 -0.5159 0.956 -0.282 -0.084 54 51 46 0 0
-0.0789 -0.0599 -0.5177 0.911 -0.395 0.117 14 12 10 0 0
-0.1150 -0.0785 -0.5931 0.202 0.023 0.979 32 28 25 0 0
-0.0571 -0.0563 -0.6104 0.813 -0.299 0.500 83 69 52 0 0
-0.0308 -0.0486 -0.6620 0.832 0.229 0.505 92 77 53 0 0
-0.0387 -0.0537 -0.6973 0.584 -0.141 0.800 9 7 7 0 0
-0.0374 -0.0540 -0.7118 0.461 0.626 0.629 47 42 36 0 0
-0.0228 -0.0483 -0.7151 0.531 0.042 0.846 70 60 50 0 0
-0.0101 -0.0434 -0.7173 0.756 0.214 0.619 127 109 88 0 0
0.0016 -0.0392 -0.7265 0.850 0.214 0.482 136 119 87 0 0
0.0024 -0.0389 -0.7281 0.752 0.291 0.591 112 95 68 0 0
0.0060 -0.0394 -0.7630 0.956 -0.119 0.270 165 146 105 0 0
0.0065 -0.0393 -0.7648 0.956 -0.119 0.270 149 129 93 0 0
0.0081 -0.0390 -0.7703 0.998 0.053 0.040 163 145 105 0 0
0.0086 -0.0389 -0.7721 0.977 -0.020 0.212 159 140 101 0 0
0.0092 -0.0388 -0.7739 0.967 0.143 0.211 164 144 108 0 0
-0.0086 -0.0511 -0.8694 0.703 -0.376 0.604 104 103 101 0 0
-0.0078 -0.0509 -0.8712 0.611 -0.253 0.750 121 120 118 0 0
-0.0037 -0.0492 -0.8701 0.416 -0.203 0.887 134 133 130 0 0
0.0179 -0.0038 -0.1731 0.773 0.372 0.513 161 147 103 0 0
0.0186 -0.0035 -0.1745 0.737 0.531 0.418 158 142 106 0 0
0.0236 -0.0021 -0.1851 0.759 0.542 0.360 117 103 75 0 0
0.0253 -0.0015 -0.1863 0.953 0.153 0.262 115 101 74 0 0
0.0257 -0.0015 -0.1877 0.953 0.153 0.262 111 96 69 0 0
0.0373 -0.0015 -0.2727 0.977 -0.011 0.213 92 78 49 0 0
0.0375 -0.0015 -0.2742 0.859 -0.126 0.497 91 77 48 0 0
0.0355 -0.0025 -0.2778 0.839 -0.121 0.530 92 78 51 0 0
0.0358 -0.0025 -0.2792 0.953 -0.202 0.224 99 85 58 0 0
0.0308 -0.0058 -0.3025 0.882 0.438 -0.174 112 97 66 0 0
0.0299 -0.0063 -0.3043 0.947 -0.094 0.307 117 102 71 0 0
-0.0027 -0.0211 -0.3354 0.924 0.366 0.111 148 134 94 0 0
-0.0048 -0.0230 -0.3545 0.935 0.312 -0.170 116 100 74 0 0
-0.0897 -0.0637 -0.4717 0.882 0.194 0.430 21 19 19 0 0
-0.0897 -0.0638 -0.4736 0.877 0.425 0.227 17 16 14 0 0
-0.0896 -0.0638 -0.4755 0.932 0.355 0.076 15 13 11 0 0
-0.0860 -0.0624 -0.4759 0.743 -0.262 0.616 24 19 15 0 0
-0.0819 -0.0623 -0.5035 0.486 -0.307 0.818 85 78 64 0 0
-0.0799 -0.0616 -0.5046 0.708 -0.363 0.606 99 93 81 0 0
-0.0799 -0.0617 -0.5065 0.815 -0.469 0.341 71 64 55 0 0
-0.0801 -0.0621 -0.5125 0.787 -0.548 -0.285 28 24 22 0 0
-0.0813 -0.0627 -0.5151 0.751 -0.625 -0.213 25 23 21 0 0
-0.0822 -0.0632 -0.5175 0.752 -0.636 -0.173 16 15 14 0 0
-0.0834 -0.0638 -0.5201 0.745 -0.649 -0.156 8 7 7 0 0
-0.1181 -0.0818 -0.5929 0.316 -0.007 0.949 23 21 18 0 0
-0.1069 -0.0774 -0.5935 0.512 0.006 0.859 35 31 28 0 0
-0.1049 -0.0766 -0.5945 0.602 -0.064 0.796 44 40 37 0 0
-0.0788 -0.0664 -0.5996 0.923 -0.153 0.352 48 41 33 0 0
-0.0594 -0.0593 -0.6119 0.805 0.511 0.300 60 47 32 0 0
-0.0581 -0.0588 -0.6133 0.781 0.186 0.596 69 57 43 0 0
-0.0360 -0.0554 -0.7113 0.571 0.702 0.426 34 30 24 0 0
-0.0240 -0.0507 -0.7141 0.425 0.347 0.836 68 58 50 0 0
-0.0129 -0.0464 -0.7152 0.603 0.038 0.797 117 102 87 0 0
-0.0072 -0.0443 -0.7200 0.810 -0.161 0.564 151 131 102 0 0
0.0042 -0.0401 -0.7272 0.890 0.107 0.443 105 88 62 0 0
-0.0091 -0.0534 -0.8703 0.703 -0.376 0.604 115 114 112 0 0
-0.0084 -0.0533 -0.8722 0.616 -0.312 0.723 130 129 127 0 0
-0.0021 -0.0506 -0.8692 0.238 -0.224 0.945 141 140 137 0 0
0.0244 -0.0034 -0.1850 0.891 0.346 0.292 106 94 69 0 0
0.0248 -0.0033 -0.1864 0.891 0.346 0.292 89 76 55 0 0
0.0256 -0.0031 -0.1877 0.975 0.099 0.196 77 64 45 0 0
0.0354 -0.0024 -0.2460 0.951 0.309 -0.032 76 62 35 0 0
0.0362 -0.0034 -0.2700 0.987 -0.054 0.149 93 79 50 0 0
0.0369 -0.0032 -0.2714 0.942 0.079 0.325 92 78 49 0 0
0.0374 -0.0031 -0.2727 0.863 0.009 0.505 94 80 51 0 0
0.0371 -0.0033 -0.2744 0.706 0.399 0.585 95 81 52 0 0
0.0380 -0.0030 -0.2756 0.606 0.366 0.706 91 76 48 0 0
0.0385 -0.0029 -0.2771 0.649 0.378 0.660 93 77 51 0 0
0.0354 -0.0043 -0.2794 0.953 -0.202 0.224 97 81 55 0 0
0.0311 -0.0070 -0.2977 0.950 -0.081 0.302 113 98 67 0 0
0.0310 -0.0073 -0.3009 0.989 0.146 0.030 109 93 62 0 0
-0.0021 -0.0226 -0.3353 0.898 0.427 0.102 164 150 105 0 0
-0.0048 -0.0246 -0.3529 0.984 -0.170 -0.050 116 99 71 0 0
-0.0040 -0.0244 -0.3544 0.947 0.317 -0.056 117 100 74 0 0
-0.0088 -0.0272 -0.3696 0.987 -0.161 -0.029 54 39 22 0 0
-0.0822 -0.0615 -0.4534 0.930 0.059 -0.363 5 3 3 0 0
-0.0823 -0.0617 -0.4553 0.607 0.604 -0.515 4 3 3 0 0
-0.0889 -0.0655 -0.4754 0.932 0.355 0.076 38 36 28 0 0
-0.0820 -0.0644 -0.5057 0.699 -0.603 0.383 60 53 47 0 0
-0.0826 -0.0650 -0.5120 0.744 -0.631 -0.221 11 10 10 0 0
-0.0832 -0.0654 -0.5142 0.733 -0.623 -0.272 10 10 10 0 0
-0.1336 -0.0896 -0.5839 0.669 0.320 0.671 11 10 11 0 0
-0.1319 -0.0890 -0.5852 0.903 0.101 0.418 12 11 12 0 0
-0.1216 -0.0852 -0.5907 0.308 -0.171 0.936 21 20 17 0 0
-0.1127 -0.0817 -0.5925 0.389 0.067 0.919 28 24 21 0 0
-0.1157 -0.0831 -0.5961 0.572 0.573 0.588 31 27 24 0 0
-0.1049 -0.0786 -0.5948 0.602 -0.064 0.796 45 41 38 0 0
-0.0849 -0.0706 -0.5947 0.716 -0.408 0.566 62 56 51 0 0
-0.0839 -0.0703 -0.5963 0.672 -0.439 0.596 63 58 51 0 0
-0.0814 -0.0693 -0.5971 0.701 -0.358 0.617 71 64 56 0 0
-0.0798 -0.0687 -0.5983 0.839 -0.059 0.541 75 69 58 0 0
-0.0786 -0.0683 -0.5998 0.827 0.189 0.529 77 71 59 0 0
-0.0358 -0.0574 -0.7115 0.210 0.451 0.868 29 25 20 0 0
-0.0239 -0.0527 -0.7144 0.534 0.113 0.838 82 73 66 0 0
-0.0224 -0.0522 -0.7156 0.597 0.045 0.801 72 63 52 0 0
-0.0126 -0.0482 -0.7154 0.603 0.038 0.797 113 100 84 0 0
-0.0099 -0.0471 -0.7157 0.697 0.457 0.553 92 76 58 0 0
-0.0088 -0.0468 -0.7171 0.880 0.388 0.273 106 88 66 0 0
-0.0080 -0.0466 -0.7188 0.907 0.344 0.241 108 87 61 0 0
-0.0071 -0.0463 -0.7203 0.807 0.239 0.540 119 99 68 0 0
-0.0099 -0.0559 -0.8715 0.623 -0.364 0.692 126 122 121 0 0
-0.0078 -0.0551 -0.8722 0.575 -0.332 0.748 136 134 132 0 0
-0.0035 -0.0533 -0.8709 0.295 -0.242 0.924 147 146 143 0 0
0.0204 -0.0057 -0.1699 0.713 0.277 0.644 126 110 85 0 0
0.0228 -0.0051 -0.1753 0.903 0.330 0.275 126 109 80 0 0
0.0324 -0.0066 -0.2696 0.638 -0.032 0.769 93 79 53 0 0
0.0336 -0.0062 -0.2708 0.739 0.202 0.642 94 80 51 0 0
0.0347 -0.0058 -0.2720 0.678 0.421 0.602 93 79 50 0 0
0.0380 -0.0047 -0.2757 0.470 0.308 0.827 96 81 53 0 0
0.0391 -0.0043 -0.2770 0.649 0.378 0.660 93 78 51 0 0
0.0305 -0.0088 -0.2949 0.919 0.391 -0.054 111 96 65 0 0
0.0300 -0.0091 -0.2966 0.969 0.236 0.074 111 96 65 0 0
0.0302 -0.0091 -0.2981 0.969 0.236 0.074 111 96 65 0 0
-0.0002 -0.0233 -0.3315 0.731 0.682 0.009 153 138 99 0 0
-0.0025 -0.0244 -0.3339 0.863 0.388 0.322 160 145 103 0 0
-0.0053 -0.0265 -0.3515 0.983 -0.157 0.097 126 110 77 0 0
-0.0051 -0.0265 -0.3532 0.983 -0.157 0.097 124 108 76 0 0
-0.0809 -0.0629 -0.4530 0.888 -0.162 -0.430 4 3 3 0 0
-0.0841 -0.0674 -0.5089 0.753 -0.657 0.045 26 24 21 0 0
-0.1340 -0.0917 -0.5801 0.903 0.101 0.418 20 17 16 0 0
-0.1316 -0.0910 -0.5853 0.669 0.320 0.671 14 12 12 0 0
-0.1158 -0.0852 -0.5965 0.226 0.276 0.934 34 31 28 0 0
-0.1086 -0.0822 -0.5948 0.282 -0.003 0.959 40 37 34 0 0
-0.0858 -0.0730 -0.5955 0.385 0.386 0.838 65 60 55 0 0
-0.0851 -0.0728 -0.5972 0.358 0.049 0.932 63 58 52 0 0
-0.0829 -0.0720 -0.5981 0.358 0.049 0.932 70 64 56 0 0
-0.0807 -0.0711 -0.5991 0.593 -0.026 0.805 72 65 55 0 0
-0.0791 -0.0706 -0.6003 0.702 -0.084 0.707 80 74 62 0 0
-0.0412 -0.0576 -0.6419 0.871 -0.294 0.394 88 74 49 0 0
-0.0367 -0.0597 -0.7102 0.344 0.273 0.899 30 27 23 0 0
-0.0351 -0.0591 -0.7114 0.616 0.664 0.424 40 35 30 0 0
-0.0298 -0.0570 -0.7122 0.565 -0.022 0.824 67 60 52 0 0
-0.0280 -0.0563 -0.7131 0.485 -0.129 0.865 63 55 47 0 0
-0.0101 -0.0491 -0.7140 0.759 0.346 0.552 122 110 93 0 0
-0.0087 -0.0486 -0.7152 0.919 0.316 0.235 95 78 61 0 0
-0.0081 -0.0485 -0.7170 0.880 0.388 0.273 115 97 77 0 0
-0.0076 -0.0484 -0.7188 0.880 0.388 0.273 123 104 81 0 0
-0.0067 -0.0481 -0.7204 0.866 0.199 0.458 124 104 76 0 0
0.0049 -0.0473 -0.7875 0.976 0.197 0.091 161 142 102 0 0
-0.0061 -0.0564 -0.8712 0.619 -0.282 0.733 143 141 139 0 0
0.0164 -0.0088 -0.1677 0.862 -0.312 0.400 174 159 131 0 0
0.0257 -0.0065 -0.1935 0.976 -0.214 0.046 65 52 34 0 0
0.0267 -0.0062 -0.1948 0.901 -0.323 0.289 53 39 21 0 0
0.0297 -0.0054 -0.2015 0.712 0.196 0.674 76 61 45 0 0
0.0382 -0.0036 -0.2306 0.894 -0.211 0.394 72 56 33 0 0
0.0360 -0.0048 -0.2355 0.968 -0.245 0.052 71 56 33 0 0
0.0349 -0.0073 -0.2721 0.825 0.205 0.527 95 81 52 0 0
0.0360 -0.0070 -0.2733 0.710 0.113 0.695 83 69 40 0 0
0.0381 -0.0062 -0.2758 0.604 -0.121 0.788 87 74 45 0 0
0.0226 -0.0146 -0.3116 0.879 -0.247 -0.408 105 91 62 0 0
-0.0881 -0.0711 -0.5109 0.655 -0.740 0.154 39 38 35 0 0
-0.0884 -0.0713 -0.5130 0.742 -0.641 -0.199 29 28 27 0 0
-0.0912 -0.0728 -0.5183 0.739 -0.591 -0.324 23 23 23 0 0
-0.1321 -0.0932 -0.5837 0.648 0.297 0.702 58 54 50 0 0
-0.1296 -0.0923 -0.5867 0.763 0.114 0.637 21 18 17 0 0
-0.0852 -0.0748 -0.5955 0.535 0.146 0.832 55 50 44 0 0
-0.0844 -0.0746 -0.5972 0.542 -0.003 0.841 58 53 47 0 0
-0.0827 -0.0739 -0.5983 0.605 -0.104 0.790 64 58 52 0 0
-0.0805 -0.0731 -0.5993 0.702 -0.084 0.707 66 59 52 0 0
-0.0791 -0.0726 -0.6006 0.702 -0.084 0.707 68 61 53 0 0
-0.0583 -0.0651 -0.6163 0.710 -0.194 0.677 75 67 54 0 0
-0.0366 -0.0599 -0.6800 0.742 -0.375 0.555 75 66 47 0 0
-0.0344 -0.0608 -0.7113 0.306 0.554 0.774 46 41 36 0 0
-0.0297 -0.0589 -0.7103 0.505 -0.064 0.861 57 51 45 0 0
-0.0291 -0.0587 -0.7120 0.926 -0.215 0.309 60 53 45 0 0
-0.0281 -0.0584 -0.7136 0.814 -0.317 0.487 69 61 54 0 0
-0.0069 -0.0501 -0.7187 0.920 0.269 0.284 149 132 108 0 0
-0.0062 -0.0499 -0.7204 0.866 0.199 0.458 117 101 75 0 0
0.0052 -0.0491 -0.7876 0.976 0.197 0.091 166 147 107 0 0
-0.0119 -0.0608 -0.8694 0.694 -0.299 0.654 114 110 109 0 0
-0.0094 -0.0598 -0.8696 0.619 -0.282 0.733 127 123 122 0 0
-0.0078 -0.0592 -0.8707 0.619 -0.282 0.733 141 137 136 0 0
-0.0063 -0.0587 -0.8718 0.619 -0.282 0.733 150 148 146 0 0
0.0081 -0.0135 -0.1633 0.487 0.263 0.833 134 122 97 0 0
0.0246 -0.0082 -0.1880 0.753 0.240 0.612 56 43 27 0 0
0.0018 -0.0258 -0.3295 0.757 0.114 -0.643 146 129 92 0 0
-0.1150 -0.0862 -0.5481 0.703 -0.667 0.248 5 5 5 0 0
-0.1271 -0.0920 -0.5623 0.931 -0.136 -0.339 5 5 5 0 0
-0.1344 -0.0959 -0.5787 0.821 0.425 0.383 10 8 9 0 0
-0.1335 -0.0958 -0.5825 0.722 0.445 0.529 23 18 16 0 0
-0.1304 -0.0947 -0.5852 0.819 0.188 0.543 36 31 28 0 0
-0.1017 -0.0837 -0.5982 0.414 -0.151 0.897 49 45 41 0 0
-0.0359 -0.0619 -0.6842 0.849 -0.519 0.101 25 21 17 0 0
-0.0329 -0.0622 -0.7106 0.429 0.404 0.808 53 48 43 0 0
-0.0300 -0.0610 -0.7108 0.744 0.325 0.583 60 54 48 0 0
0.0028 -0.0532 -0.8060 0.993 -0.081 0.087 130 113 79 0 0
-0.0149 -0.0641 -0.8699 0.908 -0.406 0.105 105 103 100 0 0
-0.0126 -0.0632 -0.8704 0.614 -0.243 0.751 124 120 119 0 0
-0.0106 -0.0625 -0.8712 0.477 -0.172 0.862 135 131 130 0 0
-0.0074 -0.0611 -0.8708 0.476 -0.184 0.860 148 144 143 0 0
-0.0069 -0.0611 -0.8729 0.398 -0.127 0.908 155 153 151 0 0
-0.0128 -0.0639 -0.8803 -0.275 0.143 0.951 160 159 157 0 0
0.0057 -0.0160 -0.1622 0.537 0.758 0.371 132 119 91 0 0
0.0091 -0.0147 -0.1632 0.639 0.343 0.689 128 116 95 0 0
0.0108 -0.0141 -0.1643 0.763 0.019 0.646 110 97 84 0 0
0.0185 -0.0112 -0.1689 0.757 0.075 0.650 126 114 94 0 0
0.0214 -0.0102 -0.1713 0.861 -0.025 0.509 102 90 70 0 0
-0.0956 -0.0783 -0.5148 0.862 -0.497 -0.099 32 30 30 0 0
-0.0974 -0.0794 -0.5196 0.945 -0.245 -0.218 31 31 29 0 0
-0.0990 -0.0802 -0.5224 0.940 -0.276 -0.203 39 39 37 0 0
-0.0983 -0.0800 -0.5241 0.922 -0.135 -0.363 39 39 37 0 0
-0.1247 -0.0926 -0.5551 0.926 -0.176 -0.335 5 5 5 0 0
-0.1336 -0.0977 -0.5785 0.821 0.425 0.383 14 12 10 0 0
-0.1324 -0.0974 -0.5822 0.665 0.402 0.629 9 6 6 0 0
-0.1314 -0.0971 -0.5839 0.718 0.497 0.487 18 13 11 0 0
-0.0404 -0.0655 -0.6809 0.869 -0.485 -0.099 58 48 37 0 0
-0.0511 -0.0712 -0.7032 0.729 0.138 -0.671 34 30 27 0 0
-0.0534 -0.0724 -0.7069 0.634 -0.553 0.541 34 32 28 0 0
-0.0549 -0.0732 -0.7101 0.471 -0.395 0.789 30 29 25 0 0
-0.0523 -0.0721 -0.7106 0.321 -0.453 0.832 29 30 25 0 0
-0.0294 -0.0628 -0.7108 0.666 0.708 0.234 68 61 53 0 0
-0.0277 -0.0623 -0.7140 0.419 0.684 0.598 84 76 67 0 0
-0.0179 -0.0675 -0.8706 0.942 -0.325 -0.090 101 97 94 0 0
-0.0155 -0.0665 -0.8709 0.849 -0.357 0.389 116 112 111 0 0
-0.0127 -0.0654 -0.8710 0.614 -0.243 0.751 130 126 125 0 0
0.0045 -0.0178 -0.1552 0.333 0.871 0.362 119 103 74 0 0
0.0190 -0.0126 -0.1688 0.740 0.268 0.617 101 88 66 0 0
0.0284 -0.0093 -0.1788 0.797 0.343 0.497 68 52 29 0 0
0.0303 -0.0130 -0.2536 0.930 0.159 0.330 80 66 39 0 0
-0.0973 -0.0813 -0.5198 0.974 -0.123 -0.192 49 49 47 0 0
-0.0995 -0.0824 -0.5228 0.967 -0.244 -0.077 49 49 47 0 0
-0.0981 -0.0819 -0.5242 0.932 -0.042 -0.360 46 46 44 0 0
-0.1296 -0.0985 -0.5853 0.811 0.270 0.519 15 11 11 0 0
-0.1286 -0.0982 -0.5870 0.811 0.270 0.519 27 23 20 0 0
-0.0571 -0.0761 -0.7096 0.910 0.305 -0.282 27 25 21 0 0
-0.0561 -0.0758 -0.7112 0.498 0.133 0.857 34 33 29 0 0
-0.0537 -0.0749 -0.7119 0.342 0.019 0.940 32 33 28 0 0
-0.0482 -0.0725 -0.7104 -0.016 -0.161 0.987 38 37 34 0 0
-0.0257 -0.0635 -0.7152 0.750 0.409 0.519 94 86 74 0 0
-0.0041 -0.0553 -0.7266 0.766 -0.023 0.642 80 62 39 0 0
-0.0169 -0.0692 -0.8702 0.849 -0.357 0.389 109 108 105 0 0
-0.0160 -0.0689 -0.8719 0.849 -0.357 0.389 125 123 122 0 0
-0.0108 -0.0667 -0.8699 0.616 -0.267 0.741 138 136 135 0 0
0.0061 -0.0187 -0.1550 0.625 0.173 0.761 125 109 81 0 0
0.0075 -0.0182 -0.1563 0.593 0.527 0.609 127 111 85 0 0
0.0259 -0.0141 -0.2157 0.971 0.193 0.145 76 64 41 0 0
0.0310 -0.0136 -0.2414 0.995 -0.061 0.080 69 54 31 0 0
0.0311 -0.0137 -0.2429 0.995 -0.061 0.080 69 54 31 0 0
0.0299 -0.0149 -0.2553 0.934 -0.114 0.339 81 67 41 0 0
0.0259 -0.0188 -0.2935 0.673 0.266 0.691 106 90 60 0 0
0.0272 -0.0184 -0.2948 0.654 0.452 0.607 110 94 63 0 0
-0.0917 -0.0772 -0.4564 0.861 0.064 0.504 15 13 11 0 0
-0.0907 -0.0769 -0.4579 0.966 0.259 0.006 17 14 11 0 0
-0.0912 -0.0772 -0.4600 0.794 0.607 0.042 10 6 4 0 0
-0.0964 -0.0828 -0.5176 0.968 -0.048 -0.246 56 55 53 0 0
-0.0980 -0.0837 -0.5203 0.984 -0.161 -0.075 54 54 52 0 0
-0.1002 -0.0847 -0.5234 0.930 -0.358 -0.079 50 50 48 0 0
-0.1123 -0.0907 -0.5392 0.858 -0.028 -0.513 38 39 38 0 0
-0.1197 -0.0946 -0.5532 0.895 -0.149 -0.421 9 9 9 0 0
-0.0768 -0.0800 -0.6046 0.646 0.206 0.735 80 74 63 0 0
-0.0497 -0.0704 -0.6315 0.858 -0.339 0.387 83 74 60 0 0
-0.0480 -0.0699 -0.6348 0.858 -0.339 0.387 92 83 64 0 0
-0.0476 -0.0699 -0.6367 0.954 -0.207 0.216 91 79 63 0 0
-0.0444 -0.0712 -0.6798 0.812 -0.577 -0.086 44 37 25 0 0
-0.0449 -0.0715 -0.6822 0.803 -0.595 0.000 19 15 9 0 0
-0.0541 -0.0767 -0.7058 0.705 0.668 -0.240 28 24 21 0 0
-0.0528 -0.0764 -0.7094 0.518 0.817 0.253 26 25 21 0 0
-0.0528 -0.0766 -0.7117 0.124 0.491 0.862 32 33 28 0 0
-0.0498 -0.0753 -0.7119 0.060 -0.138 0.989 41 40 36 0 0
-0.0431 -0.0726 -0.7119 0.027 -0.242 0.970 52 47 43 0 0
-0.0276 -0.0662 -0.7125 0.586 0.760 0.281 78 68 56 0 0
-0.0207 -0.0636 -0.7166 0.571 0.318 0.757 109 98 79 0 0
-0.0133 -0.0609 -0.7225 0.534 0.133 0.835 100 88 68 0 0
-0.0175 -0.0716 -0.8712 0.849 -0.357 0.389 117 116 114 0 0
-0.0127 -0.0695 -0.8696 0.601 -0.276 0.750 132 131 129 0 0
-0.0260 -0.0333 -0.1507 0.159 0.771 0.617 178 178 177 0 0
0.0085 -0.0194 -0.1561 0.593 0.527 0.609 127 110 84 0 0
0.0192 -0.0155 -0.1660 0.775 0.454 0.440 134 118 96 0 0
0.0196 -0.0154 -0.1674 0.755 0.271 0.597 136 118 88 0 0
0.0305 -0.0155 -0.2431 0.977 -0.182 0.111 73 58 35 0 0
0.0281 -0.0167 -0.2452 0.799 -0.270 0.538 71 56 33 0 0
0.0307 -0.0163 -0.2567 0.937 0.072 0.343 76 60 34 0 0
0.0264 -0.0203 -0.2935 0.670 0.271 0.691 108 93 63 0 0
0.0268 -0.0202 -0.2950 0.817 0.066 0.572 113 98 68 0 0
0.0122 -0.0278 -0.3201 0.700 -0.150 -0.698 134 120 84 0 0
-0.0149 -0.0421 -0.3709 0.976 -0.206 0.069 102 88 61 0 0
-0.0138 -0.0418 -0.3723 0.946 -0.230 0.231 95 81 58 0 0
-0.0920 -0.0788 -0.4490 0.974 -0.215 -0.073 47 40 27 0 0
-0.0924 -0.0791 -0.4510 0.982 -0.142 -0.127 42 36 25 0 0
-0.0945 -0.0803 -0.4558 0.574 0.481 0.663 31 25 18 0 0
-0.0915 -0.0791 -0.4565 0.861 0.064 0.504 35 29 23 0 0
-0.0915 -0.0792 -0.4584 0.998 -0.063 -0.010 47 41 36 0 0
-0.1120 -0.0961 -0.5961 0.484 -0.366 0.795 58 57 50 0 0
-0.0459 -0.0739 -0.6811 0.852 -0.496 -0.170 21 17 12 0 0
-0.0468 -0.0744 -0.6838 0.821 -0.570 -0.031 10 8 6 0 0
-0.0613 -0.0815 -0.7019 0.658 -0.735 -0.165 31 30 26 0 0
-0.0562 -0.0800 -0.7120 0.637 -0.355 0.685 26 25 21 0 0
-0.0543 -0.0793 -0.7130 0.374 -0.250 0.893 26 25 21 0 0
-0.0169 -0.0642 -0.7188 0.641 0.477 0.601 102 91 70 0 0
-0.0029 -0.0617 -0.7733 0.999 -0.013 0.043 155 137 97 0 0
-0.0023 -0.0618 -0.7797 0.881 0.265 0.391 169 150 110 0 0
-0.0135 -0.0719 -0.8683 0.690 -0.293 0.662 126 125 124 0 0
-0.0129 -0.0717 -0.8702 0.782 -0.321 0.534 140 139 138 0 0
0.0170 -0.0180 -0.1649 0.842 0.440 0.313 116 101 77 0 0
0.0300 -0.0181 -0.2554 0.902 -0.049 0.428 73 59 32 0 0
0.0300 -0.0182 -0.2569 0.964 -0.081 0.252 77 61 35 0 0
0.0280 -0.0210 -0.2884 0.896 -0.346 0.278 101 87 58 0 0
-0.0946 -0.0816 -0.4444 0.958 -0.131 0.255 60 48 32 0 0
-0.0912 -0.0804 -0.4488 0.968 0.123 -0.219 61 51 39 0 0
-0.0916 -0.0807 -0.4509 0.968 0.123 -0.219 44 35 25 0 0
-0.0919 -0.0810 -0.4530 0.990 -0.000 -0.139 48 39 30 0 0
-0.0476 -0.0767 -0.6825 0.915 -0.387 0.114 20 16 12 0 0
-0.0472 -0.0766 -0.6844 0.919 -0.394 -0.008 54 50 48 0 0
-0.0057 -0.0630 -0.7421 0.992 0.052 0.118 166 150 108 0 0
-0.0028 -0.0638 -0.7759 0.999 -0.013 0.043 163 144 103 0 0
-0.0032 -0.0642 -0.7785 0.976 -0.044 0.215 157 138 98 0 0
-0.0028 -0.0641 -0.7804 0.976 -0.044 0.215 150 131 91 0 0
0.0106 -0.0217 -0.1559 0.777 -0.022 0.629 213 196 148 0 0
0.0116 -0.0213 -0.1572 0.713 0.180 0.678 228 212 164 0 0
0.0166 -0.0197 -0.1636 0.898 0.303 0.320 154 139 100 0 0
0.0255 -0.0211 -0.2459 0.854 -0.207 0.477 77 62 39 0 0
0.0211 -0.0268 -0.3080 0.876 -0.130 -0.465 122 107 82 0 0
-0.0928 -0.0827 -0.4439 0.941 -0.219 0.258 62 50 34 0 0
-0.1423 -0.1124 -0.5885 0.525 -0.685 0.504 192 191 191 0 0
-0.0554 -0.0830 -0.6988 0.999 0.036 0.025 38 36 33 0 0
-0.0550 -0.0831 -0.7030 0.900 0.111 0.421 30 29 25 0 0
-0.0122 -0.0754 -0.8657 0.209 0.040 0.977 129 128 126 0 0
0.0030 -0.0693 -0.8697 0.736 -0.675 0.044 175 171 168 0 0
-0.0280 -0.0389 -0.1481 0.478 0.048 0.877 178 178 178 0 0
0.0115 -0.0230 -0.1572 0.683 0.025 0.730 241 226 174 0 0
0.0180 -0.0207 -0.1648 0.948 0.229 0.220 163 142 96 0 0
0.0262 -0.0192 -0.1952 0.796 0.423 0.433 62 47 25 0 0
0.0287 -0.0194 -0.2153 0.849 0.019 0.528 72 57 36 0 0
0.0251 -0.0263 -0.3005 0.903 -0.429 0.018 102 86 58 0 0
0.0217 -0.0281 -0.3063 0.865 0.042 -0.501 123 107 81 0 0
0.0215 -0.0283 -0.3079 0.875 0.064 -0.479 126 109 84 0 0
0.0198 -0.0291 -0.3101 0.812 -0.044 -0.582 130 113 84 0 0
-0.0223 -0.0509 -0.3757 0.753 -0.657 -0.017 75 64 51 0 0
-0.1493 -0.1164 -0.5727 0.668 -0.642 -0.376 197 196 195 0 0
-0.1465 -0.1162 -0.5886 0.578 -0.641 0.505 203 204 207 0 0
-0.1446 -0.1155 -0.5899 0.578 -0.641 0.505 204 205 207 0 0
-0.1299 -0.1096 -0.5933 0.427 -0.690 0.585 113 112 110 0 0
-0.0458 -0.0787 -0.6624 0.951 -0.244 0.189 39 30 20 0 0
-0.0492 -0.0810 -0.6754 0.979 -0.198 -0.040 13 11 9 0 0
-0.0493 -0.0812 -0.6777 0.979 -0.198 -0.040 15 12 9 0 0
-0.0494 -0.0814 -0.6799 0.979 -0.198 -0.040 26 23 19 0 0
-0.0236 -0.0724 -0.7090 0.342 0.658 0.671 55 47 40 0 0
-0.0188 -0.0705 -0.7102 0.776 0.314 0.547 59 52 42 0 0
-0.0148 -0.0692 -0.7162 0.591 0.489 0.642 92 82 67 0 0
-0.0091 -0.0679 -0.7343 0.881 -0.087 0.466 163 144 110 0 0
-0.0056 -0.0685 -0.7675 0.857 -0.199 0.476 159 143 102 0 0
-0.0038 -0.0680 -0.7707 0.971 0.130 0.202 157 138 102 0 0
0.0037 -0.0709 -0.8672 0.703 -0.294 0.647 174 170 168 0 0
-0.0270 -0.0402 -0.1480 -0.067 0.709 0.702 178 178 178 0 0
0.0116 -0.0245 -0.1572 0.683 0.025 0.730 232 214 163 0 0
0.0130 -0.0240 -0.1584 0.631 0.051 0.774 236 216 162 0 0
0.0178 -0.0223 -0.1635 0.717 0.049 0.695 187 167 118 0 0
0.0278 -0.0190 -0.1776 0.727 -0.048 0.685 73 58 32 0 0
0.0270 -0.0212 -0.2068 0.608 0.638 0.472 70 55 34 0 0
0.0296 -0.0205 -0.2122 0.737 0.633 0.237 72 60 35 0 0
0.0293 -0.0208 -0.2152 0.785 0.160 0.598 74 62 37 0 0
0.0246 -0.0238 -0.2311 0.966 -0.012 0.258 67 50 29 0 0
0.0272 -0.0260 -0.2827 0.836 -0.341 0.429 84 70 43 0 0
-0.0131 -0.0465 -0.3401 0.744 -0.486 -0.458 88 77 57 0 0
-0.0245 -0.0535 -0.3749 0.701 -0.712 0.028 59 52 44 0 0
-0.1472 -0.1173 -0.5676 0.660 -0.638 -0.397 189 190 192 0 0
-0.1234 -0.1088 -0.5902 0.018 0.970 -0.242 198 199 201 0 0
-0.1206 -0.1080 -0.5974 0.576 -0.544 0.611 47 45 41 0 0
-0.1189 -0.1074 -0.5987 0.586 -0.610 0.534 46 41 37 0 0
-0.1173 -0.1068 -0.6000 0.575 -0.674 0.465 54 49 43 0 0
-0.0984 -0.0996 -0.6114 0.495 -0.794 0.353 72 63 57 0 0
-0.0468 -0.0811 -0.6612 0.542 -0.134 0.829 22 17 12 0 0
-0.0463 -0.0810 -0.6631 0.963 0.167 0.211 18 14 11 0 0
-0.0489 -0.0829 -0.6756 0.998 0.063 -0.013 16 12 9 0 0
-0.0489 -0.0831 -0.6778 0.998 0.063 -0.013 43 39 36 0 0
-0.0184 -0.0722 -0.7081 0.785 0.268 0.558 67 58 44 0 0
-0.0095 -0.0691 -0.7195 0.784 0.310 0.537 78 63 42 0 0
-0.0178 -0.0380 -0.1497 0.237 0.511 0.826 175 174 171 0 0
0.0117 -0.0261 -0.1572 0.683 0.025 0.730 226 205 156 0 0
0.0127 -0.0258 -0.1585 0.643 -0.029 0.766 224 201 149 0 0
0.0166 -0.0248 -0.1694 0.796 0.387 0.465 125 107 73 0 0
0.0226 -0.0237 -0.1916 0.944 0.051 0.326 67 52 29 0 0
0.0240 -0.0232 -0.1928 0.859 0.042 0.510 67 52 29 0 0
0.0254 -0.0252 -0.2325 0.847 -0.131 0.515 66 50 27 0 0
0.0257 -0.0251 -0.2340 0.915 0.000 0.403 69 53 30 0 0
0.0246 -0.0283 -0.2756 0.889 -0.267 0.372 95 81 54 0 0
-0.0948 -0.0890 -0.4375 0.922 -0.370 -0.111 60 49 31 0 0
-0.1045 -0.0950 -0.4666 0.848 -0.454 -0.274 87 86 85 0 0
-0.1048 -0.0952 -0.4687 0.980 0.008 -0.201 110 110 109 0 0
-0.1455 -0.1184 -0.5627 0.763 -0.511 -0.395 188 186 189 0 0
-0.1225 -0.1112 -0.6008 0.519 -0.723 0.456 117 115 110 0 0
-0.1200 -0.1102 -0.6017 0.573 -0.712 0.406 86 84 78 0 0
-0.1183 -0.1096 -0.6030 0.573 -0.712 0.406 67 64 58 0 0
-0.1165 -0.1089 -0.6042 0.566 -0.732 0.380 63 59 51 0 0
-0.1147 -0.1082 -0.6054 0.562 -0.750 0.350 67 63 54 0 0
-0.1131 -0.1076 -0.6067 0.571 -0.751 0.333 77 72 64 0 0
-0.1108 -0.1067 -0.6076 0.557 -0.786 0.267 85 80 72 0 0
-0.1097 -0.1063 -0.6092 0.583 -0.779 0.230 82 78 69 0 0
-0.1067 -0.1051 -0.6097 0.537 -0.817 0.210 77 73 64 0 0
-0.1054 -0.1047 -0.6112 0.537 -0.817 0.210 73 69 60 0 0
-0.1042 -0.1042 -0.6127 0.537 -0.817 0.210 73 69 62 0 0
-0.1031 -0.1039 -0.6143 0.493 -0.770 0.404 71 66 60 0 0
-0.0993 -0.1023 -0.6144 0.417 -0.796 0.439 64 59 53 0 0
-0.0985 -0.1021 -0.6161 0.399 -0.774 0.491 61 55 50 0 0
-0.0958 -0.1009 -0.6168 0.437 -0.772 0.461 62 57 52 0 0
-0.0931 -0.0998 -0.6174 0.440 -0.775 0.453 68 63 59 0 0
-0.0887 -0.0980 -0.6172 0.512 -0.794 0.329 68 64 60 0 0
-0.0826 -0.0958 -0.6224 0.607 -0.771 0.191 55 50 46 0 0
-0.0797 -0.0947 -0.6250 0.401 -0.750 0.526 52 48 45 0 0
-0.0460 -0.0829 -0.6632 0.973 0.191 0.126 14 12 11 0 0
-0.0490 -0.0850 -0.6760 0.914 0.401 -0.054 55 51 48 0 0
-0.0494 -0.0853 -0.6784 0.924 0.375 0.072 74 70 67 0 0
-0.0493 -0.0854 -0.6805 0.807 0.576 0.129 63 59 56 0 0
-0.0489 -0.0854 -0.6825 0.767 0.642 -0.011 58 54 51 0 0
-0.0133 -0.0724 -0.7137 0.888 0.083 0.451 59 46 31 0 0
-0.0100 -0.0714 -0.7202 0.836 0.088 0.542 117 100 72 0 0
-0.0150 -0.0828 -0.8648 0.538 -0.354 0.765 130 128 126 0 0
-0.0056 -0.0347 -0.1525 0.318 -0.160 0.934 135 121 97 0 0
0.0152 -0.0268 -0.1668 0.790 0.374 0.486 122 103 71 0 0
0.0281 -0.0241 -0.2082 0.941 -0.119 0.317 60 45 24 0 0
0.0239 -0.0274 -0.2314 0.661 0.448 0.602 78 62 39 0 0
0.0242 -0.0273 -0.2329 0.760 0.407 0.507 73 57 34 0 0
0.0247 -0.0272 -0.2343 0.844 0.424 0.328 67 51 28 0 0
0.0251 -0.0271 -0.2357 0.923 0.383 -0.036 61 45 22 0 0
0.0264 -0.0266 -0.2369 0.916 -0.186 0.356 60 44 21 0 0
0.0225 -0.0302 -0.2654 0.854 0.485 0.189 91 77 50 0 0
0.0260 -0.0301 -0.2879 0.862 -0.132 0.489 98 84 55 0 0
-0.1022 -0.0953 -0.4561 0.890 -0.423 -0.171 79 75 72 0 0
-0.1028 -0.0957 -0.4582 0.890 -0.423 -0.171 73 70 67 0 0
-0.1035 -0.0961 -0.4605 0.918 -0.336 -0.210 78 78 74 0 0
-0.1037 -0.0963 -0.4625 0.951 0.288 -0.114 104 104 102 0 0
-0.1038 -0.0965 -0.4645 0.951 0.288 -0.114 144 144 146 0 0
-0.1033 -0.0964 -0.4663 0.518 0.855 0.025 176 178 178 0 0
-0.1417 -0.1184 -0.5548 0.906 -0.266 -0.329 171 172 171 0 0
-0.1429 -0.1191 -0.5575 0.906 -0.266 -0.329 172 172 173 0 0
-0.1202 -0.1127 -0.6064 0.553 -0.768 0.324 145 143 140 0 0
-0.1186 -0.1121 -0.6077 0.553 -0.768 0.324 119 116 112 0 0
-0.1169 -0.1114 -0.6090 0.543 -0.791 0.283 104 102 98 0 0
-0.1154 -0.1109 -0.6104 0.557 -0.786 0.267 89 86 83 0 0
-0.1142 -0.1105 -0.6119 0.583 -0.779 0.230 84 81 76 0 0
-0.1123 -0.1098 -0.6131 0.543 -0.805 0.237 87 84 79 0 0
-0.1110 -0.1093 -0.6145 0.560 -0.801 0.213 87 84 79 0 0
-0.1082 -0.1082 -0.6152 0.491 -0.813 0.314 98 95 91 0 0
-0.1059 -0.1072 -0.6161 0.444 -0.786 0.430 89 87 82 0 0
-0.1032 -0.1061 -0.6168 0.408 -0.791 0.457 80 78 73 0 0
-0.1005 -0.1051 -0.6175 0.415 -0.783 0.463 76 74 69 0 0
-0.0978 -0.1040 -0.6182 0.446 -0.785 0.431 73 70 65 0 0
-0.0942 -0.1024 -0.6183 0.488 -0.794 0.364 64 61 57 0 0
-0.0922 -0.1016 -0.6194 0.512 -0.792 0.332 55 53 49 0 0
-0.0905 -0.1010 -0.6206 0.518 -0.790 0.329 53 50 46 0 0
-0.0797 -0.0971 -0.6296 0.550 -0.751 0.366 42 38 35 0 0
-0.0745 -0.0948 -0.6288 0.665 -0.731 0.154 45 41 37 0 0
-0.0486 -0.0869 -0.6760 0.725 0.685 0.073 19 15 12 0 0
-0.0056 -0.0743 -0.7619 0.921 -0.293 0.257 149 131 96 0 0
-0.0181 -0.0864 -0.8678 0.616 -0.470 0.632 137 136 135 0 0
-0.0087 -0.0823 -0.8648 0.486 -0.224 0.845 157 157 155 0 0
-0.0060 -0.0365 -0.1525 0.291 0.034 0.956 132 119 96 0 0
0.0036 -0.0326 -0.1555 0.976 -0.147 0.161 144 133 116 0 0
0.0078 -0.0309 -0.1564 0.620 -0.374 0.689 150 132 105 0 0
0.0117 -0.0294 -0.1587 0.862 0.038 0.505 182 160 117 0 0
0.0208 -0.0270 -0.1803 0.848 -0.410 0.337 83 67 42 0 0
0.0250 -0.0267 -0.2044 0.993 -0.100 0.058 79 64 39 0 0
0.0239 -0.0290 -0.2315 0.881 0.383 0.278 81 65 42 0 0
0.0239 -0.0291 -0.2330 0.776 0.524 0.351 73 57 34 0 0
0.0242 -0.0291 -0.2344 0.844 0.524 0.112 71 56 32 0 0
0.0251 -0.0292 -0.2418 0.996 0.091 0.017 72 57 34 0 0
0.0251 -0.0293 -0.2433 0.996 0.091 0.017 74 59 36 0 0
0.0250 -0.0302 -0.2571 0.942 0.040 0.332 89 75 49 0 0
0.0240 -0.0310 -0.2635 0.995 -0.098 -0.015 84 70 43 0 0
0.0250 -0.0323 -0.2882 0.845 -0.258 0.468 103 88 59 0 0
-0.1032 -0.0979 -0.4586 0.682 0.693 0.232 131 130 132 0 0
-0.1023 -0.0976 -0.4602 0.470 0.869 0.155 168 169 169 0 0
-0.1019 -0.0975 -0.4620 0.499 0.852 0.160 186 187 188 0 0
-0.1421 -0.1206 -0.5531 0.799 -0.497 -0.338 200 201 202 0 0
-0.1077 -0.1099 -0.6130 -0.204 0.978 0.044 190 190 190 0 0
-0.1066 -0.1095 -0.6146 -0.202 0.977 0.068 197 197 197 0 0
-0.1054 -0.1091 -0.6161 -0.228 0.965 0.133 189 189 188 0 0
-0.1040 -0.1086 -0.6175 -0.228 0.965 0.133 174 174 173 0 0
-0.1026 -0.1081 -0.6189 -0.217 0.975 0.055 153 153 152 0 0
-0.1006 -0.1074 -0.6200 -0.022 0.989 0.144 133 132 128 0 0
-0.0991 -0.1068 -0.6214 -0.056 0.964 0.262 115 114 110 0 0
-0.0974 -0.1062 -0.6226 0.038 0.955 0.293 100 100 96 0 0
-0.0962 -0.1058 -0.6241 0.038 0.955 0.293 90 88 84 0 0
-0.0216 -0.0791 -0.7004 0.678 0.548 0.489 138 125 101 0 0
-0.0207 -0.0788 -0.7019 0.678 0.548 0.489 145 130 105 0 0
-0.0202 -0.0787 -0.7038 0.919 0.076 0.386 97 81 56 0 0
-0.0075 -0.0771 -0.7615 0.948 -0.274 0.162 140 124 88 0 0
-0.0266 -0.0924 -0.8705 0.905 -0.408 0.122 116 115 114 0 0
-0.0180 -0.0884 -0.8657 0.854 -0.452 0.257 132 131 130 0 0
-0.0161 -0.0878 -0.8690 0.709 -0.379 0.595 154 153 151 0 0
-0.0169 -0.0883 -0.8721 0.380 0.116 0.918 161 161 158 0 0
-0.0122 -0.0405 -0.1476 0.370 0.656 0.659 178 178 178 0 0
0.0231 -0.0276 -0.1814 0.955 0.209 -0.212 71 55 31 0 0
0.0199 -0.0297 -0.1922 0.841 0.230 0.490 74 58 34 0 0
0.0246 -0.0284 -0.2016 0.906 -0.124 0.406 81 67 37 0 0
0.0249 -0.0283 -0.2030 0.999 -0.027 -0.017 85 71 42 0 0
0.0249 -0.0284 -0.2045 0.998 -0.047 0.039 83 69 41 0 0
0.0271 -0.0282 -0.2144 0.922 -0.271 0.275 74 59 36 0 0
0.0245 -0.0304 -0.2314 0.881 0.383 0.278 72 56 33 0 0
0.0237 -0.0308 -0.2331 0.928 0.260 0.267 71 55 32 0 0
0.0241 -0.0308 -0.2345 0.928 0.260 0.267 82 68 42 0 0
0.0250 -0.0305 -0.2358 0.993 0.106 -0.060 82 68 42 0 0
0.0251 -0.0308 -0.2419 0.983 0.156 0.092 75 61 35 0 0
0.0248 -0.0320 -0.2572 0.827 0.163 0.537 86 72 46 0 0
-0.0061 -0.0501 -0.3317 0.680 -0.096 -0.727 151 146 136 0 0
-0.1019 -0.0993 -0.4583 0.682 0.693 0.232 185 186 189 0 0
-0.0964 -0.1077 -0.6202 0.035 0.999 0.014 204 204 205 0 0
-0.0960 -0.1076 -0.6221 0.009 1.000 0.021 201 200 202 0 0
-0.0424 -0.0886 -0.6793 0.463 0.694 0.551 25 24 20 0 0
-0.0419 -0.0884 -0.6812 0.817 0.497 0.292 23 21 17 0 0
-0.0406 -0.0880 -0.6826 0.792 0.572 0.212 23 20 16 0 0
-0.0246 -0.0819 -0.6940 0.688 0.453 0.567 69 55 41 0 0
-0.0228 -0.0814 -0.6972 0.789 0.403 0.464 62 47 30 0 0
-0.0218 -0.0811 -0.6987 0.765 0.403 0.501 89 78 55 0 0
-0.0209 -0.0808 -0.7002 0.807 0.287 0.516 130 117 91 0 0
-0.0274 -0.0947 -0.8692 0.879 -0.365 0.308 111 108 105 0 0
-0.0274 -0.0949 -0.8716 0.910 -0.393 0.134 125 124 122 0 0
-0.0212 -0.0921 -0.8689 0.342 -0.189 0.920 140 139 137 0 0
-0.0103 -0.0414 -0.1488 0.205 0.623 0.754 179 176 175 0 0
-0.0039 -0.0388 -0.1508 0.507 0.222 0.833 142 129 103 0 0
0.0142 -0.0317 -0.1612 0.816 0.073 0.574 164 145 105 0 0
0.0170 -0.0309 -0.1666 0.856 0.310 0.414 135 116 81 0 0
0.0235 -0.0291 -0.1814 0.955 0.209 -0.212 80 63 37 0 0
0.0226 -0.0303 -0.1932 0.595 0.413 0.689 81 66 37 0 0
0.0235 -0.0301 -0.1960 0.744 0.365 0.559 86 71 42 0 0
0.0241 -0.0300 -0.1988 0.828 0.561 0.009 84 68 41 0 0
0.0254 -0.0295 -0.2000 0.820 0.475 0.321 80 65 37 0 0
0.0241 -0.0302 -0.2017 0.830 0.062 0.554 75 62 31 0 0
0.0248 -0.0300 -0.2031 0.995 0.083 -0.052 77 64 33 0 0
0.0245 -0.0303 -0.2061 0.997 -0.038 -0.067 82 68 40 0 0
0.0240 -0.0322 -0.2316 0.934 -0.212 0.287 65 50 27 0 0
0.0207 -0.0383 -0.3008 0.881 -0.334 -0.334 144 129 91 0 0
-0.0075 -0.0523 -0.3306 0.700 -0.313 -0.642 132 126 113 0 0
-0.0073 -0.0524 -0.3322 0.713 -0.087 -0.696 175 173 170 0 0
-0.0749 -0.1006 -0.6213 -0.302 0.943 0.139 208 209 212 0 0
-0.0379 -0.0886 -0.6790 0.685 0.074 0.724 24 20 15 0 0
-0.0365 -0.0881 -0.6803 0.685 0.074 0.724 28 25 20 0 0
-0.0355 -0.0878 -0.6818 0.810 0.084 0.581 35 29 25 0 0
-0.0346 -0.0875 -0.6834 0.842 0.488 0.229 35 28 24 0 0
-0.0229 -0.0833 -0.6954 0.789 0.403 0.464 74 58 36 0 0
-0.0221 -0.0831 -0.6970 0.819 0.371 0.438 88 71 50 0 0
-0.0215 -0.0830 -0.6988 0.852 0.235 0.468 73 58 34 0 0
-0.0207 -0.0827 -0.7004 0.852 0.235 0.468 121 109 82 0 0
-0.0156 -0.0813 -0.7123 0.904 0.320 0.282 113 95 63 0 0
-0.0150 -0.0812 -0.7141 0.899 0.266 0.349 155 137 98 0 0
-0.0141 -0.0809 -0.7157 0.927 0.210 0.312 143 125 82 0 0
-0.0121 -0.0851 -0.7909 0.955 0.219 0.200 163 145 105 0 0
-0.0116 -0.0850 -0.7928 0.952 0.194 0.238 164 146 106 0 0
-0.0256 -0.0960 -0.8682 0.816 -0.335 0.471 123 120 117 0 0
-0.0245 -0.0957 -0.8697 0.816 -0.335 0.471 135 134 132 0 0
-0.0082 -0.0421 -0.1485 0.216 0.648 0.730 177 176 175 0 0
0.0043 -0.0372 -0.1555 0.579 0.117 0.807 141 130 108 0 0
0.0066 -0.0363 -0.1566 0.513 -0.196 0.835 140 127 107 0 0
0.0137 -0.0336 -0.1613 0.769 0.140 0.624 179 160 116 0 0
0.0165 -0.0325 -0.1638 0.772 0.457 0.442 160 144 102 0 0
0.0200 -0.0314 -0.1704 0.764 0.480 0.431 111 95 67 0 0
0.0190 -0.0330 -0.1866 0.972 0.070 -0.225 83 67 39 0 0
0.0211 -0.0325 -0.1921 0.857 0.475 0.200 84 69 38 0 0
0.0223 -0.0320 -0.1933 0.872 0.116 0.475 84 69 38 0 0
0.0227 -0.0322 -0.1977 0.992 0.122 -0.027 88 73 45 0 0
0.0239 -0.0317 -0.1989 0.897 0.415 0.155 85 69 43 0 0
0.0234 -0.0320 -0.2005 0.784 0.297 0.546 79 63 37 0 0
0.0239 -0.0319 -0.2018 0.820 0.050 0.570 74 59 32 0 0
0.0234 -0.0325 -0.2078 0.994 0.068 0.084 83 69 42 0 0
0.0183 -0.0395 -0.2778 0.914 0.133 -0.384 98 84 57 0 0
0.0213 -0.0392 -0.2927 0.966 -0.093 0.241 109 95 66 0 0
-0.0037 -0.0522 -0.3262 0.743 -0.407 -0.531 117 107 86 0 0
-0.0064 -0.0535 -0.3287 0.762 -0.469 -0.446 122 113 99 0 0
-0.0055 -0.0532 -0.3300 0.871 -0.374 -0.317 162 158 153 0 0
-0.0060 -0.0535 -0.3319 0.878 -0.282 -0.388 180 180 183 0 0
-0.1055 -0.1037 -0.4425 0.761 -0.606 -0.232 182 183 184 0 0
-0.0424 -0.0909 -0.6540 0.469 0.518 0.715 32 28 19 0 0
-0.0398 -0.0903 -0.6610 0.992 0.082 0.099 17 15 10 0 0
-0.0375 -0.0898 -0.6682 0.709 0.668 0.225 16 13 8 0 0
-0.0331 -0.0889 -0.6828 0.825 0.365 0.431 47 38 29 0 0
-0.0240 -0.0856 -0.6921 0.868 0.269 0.418 116 101 76 0 0
-0.0232 -0.0854 -0.6937 0.868 0.269 0.418 77 61 37 0 0
-0.0217 -0.0850 -0.6971 0.868 0.269 0.418 76 59 36 0 0
-0.0208 -0.0848 -0.7009 0.902 0.332 0.277 103 89 63 0 0
-0.0136 -0.0824 -0.7113 0.829 0.317 0.461 159 142 102 0 0
-0.0135 -0.0838 -0.7312 0.991 0.012 0.130 112 89 56 0 0
-0.0148 -0.0880 -0.7865 0.983 -0.173 0.060 163 147 104 0 0
-0.0267 -0.0988 -0.8696 0.905 -0.316 0.286 133 130 127 0 0
0.0040 -0.0390 -0.1556 0.455 0.514 0.727 191 178 148 0 0
0.0173 -0.0339 -0.1651 0.864 0.152 0.480 161 146 107 0 0
0.0180 -0.0337 -0.1665 0.745 0.387 0.543 122 106 73 0 0
0.0187 -0.0334 -0.1678 0.729 0.513 0.454 106 91 62 0 0
0.0208 -0.0327 -0.1704 0.764 0.480 0.431 111 96 68 0 0
0.0154 -0.0358 -0.1814 0.678 0.417 0.605 92 75 47 0 0
0.0164 -0.0355 -0.1827 0.709 0.111 0.696 88 71 42 0 0
0.0235 -0.0341 -0.2079 0.994 0.068 0.084 77 63 37 0 0
0.0221 -0.0349 -0.2111 0.891 0.454 -0.002 70 55 29 0 0
0.0205 -0.0410 -0.2899 0.861 -0.098 0.500 105 91 62 0 0
-0.0052 -0.0546 -0.3267 0.694 -0.409 -0.592 110 102 83 0 0
-0.1087 -0.1072 -0.4439 0.761 -0.606 -0.232 183 184 186 0 0
-0.0696 -0.1013 -0.6041 -0.306 0.932 0.195 206 206 211 0 0
-0.0393 -0.0912 -0.6482 0.824 0.133 0.551 36 30 18 0 0
-0.0388 -0.0920 -0.6629 0.814 0.551 0.186 19 16 10 0 0
-0.0348 -0.0908 -0.6712 0.814 0.084 0.575 53 47 37 0 0
-0.0322 -0.0905 -0.6826 0.924 0.159 0.347 64 52 39 0 0
-0.0286 -0.0891 -0.6846 0.872 0.470 0.139 62 50 32 0 0
-0.0277 -0.0888 -0.6861 0.802 0.523 0.287 74 61 41 0 0
-0.0250 -0.0878 -0.6888 0.775 0.386 0.501 108 96 72 0 0
-0.0246 -0.0878 -0.6907 0.810 0.479 0.340 76 64 39 0 0
-0.0241 -0.0877 -0.6925 0.839 0.447 0.311 81 67 41 0 0
-0.0207 -0.0867 -0.6990 0.902 0.332 0.277 81 64 39 0 0
-0.0138 -0.0868 -0.7451 0.915 0.375 0.149 114 98 65 0 0
-0.0297 -0.1022 -0.8701 0.895 -0.389 0.218 126 122 121 0 0
-0.0152 -0.0960 -0.8702 0.153 -0.024 0.988 169 168 164 0 0
-0.0052 -0.0440 -0.1482 0.097 0.727 0.680 178 178 179 0 0
0.0180 -0.0353 -0.1665 0.898 -0.026 0.439 122 105 70 0 0
0.0191 -0.0350 -0.1692 0.974 0.112 0.195 101 86 63 0 0
0.0148 -0.0377 -0.1815 0.595 0.085 0.799 94 78 48 0 0
0.0170 -0.0369 -0.1841 0.897 -0.128 0.423 89 74 44 0 0
0.0182 -0.0365 -0.1853 0.977 0.158 0.139 88 73 43 0 0
0.0178 -0.0367 -0.1869 0.953 0.248 -0.175 88 73 43 0 0
0.0192 -0.0362 -0.1881 0.989 0.026 -0.146 89 74 44 0 0
0.0234 -0.0358 -0.2079 0.976 0.047 -0.215 74 60 34 0 0
0.0223 -0.0366 -0.2126 0.924 0.341 -0.173 70 54 29 0 0
0.0216 -0.0397 -0.2537 0.922 -0.016 0.388 69 55 31 0 0
0.0177 -0.0433 -0.2812 0.881 -0.098 0.463 101 87 60 0 0
-0.1089 -0.1066 -0.4057 0.621 -0.783 0.034 180 180 183 0 0
-0.1085 -0.1066 -0.4075 0.643 -0.763 0.063 181 181 183 0 0
-0.1096 -0.1073 -0.4117 0.574 -0.814 0.089 181 181 182 0 0
-0.1093 -0.1074 -0.4135 0.574 -0.814 0.089 181 182 183 0 0
-0.1071 -0.1064 -0.4146 0.628 -0.770 0.110 181 182 185 0 0
-0.1064 -0.1064 -0.4181 0.628 -0.770 0.110 180 181 185 0 0
-0.1051 -0.1060 -0.4196 0.671 -0.737 0.081 180 181 185 0 0
-0.0662 -0.1013 -0.5962 -0.261 0.922 0.285 206 206 209 0 0
-0.0631 -0.1001 -0.5987 -0.286 0.942 0.176 206 207 210 0 0
-0.0389 -0.0935 -0.6546 0.756 0.638 0.145 39 32 22 0 0
-0.0236 -0.0892 -0.6881 0.863 0.437 0.255 108 94 71 0 0
-0.0211 -0.0886 -0.6952 0.881 0.342 0.328 82 66 42 0 0
-0.0321 -0.1054 -0.8701 0.797 -0.291 0.529 120 116 115 0 0
-0.0309 -0.1050 -0.8716 0.797 -0.291 0.529 136 132 131 0 0
-0.0173 -0.0990 -0.8700 0.153 -0.024 0.988 167 166 164 0 0
-0.0004 -0.0436 -0.1475 0.446 0.800 0.401 177 178 178 0 0
-0.0002 -0.0436 -0.1489 0.596 0.701 0.391 174 173 172 0 0
0.0028 -0.0426 -0.1543 0.494 0.403 0.770 186 169 131 0 0
0.0155 -0.0390 -0.1814 0.918 -0.121 0.378 102 87 56 0 0
0.0161 -0.0389 -0.1828 0.888 -0.033 0.458 97 82 53 0 0
0.0195 -0.0379 -0.1895 0.962 0.103 0.252 90 76 43 0 0
0.0204 -0.0396 -0.2205 0.973 -0.230 -0.008 70 54 30 0 0
0.0184 -0.0445 -0.2780 0.974 0.043 -0.220 94 80 53 0 0
0.0183 -0.0448 -0.2812 0.851 0.085 0.518 99 85 58 0 0
0.0191 -0.0445 -0.2825 0.851 0.085 0.518 94 80 51 0 0
0.0194 -0.0445 -0.2840 0.954 -0.178 0.241 89 75 46 0 0
-0.0067 -0.0588 -0.3274 0.898 -0.089 -0.430 158 157 152 0 0
-0.0469 -0.0965 -0.6193 0.538 0.609 0.583 42 31 23 0 0
-0.0368 -0.0946 -0.6537 0.750 0.656 -0.081 49 41 31 0 0
-0.0369 -0.0948 -0.6559 0.750 0.656 -0.081 37 31 19 0 0
-0.0209 -0.0904 -0.6933 0.860 0.290 0.420 68 50 29 0 0
-0.0132 -0.0912 -0.7523 0.970 -0.156 0.187 145 126 90 0 0
-0.0371 -0.1097 -0.8698 0.883 -0.378 -0.277 87 86 82 0 0
0.0019 -0.0445 -0.1516 0.849 0.304 0.432 153 145 136 0 0
0.0062 -0.0429 -0.1553 0.945 0.174 0.278 159 140 106 0 0
0.0151 -0.0408 -0.1815 0.944 0.049 0.326 110 95 64 0 0
0.0235 -0.0393 -0.2125 0.953 0.225 -0.203 85 69 43 0 0
0.0200 -0.0416 -0.2237 0.944 -0.108 0.312 83 68 45 0 0
-0.0042 -0.0594 -0.3268 0.529 0.662 0.531 177 178 176 0 0
-0.0308 -0.0954 -0.6739 0.769 0.544 0.334 80 71 50 0 0
