ply
format ascii 1.0
element vertex 846
property float x
property float y
property float z
property float nx
property float ny
property float nz
property uchar diffuse_red
property uchar diffuse_green
property uchar diffuse_blue
property uchar class
property uchar detection
end_header
0.0116 -0.0600 -0.2330 0.924 -0.356 0.140 44 30 18 0 0
0.0117 -0.0601 -0.2344 0.924 -0.356 0.140 52 39 23 0 0
0.0130 -0.0607 -0.2386 0.787 -0.487 0.378 57 41 26 0 0
0.0137 -0.0610 -0.2414 0.910 -0.347 0.227 67 49 35 0 0
0.0140 -0.0612 -0.2428 0.910 -0.347 0.227 58 40 26 0 0
0.0132 -0.0621 -0.2579 0.920 0.253 0.299 65 42 26 0 0
0.0113 -0.0626 -0.2719 0.937 0.105 0.334 74 49 29 0 0
0.0096 -0.0639 -0.2953 0.836 -0.488 0.250 94 72 49 0 0
-0.0805 -0.0532 -0.4256 0.933 0.078 0.351 36 28 24 0 0
-0.1314 -0.0532 -0.5859 -0.044 -0.814 0.579 39 39 37 0 0
-0.1277 -0.0540 -0.5861 -0.078 -0.418 0.905 34 33 31 0 0
-0.0768 -0.0661 -0.6012 0.704 -0.247 0.665 74 61 53 0 0
-0.0598 -0.0709 -0.6163 0.737 -0.319 0.596 117 104 86 0 0
-0.0580 -0.0715 -0.6194 0.833 -0.355 0.425 102 89 72 0 0
-0.0539 -0.0728 -0.6252 0.850 -0.405 0.337 84 72 55 0 0
-0.0497 -0.0776 -0.6822 0.707 -0.678 -0.200 8 6 6 0 0
-0.0150 -0.0884 -0.7291 0.859 -0.402 0.316 132 110 73 0 0
-0.0149 -0.0923 -0.7848 0.875 0.010 0.484 155 135 92 0 0
-0.0213 -0.0949 -0.8429 0.953 -0.189 -0.237 138 120 87 0 0
-0.0276 -0.0946 -0.8592 0.908 -0.414 -0.069 8 7 7 0 0
0.0080 -0.0562 -0.1673 0.900 0.007 0.436 81 60 31 0 0
0.0085 -0.0564 -0.1687 0.804 -0.066 0.591 84 64 41 0 0
0.0094 -0.0567 -0.1699 0.914 0.060 0.402 48 32 14 0 0
0.0101 -0.0569 -0.1712 0.919 -0.085 0.384 51 37 19 0 0
0.0106 -0.0571 -0.1726 0.940 -0.021 0.341 50 37 22 0 0
0.0094 -0.0574 -0.1812 0.887 -0.379 0.263 40 30 20 0 0
0.0122 -0.0620 -0.2386 0.787 -0.487 0.378 49 33 20 0 0
0.0113 -0.0634 -0.2612 0.834 -0.486 0.262 66 43 27 0 0
0.0109 -0.0641 -0.2719 0.928 0.006 0.372 73 51 28 0 0
0.0121 -0.0653 -0.2853 0.934 -0.355 0.042 81 57 31 0 0
0.0087 -0.0651 -0.2939 0.864 -0.500 0.061 90 67 43 0 0
0.0091 -0.0653 -0.2953 0.752 -0.628 0.202 98 74 50 0 0
0.0087 -0.0654 -0.2985 0.902 -0.354 0.247 118 98 64 0 0
0.0081 -0.0658 -0.3049 0.961 -0.265 -0.080 88 69 45 0 0
0.0080 -0.0658 -0.3065 0.961 -0.265 -0.080 56 35 20 0 0
-0.0814 -0.0563 -0.4475 0.945 -0.290 -0.152 53 50 42 0 0
-0.0817 -0.0564 -0.4495 0.945 -0.290 -0.152 47 44 40 0 0
-0.0883 -0.0559 -0.4631 0.770 -0.498 0.400 12 10 8 0 0
-0.0825 -0.0576 -0.4701 0.919 -0.337 0.205 13 9 7 0 0
-0.0822 -0.0578 -0.4718 0.919 -0.337 0.205 10 9 10 0 0
-0.0825 -0.0579 -0.4738 0.912 -0.290 0.290 13 11 9 0 0
-0.0825 -0.0580 -0.4757 0.829 -0.364 0.425 45 39 31 0 0
-0.0818 -0.0583 -0.4773 0.829 -0.364 0.425 80 71 56 0 0
-0.0789 -0.0593 -0.4835 0.709 -0.544 0.449 65 50 32 0 0
-0.1513 -0.0512 -0.5909 0.368 -0.776 -0.513 140 143 141 0 0
-0.0627 -0.0720 -0.6156 0.667 -0.334 0.666 139 127 105 0 0
-0.0555 -0.0743 -0.6257 0.899 -0.166 0.404 70 60 43 0 0
-0.0539 -0.0747 -0.6269 0.842 -0.380 0.382 59 50 32 0 0
-0.0190 -0.0884 -0.7146 0.920 -0.292 0.262 143 123 83 0 0
-0.0186 -0.0886 -0.7164 0.884 -0.361 0.295 150 131 91 0 0
-0.0194 -0.0886 -0.7191 0.935 -0.240 0.260 150 130 90 0 0
-0.0176 -0.0898 -0.7305 0.946 -0.212 0.244 149 125 89 0 0
-0.0166 -0.0913 -0.7489 0.879 -0.366 0.306 123 101 67 0 0
-0.0170 -0.0956 -0.8123 0.926 -0.359 0.115 168 150 100 0 0
-0.0292 -0.0963 -0.8600 0.992 -0.121 0.016 12 10 11 0 0
0.0089 -0.0580 -0.1699 0.920 -0.304 0.246 56 35 14 0 0
0.0103 -0.0585 -0.1725 0.880 -0.419 0.225 53 36 21 0 0
0.0123 -0.0605 -0.1949 0.985 0.111 0.134 30 20 11 0 0
0.0130 -0.0609 -0.1990 0.978 0.111 0.176 31 21 12 0 0
0.0123 -0.0609 -0.2006 0.989 0.127 0.077 32 22 13 0 0
0.0115 -0.0632 -0.2357 0.975 -0.211 0.066 48 32 19 0 0
0.0118 -0.0634 -0.2371 0.954 -0.267 0.138 48 32 19 0 0
0.0120 -0.0635 -0.2385 0.954 -0.267 0.138 45 29 16 0 0
0.0088 -0.0642 -0.2586 0.926 -0.359 -0.111 66 43 27 0 0
0.0099 -0.0654 -0.2720 0.845 -0.251 0.471 73 51 28 0 0
0.0106 -0.0656 -0.2733 0.845 -0.251 0.471 76 54 31 0 0
0.0112 -0.0659 -0.2747 0.845 -0.251 0.471 77 55 32 0 0
0.0104 -0.0658 -0.2764 0.798 0.086 0.596 72 50 27 0 0
0.0072 -0.0665 -0.2956 0.766 -0.409 0.496 99 77 50 0 0
-0.0463 -0.0602 -0.3698 0.294 -0.955 0.041 65 59 52 0 0
-0.0812 -0.0553 -0.4075 0.962 -0.074 0.263 25 22 17 0 0
-0.0809 -0.0555 -0.4092 0.973 -0.084 0.213 23 19 15 0 0
-0.0896 -0.0574 -0.4634 0.879 -0.227 0.419 32 31 29 0 0
-0.0829 -0.0595 -0.4719 0.845 -0.449 0.290 10 9 9 0 0
-0.0831 -0.0596 -0.4738 0.817 -0.290 0.499 10 8 6 0 0
-0.0826 -0.0598 -0.4754 0.836 -0.376 0.401 30 23 18 0 0
-0.0820 -0.0600 -0.4771 0.857 -0.428 0.287 48 38 28 0 0
-0.0798 -0.0609 -0.4837 0.807 -0.469 0.359 68 55 37 0 0
-0.0792 -0.0612 -0.4853 0.834 -0.130 0.535 62 47 27 0 0
-0.0828 -0.0613 -0.4981 0.834 -0.505 0.223 73 57 34 0 0
-0.0824 -0.0615 -0.4998 0.834 -0.505 0.223 81 67 44 0 0
-0.1414 -0.0550 -0.5880 0.014 -0.808 0.589 64 65 63 0 0
-0.1378 -0.0558 -0.5883 0.076 -0.698 0.712 57 56 57 0 0
-0.1347 -0.0565 -0.5889 0.115 -0.585 0.803 35 33 34 0 0
-0.1102 -0.0620 -0.5912 0.457 0.365 0.811 32 30 28 0 0
-0.0637 -0.0737 -0.6157 0.763 -0.275 0.585 124 113 95 0 0
-0.0612 -0.0744 -0.6184 0.902 -0.145 0.407 77 69 56 0 0
-0.0605 -0.0747 -0.6200 0.902 -0.145 0.407 75 68 53 0 0
-0.0598 -0.0749 -0.6217 0.902 -0.145 0.407 68 61 46 0 0
-0.0193 -0.0903 -0.7165 0.878 -0.411 0.245 137 119 76 0 0
-0.0177 -0.0917 -0.7322 0.929 -0.324 0.177 111 89 50 0 0
-0.0175 -0.0928 -0.7470 0.930 -0.208 0.304 148 121 82 0 0
-0.0173 -0.0930 -0.7490 0.879 -0.366 0.306 128 103 64 0 0
-0.0169 -0.0935 -0.7551 0.942 -0.334 0.027 155 139 95 0 0
-0.0170 -0.0939 -0.7616 0.921 -0.383 0.073 167 147 102 0 0
-0.0171 -0.0964 -0.7965 0.939 -0.188 0.289 173 156 110 0 0
-0.0184 -0.0525 -0.1537 0.879 -0.028 0.477 178 178 181 0 0
-0.0166 -0.0530 -0.1549 0.899 -0.192 0.394 179 178 179 0 0
-0.0180 -0.0528 -0.1565 0.595 0.007 0.804 169 167 163 0 0
0.0153 -0.0632 -0.2028 0.539 -0.319 0.780 32 22 13 0 0
0.0157 -0.0635 -0.2056 0.762 -0.453 0.463 32 22 13 0 0
0.0039 -0.0618 -0.2180 0.926 0.091 0.368 31 21 12 0 0
0.0068 -0.0626 -0.2203 0.966 0.160 0.203 33 20 12 0 0
0.0137 -0.0646 -0.2277 0.850 -0.263 0.457 41 27 18 0 0
0.0115 -0.0649 -0.2385 0.944 -0.260 0.203 46 30 17 0 0
0.0124 -0.0654 -0.2427 0.895 -0.311 0.319 51 32 18 0 0
0.0100 -0.0661 -0.2597 0.952 -0.121 0.282 67 44 28 0 0
0.0101 -0.0671 -0.2733 0.844 -0.343 0.412 77 55 32 0 0
0.0096 -0.0675 -0.2810 0.971 -0.219 -0.101 78 54 30 0 0
0.0065 -0.0679 -0.2957 0.773 -0.415 0.479 100 79 51 0 0
0.0082 -0.0686 -0.2998 0.958 -0.284 0.039 151 136 95 0 0
0.0083 -0.0687 -0.3014 0.953 -0.264 0.151 159 146 107 0 0
0.0089 -0.0689 -0.3027 0.961 -0.048 0.271 118 102 69 0 0
-0.0572 -0.0583 -0.3527 0.515 -0.402 0.757 73 72 70 0 0
-0.0831 -0.0564 -0.4044 0.909 -0.319 0.267 33 28 24 0 0
-0.0822 -0.0567 -0.4058 0.858 -0.307 0.413 24 19 15 0 0
-0.0816 -0.0570 -0.4074 0.935 -0.250 0.251 22 18 14 0 0
-0.0810 -0.0572 -0.4090 0.919 -0.227 0.323 21 17 14 0 0
-0.0809 -0.0573 -0.4108 0.925 -0.331 0.188 30 26 23 0 0
-0.0817 -0.0622 -0.4823 0.960 -0.204 0.194 47 36 18 0 0
-0.1520 -0.0540 -0.5782 0.820 -0.536 -0.201 199 200 202 0 0
-0.1533 -0.0539 -0.5809 0.525 -0.721 -0.451 196 197 199 0 0
-0.1631 -0.0529 -0.5960 0.550 -0.821 -0.151 120 120 120 0 0
-0.1484 -0.0557 -0.5910 -0.123 -0.443 0.888 65 63 64 0 0
-0.1437 -0.0567 -0.5908 -0.153 -0.280 0.948 57 53 56 0 0
-0.1100 -0.0639 -0.5908 0.801 0.090 0.592 27 26 24 0 0
-0.0643 -0.0754 -0.6157 0.763 -0.275 0.585 76 68 56 0 0
-0.0294 -0.0877 -0.6852 0.893 0.427 0.146 68 58 44 0 0
-0.0204 -0.0903 -0.6940 0.963 -0.133 0.236 88 71 41 0 0
-0.0195 -0.0928 -0.7268 0.938 -0.189 0.290 145 127 84 0 0
-0.0187 -0.0931 -0.7284 0.904 -0.399 0.153 156 138 95 0 0
-0.0182 -0.0979 -0.7946 0.902 -0.233 0.363 173 156 110 0 0
-0.0176 -0.0981 -0.7964 0.902 -0.233 0.363 175 158 112 0 0
-0.0184 -0.0983 -0.8014 0.865 -0.475 0.162 172 154 105 0 0
-0.0239 -0.0998 -0.8390 0.941 -0.339 -0.020 159 141 97 0 0
-0.0240 -0.0999 -0.8413 0.941 -0.339 -0.020 144 128 89 0 0
-0.0226 -0.1003 -0.8425 0.761 -0.640 0.105 111 98 66 0 0
-0.0186 -0.0540 -0.1536 0.876 -0.011 0.482 178 178 180 0 0
-0.0187 -0.0541 -0.1551 0.885 0.437 0.163 177 177 178 0 0
0.0098 -0.0627 -0.1908 0.446 -0.604 0.660 29 19 12 0 0
0.0107 -0.0630 -0.1920 0.516 -0.389 0.763 30 20 13 0 0
0.0121 -0.0633 -0.1932 0.593 -0.463 0.659 32 22 15 0 0
0.0126 -0.0635 -0.1946 0.699 -0.496 0.515 31 21 14 0 0
0.0140 -0.0639 -0.1957 0.615 -0.337 0.713 30 19 13 0 0
0.0126 -0.0667 -0.2396 0.873 -0.396 0.285 48 31 18 0 0
0.0113 -0.0666 -0.2413 0.850 -0.419 0.320 50 31 17 0 0
0.0117 -0.0668 -0.2427 0.850 -0.419 0.320 51 32 18 0 0
0.0098 -0.0676 -0.2596 0.952 -0.121 0.282 66 43 27 0 0
0.0100 -0.0677 -0.2610 0.906 -0.085 0.415 67 44 27 0 0
0.0107 -0.0680 -0.2624 0.964 -0.043 0.264 67 44 26 0 0
0.0073 -0.0698 -0.2983 0.941 0.086 0.329 132 115 78 0 0
-0.0584 -0.0599 -0.3545 0.555 -0.788 0.268 75 74 72 0 0
-0.0839 -0.0579 -0.4027 0.883 -0.404 0.241 20 15 12 0 0
-0.0827 -0.0584 -0.4058 0.858 -0.307 0.413 20 16 12 0 0
-0.0821 -0.0586 -0.4073 0.935 -0.250 0.251 20 16 13 0 0
-0.0817 -0.0588 -0.4090 0.935 -0.250 0.251 18 14 11 0 0
-0.0815 -0.0590 -0.4107 0.925 -0.331 0.188 17 14 15 0 0
-0.0806 -0.0600 -0.4229 0.987 -0.068 0.142 48 38 26 0 0
-0.0863 -0.0609 -0.4524 0.779 -0.504 -0.372 34 32 34 0 0
-0.0908 -0.0607 -0.4633 0.860 -0.003 0.510 21 20 20 0 0
-0.0834 -0.0633 -0.4771 0.969 -0.241 0.057 45 34 23 0 0
-0.1292 -0.0586 -0.5470 0.150 -0.931 -0.332 196 197 199 0 0
-0.1517 -0.0557 -0.5736 0.844 0.033 -0.535 201 202 204 0 0
-0.1595 -0.0555 -0.5939 -0.023 0.125 0.992 73 73 73 0 0
-0.1098 -0.0658 -0.5903 0.974 0.181 0.137 25 24 22 0 0
-0.1091 -0.0660 -0.5920 0.594 -0.106 0.798 33 29 28 0 0
-0.0941 -0.0695 -0.5967 0.443 -0.202 0.874 45 41 37 0 0
-0.0921 -0.0700 -0.5977 0.373 -0.213 0.903 42 38 36 0 0
-0.0589 -0.0794 -0.6306 0.862 -0.172 0.477 71 64 46 0 0
-0.0511 -0.0827 -0.6526 0.817 -0.339 0.465 62 56 46 0 0
-0.0487 -0.0835 -0.6574 0.873 -0.100 0.477 36 27 22 0 0
-0.0285 -0.0894 -0.6801 0.988 0.035 0.148 67 58 43 0 0
-0.0286 -0.0895 -0.6822 0.900 0.356 0.251 61 51 34 0 0
-0.0288 -0.0897 -0.6844 0.869 0.450 0.206 79 69 50 0 0
-0.0171 -0.0935 -0.7039 0.920 -0.215 0.328 143 126 90 0 0
-0.0199 -0.0945 -0.7266 0.938 -0.189 0.290 157 140 95 0 0
-0.0195 -0.0948 -0.7284 0.953 -0.246 0.178 159 141 98 0 0
-0.0185 -0.0960 -0.7426 0.980 -0.187 0.069 116 98 60 0 0
-0.0184 -0.0964 -0.7489 0.972 -0.157 0.177 162 139 94 0 0
-0.0248 -0.1017 -0.8415 0.947 -0.321 -0.028 140 125 86 0 0
-0.0240 -0.1020 -0.8431 0.766 -0.640 0.065 105 92 61 0 0
-0.0017 -0.0596 -0.1612 0.643 -0.523 0.559 122 109 95 0 0
0.0089 -0.0640 -0.1908 0.771 -0.374 0.515 28 19 12 0 0
0.0114 -0.0647 -0.1932 0.665 -0.384 0.641 28 19 12 0 0
0.0104 -0.0650 -0.2005 0.980 -0.045 0.192 33 23 14 0 0
0.0092 -0.0649 -0.2022 0.781 -0.516 0.351 35 26 17 0 0
0.0145 -0.0660 -0.2027 0.509 -0.181 0.841 32 22 13 0 0
0.0109 -0.0678 -0.2383 0.937 -0.307 0.166 51 35 21 0 0
0.0110 -0.0679 -0.2398 0.920 -0.311 0.239 52 35 20 0 0
0.0100 -0.0691 -0.2594 0.947 -0.231 0.221 68 45 28 0 0
0.0094 -0.0691 -0.2610 0.875 -0.218 0.433 69 46 28 0 0
0.0105 -0.0695 -0.2623 0.869 -0.437 0.233 68 45 27 0 0
0.0063 -0.0708 -0.2938 0.826 -0.543 0.153 91 71 43 0 0
0.0068 -0.0713 -0.2983 0.899 -0.032 0.437 147 129 90 0 0
0.0075 -0.0715 -0.2997 0.899 -0.032 0.437 168 155 110 0 0
0.0082 -0.0717 -0.3011 0.899 -0.032 0.437 155 141 102 0 0
0.0041 -0.0718 -0.3131 0.874 -0.012 -0.485 111 97 66 0 0
0.0061 -0.0724 -0.3157 0.872 -0.204 0.445 93 82 58 0 0
-0.0619 -0.0605 -0.3503 0.507 -0.197 0.839 74 72 73 0 0
-0.0836 -0.0597 -0.4023 0.819 -0.436 0.374 18 14 11 0 0
-0.0829 -0.0601 -0.4056 0.849 -0.426 0.313 20 16 13 0 0
-0.0805 -0.0619 -0.4245 0.986 -0.051 0.157 67 54 37 0 0
-0.0845 -0.0630 -0.4514 0.895 0.401 -0.196 46 42 42 0 0
-0.1042 -0.0639 -0.5218 0.539 -0.287 -0.792 26 24 25 0 0
-0.1110 -0.0628 -0.5268 0.556 -0.201 -0.807 28 26 27 0 0
-0.1126 -0.0670 -0.5894 0.577 -0.267 0.772 21 20 18 0 0
-0.1109 -0.0674 -0.5906 0.748 -0.167 0.643 25 23 22 0 0
-0.0988 -0.0703 -0.5947 0.429 -0.487 0.761 50 46 43 0 0
-0.0912 -0.0720 -0.5969 0.406 -0.535 0.741 51 47 43 0 0
-0.0777 -0.0754 -0.6040 0.905 -0.355 0.235 62 58 53 0 0
-0.0600 -0.0811 -0.6309 0.881 -0.303 0.364 55 49 34 0 0
-0.0539 -0.0831 -0.6417 0.898 -0.306 0.317 44 34 25 0 0
-0.0534 -0.0834 -0.6434 0.898 -0.306 0.317 40 32 23 0 0
-0.0526 -0.0836 -0.6450 0.958 -0.105 0.265 24 15 10 0 0
-0.0522 -0.0838 -0.6468 0.958 -0.105 0.265 22 14 9 0 0
-0.0470 -0.0859 -0.6602 0.923 -0.003 0.386 13 12 10 0 0
-0.0279 -0.0915 -0.6815 0.887 0.392 0.243 79 66 44 0 0
-0.0216 -0.0935 -0.6919 0.928 -0.121 0.351 85 67 44 0 0
-0.0188 -0.0977 -0.7424 0.980 -0.187 0.069 129 106 62 0 0
-0.0189 -0.0980 -0.7467 0.942 -0.317 0.115 119 97 61 0 0
-0.0201 -0.0989 -0.7626 0.853 -0.347 0.389 143 123 80 0 0
-0.0205 -0.1010 -0.7933 0.876 -0.400 0.268 160 142 98 0 0
-0.0201 -0.1013 -0.7951 0.876 -0.400 0.268 166 149 101 0 0
-0.0220 -0.1014 -0.8032 0.896 -0.307 0.320 175 159 110 0 0
-0.0254 -0.1035 -0.8415 0.977 -0.169 -0.129 147 130 92 0 0
-0.0260 -0.1035 -0.8442 0.961 -0.108 -0.255 105 91 60 0 0
-0.0041 -0.0604 -0.1586 0.739 -0.187 0.647 148 141 133 0 0
-0.0027 -0.0608 -0.1598 0.546 -0.473 0.691 134 126 116 0 0
-0.0027 -0.0609 -0.1612 0.643 -0.523 0.559 129 118 103 0 0
0.0004 -0.0619 -0.1664 0.910 -0.324 0.258 81 60 28 0 0
0.0052 -0.0633 -0.1714 0.834 -0.256 0.489 81 59 26 0 0
0.0058 -0.0635 -0.1727 0.834 -0.256 0.489 87 66 35 0 0
0.0065 -0.0638 -0.1740 0.907 -0.245 0.343 82 62 35 0 0
0.0049 -0.0644 -0.1870 0.730 -0.487 0.479 32 23 14 0 0
0.0104 -0.0660 -0.1932 0.586 -0.406 0.701 28 19 12 0 0
0.0068 -0.0658 -0.2010 0.655 -0.577 0.488 33 23 14 0 0
0.0075 -0.0660 -0.2024 0.655 -0.602 0.456 33 23 14 0 0
0.0092 -0.0688 -0.2356 0.938 -0.288 0.195 49 33 20 0 0
0.0094 -0.0689 -0.2370 0.938 -0.288 0.195 53 37 24 0 0
0.0096 -0.0706 -0.2593 0.880 -0.363 0.306 69 46 29 0 0
0.0091 -0.0706 -0.2609 0.850 -0.358 0.388 69 46 28 0 0
0.0096 -0.0708 -0.2623 0.797 -0.495 0.346 69 46 28 0 0
0.0053 -0.0721 -0.2924 0.936 -0.262 0.235 85 63 39 0 0
0.0078 -0.0731 -0.2994 0.935 -0.004 0.353 173 162 115 0 0
-0.0817 -0.0615 -0.3979 0.973 -0.152 0.173 20 16 13 0 0
-0.0826 -0.0621 -0.4088 0.962 -0.114 0.248 16 12 9 0 0
-0.0826 -0.0622 -0.4106 0.910 -0.234 0.341 18 14 11 0 0
-0.0820 -0.0625 -0.4122 0.912 -0.230 0.341 29 24 20 0 0
-0.0806 -0.0635 -0.4225 0.958 -0.282 0.046 68 56 38 0 0
-0.0844 -0.0666 -0.4770 0.766 -0.396 0.506 46 34 20 0 0
-0.1012 -0.0663 -0.5202 0.663 -0.305 -0.684 61 59 60 0 0
-0.1369 -0.0639 -0.5907 -0.020 -0.449 0.893 14 13 11 0 0
-0.1311 -0.0650 -0.5899 -0.105 -0.387 0.916 12 11 9 0 0
-0.1074 -0.0700 -0.5905 0.941 -0.066 0.332 29 28 26 0 0
-0.0955 -0.0730 -0.5967 0.443 -0.098 0.891 49 46 41 0 0
-0.0919 -0.0737 -0.5969 0.482 -0.320 0.816 56 53 48 0 0
-0.0792 -0.0768 -0.6025 0.864 -0.293 0.409 67 62 58 0 0
-0.0770 -0.0776 -0.6074 0.899 -0.167 0.404 69 64 53 0 0
-0.0601 -0.0829 -0.6306 0.932 -0.027 0.361 61 54 42 0 0
-0.0599 -0.0830 -0.6325 0.774 -0.142 0.617 89 83 71 0 0
-0.0590 -0.0833 -0.6340 0.732 -0.185 0.656 91 85 73 0 0
-0.0579 -0.0837 -0.6354 0.732 -0.185 0.656 75 68 57 0 0
-0.0573 -0.0839 -0.6371 0.686 -0.270 0.676 67 58 48 0 0
-0.0566 -0.0842 -0.6388 0.762 -0.115 0.637 58 49 40 0 0
-0.0556 -0.0845 -0.6403 0.898 -0.109 0.426 52 44 34 0 0
-0.0516 -0.0859 -0.6482 0.896 -0.333 0.295 56 50 38 0 0
-0.0503 -0.0863 -0.6494 0.860 0.135 0.492 55 48 40 0 0
-0.0493 -0.0866 -0.6509 0.874 0.187 0.448 37 32 29 0 0
-0.0472 -0.0877 -0.6599 0.923 -0.003 0.386 25 23 21 0 0
-0.0221 -0.0951 -0.6898 0.955 -0.110 0.275 97 80 60 0 0
-0.0209 -0.0962 -0.7015 0.940 -0.248 0.236 150 127 93 0 0
-0.0189 -0.0979 -0.7189 0.973 -0.206 0.100 149 131 90 0 0
-0.0180 -0.0994 -0.7372 0.825 -0.380 0.418 165 146 98 0 0
-0.0182 -0.1001 -0.7479 0.987 -0.079 0.143 116 100 71 0 0
-0.0213 -0.1028 -0.7934 0.876 -0.400 0.268 145 126 82 0 0
-0.0208 -0.1030 -0.7952 0.876 -0.400 0.268 170 154 103 0 0
-0.0223 -0.1032 -0.8029 0.981 -0.150 0.119 171 155 106 0 0
-0.0220 -0.1035 -0.8049 0.940 -0.323 0.105 170 154 105 0 0
-0.0236 -0.1048 -0.8284 0.903 -0.430 0.010 125 107 65 0 0
-0.0243 -0.1049 -0.8311 0.920 -0.391 -0.015 136 118 74 0 0
-0.0251 -0.1049 -0.8340 0.967 -0.242 -0.086 152 134 88 0 0
-0.0261 -0.1054 -0.8438 0.961 -0.108 -0.255 115 101 70 0 0
-0.0090 -0.1098 -0.8554 -0.180 0.164 0.970 154 153 151 0 0
0.0046 -0.0655 -0.1827 0.759 -0.526 0.384 38 29 18 0 0
0.0052 -0.0657 -0.1840 0.874 -0.347 0.341 39 30 19 0 0
0.0050 -0.0658 -0.1855 0.964 -0.228 0.138 39 31 21 0 0
0.0059 -0.0662 -0.1882 0.812 -0.527 0.250 31 22 14 0 0
0.0067 -0.0667 -0.1937 0.988 -0.142 0.066 30 21 14 0 0
0.0034 -0.0665 -0.2001 0.427 -0.486 0.763 30 22 13 0 0
0.0065 -0.0674 -0.2039 0.685 -0.409 0.603 30 20 11 0 0
0.0074 -0.0677 -0.2051 0.685 -0.409 0.603 28 19 10 0 0
0.0082 -0.0680 -0.2064 0.803 -0.330 0.495 28 19 10 0 0
0.0078 -0.0690 -0.2210 0.869 -0.301 0.393 33 20 12 0 0
0.0081 -0.0702 -0.2371 0.709 -0.454 0.540 49 33 20 0 0
0.0076 -0.0720 -0.2626 0.963 0.182 0.201 68 45 27 0 0
0.0081 -0.0724 -0.2671 0.988 0.151 0.037 69 44 24 0 0
0.0067 -0.0742 -0.2965 0.853 -0.328 0.405 135 116 79 0 0
0.0073 -0.0746 -0.2994 0.922 -0.223 0.317 169 161 115 0 0
0.0059 -0.0753 -0.3138 0.872 -0.064 0.486 92 78 52 0 0
-0.0855 -0.0613 -0.3831 0.899 -0.364 0.242 21 17 12 0 0
-0.0852 -0.0615 -0.3847 0.899 -0.364 0.242 18 15 12 0 0
-0.0831 -0.0636 -0.4070 0.907 -0.195 0.373 17 13 10 0 0
-0.0807 -0.0643 -0.4098 0.966 -0.169 0.194 25 20 16 0 0
-0.0804 -0.0645 -0.4114 0.966 -0.169 0.194 32 26 19 0 0
-0.0814 -0.0649 -0.4207 0.932 -0.315 0.182 65 51 31 0 0
-0.0810 -0.0651 -0.4224 0.947 -0.236 0.218 68 55 36 0 0
-0.0810 -0.0653 -0.4242 0.904 -0.315 0.289 78 65 44 0 0
-0.0804 -0.0655 -0.4258 0.960 -0.181 0.213 85 70 48 0 0
-0.1008 -0.0681 -0.5198 0.692 -0.047 -0.720 36 34 35 0 0
-0.1050 -0.0675 -0.5235 0.701 -0.222 -0.678 74 72 73 0 0
-0.1514 -0.0627 -0.5891 0.225 0.633 0.740 56 55 53 0 0
-0.1411 -0.0649 -0.5903 0.209 -0.208 0.955 23 22 20 0 0
-0.1347 -0.0663 -0.5914 0.063 -0.503 0.862 13 12 10 0 0
-0.1021 -0.0729 -0.5896 0.793 0.033 0.608 28 27 25 0 0
-0.1015 -0.0732 -0.5914 0.873 -0.129 0.470 29 28 26 0 0
-0.1008 -0.0735 -0.5930 0.881 -0.285 0.377 37 34 32 0 0
-0.0645 -0.0829 -0.6185 0.827 -0.226 0.514 64 57 48 0 0
-0.0618 -0.0839 -0.6251 0.943 -0.305 0.133 45 38 31 0 0
-0.0603 -0.0846 -0.6303 0.896 -0.074 0.439 75 68 58 0 0
-0.0604 -0.0848 -0.6324 0.804 -0.187 0.564 59 52 42 0 0
-0.0223 -0.0969 -0.6896 0.955 -0.110 0.275 102 86 62 0 0
-0.0220 -0.0971 -0.6914 0.963 -0.124 0.238 111 94 71 0 0
-0.0211 -0.0987 -0.7115 0.893 -0.276 0.356 134 115 74 0 0
-0.0208 -0.0989 -0.7135 0.743 -0.473 0.474 137 116 79 0 0
-0.0204 -0.1004 -0.7321 0.942 -0.304 0.142 157 137 95 0 0
-0.0201 -0.1006 -0.7340 0.942 -0.304 0.142 148 126 85 0 0
-0.0187 -0.1011 -0.7373 0.825 -0.380 0.418 164 146 101 0 0
-0.0192 -0.1012 -0.7397 0.920 -0.367 0.140 162 145 99 0 0
-0.0192 -0.1015 -0.7440 0.953 -0.282 0.109 146 126 82 0 0
-0.0183 -0.1022 -0.7519 0.958 -0.257 0.125 129 109 68 0 0
-0.0206 -0.1020 -0.7556 0.945 -0.323 0.057 159 136 90 0 0
-0.0217 -0.1030 -0.7715 0.895 -0.315 0.317 149 131 87 0 0
-0.0223 -0.1033 -0.7784 0.896 -0.407 0.179 159 141 98 0 0
-0.0271 -0.1071 -0.8441 0.845 -0.503 -0.183 116 102 71 0 0
-0.0063 -0.0629 -0.1573 0.523 -0.605 0.601 175 175 175 0 0
0.0004 -0.0652 -0.1704 0.783 -0.391 0.484 85 62 27 0 0
0.0046 -0.0672 -0.1854 0.964 -0.228 0.138 39 31 20 0 0
0.0055 -0.0677 -0.1895 0.920 -0.363 0.150 30 21 14 0 0
0.0078 -0.0683 -0.1920 0.935 0.054 0.351 33 24 17 0 0
0.0062 -0.0686 -0.2009 0.727 -0.370 0.578 31 22 13 0 0
0.0067 -0.0689 -0.2022 0.826 -0.433 0.362 31 22 13 0 0
0.0067 -0.0690 -0.2037 0.709 -0.541 0.451 30 21 12 0 0
0.0067 -0.0694 -0.2095 0.881 -0.462 -0.102 35 25 16 0 0
0.0044 -0.0694 -0.2157 0.874 0.120 0.471 35 25 16 0 0
0.0069 -0.0702 -0.2196 0.760 -0.408 0.506 33 23 14 0 0
0.0074 -0.0704 -0.2210 0.758 -0.582 0.296 34 24 15 0 0
0.0074 -0.0732 -0.2595 0.931 -0.229 0.285 66 43 26 0 0
0.0078 -0.0737 -0.2654 0.970 0.174 0.169 66 43 25 0 0
0.0084 -0.0740 -0.2668 0.997 0.064 0.051 69 44 25 0 0
0.0053 -0.0752 -0.2920 0.881 -0.472 -0.027 89 67 40 0 0
0.0063 -0.0757 -0.2964 0.864 -0.387 0.322 142 122 84 0 0
0.0067 -0.0760 -0.2994 0.951 -0.179 0.253 164 153 110 0 0
0.0058 -0.0769 -0.3136 0.709 -0.376 0.597 102 88 64 0 0
-0.0861 -0.0629 -0.3831 0.885 -0.437 0.163 22 18 14 0 0
-0.0861 -0.0631 -0.3848 0.883 -0.363 0.297 20 16 13 0 0
-0.0852 -0.0636 -0.3898 0.916 -0.137 0.378 14 13 11 0 0
-0.0814 -0.0658 -0.4080 0.932 -0.317 0.176 27 23 19 0 0
-0.0814 -0.0659 -0.4098 0.954 -0.242 0.176 34 27 20 0 0
-0.0811 -0.0661 -0.4114 0.954 -0.242 0.176 40 31 23 0 0
-0.0811 -0.0666 -0.4186 0.951 -0.297 0.089 59 48 30 0 0
-0.0812 -0.0667 -0.4204 0.929 -0.273 0.248 69 58 36 0 0
-0.0813 -0.0668 -0.4222 0.879 -0.210 0.429 77 63 42 0 0
-0.0811 -0.0670 -0.4240 0.914 -0.220 0.341 79 65 43 0 0
-0.0809 -0.0672 -0.4257 0.960 -0.247 0.133 86 74 50 0 0
-0.0856 -0.0713 -0.4957 0.960 -0.159 0.229 59 49 31 0 0
-0.0852 -0.0721 -0.5050 0.972 -0.182 -0.149 21 19 19 0 0
-0.0859 -0.0721 -0.5073 0.642 -0.756 0.129 21 20 19 0 0
-0.1044 -0.0695 -0.5230 0.722 -0.031 -0.691 49 47 46 0 0
-0.1083 -0.0689 -0.5266 0.581 -0.514 -0.632 150 148 151 0 0
-0.1378 -0.0675 -0.5905 0.218 -0.278 0.935 17 13 12 0 0
-0.1356 -0.0680 -0.5915 0.648 0.079 0.757 14 13 11 0 0
-0.1072 -0.0736 -0.5878 0.706 -0.404 0.581 22 20 21 0 0
-0.1058 -0.0740 -0.5891 0.862 -0.317 0.396 27 23 22 0 0
-0.1051 -0.0743 -0.5908 0.862 -0.317 0.396 35 31 30 0 0
-0.1045 -0.0745 -0.5925 0.872 -0.314 0.377 36 33 31 0 0
-0.0912 -0.0778 -0.6000 0.627 -0.233 0.743 58 51 46 0 0
-0.0783 -0.0809 -0.6054 0.741 0.201 0.641 98 92 80 0 0
-0.0634 -0.0853 -0.6236 0.837 -0.450 0.311 38 31 27 0 0
-0.0624 -0.0856 -0.6251 0.943 -0.305 0.133 53 46 41 0 0
-0.0521 -0.0893 -0.6457 0.785 0.325 0.528 44 38 34 0 0
-0.0231 -0.0984 -0.6876 0.955 -0.110 0.275 106 91 63 0 0
-0.0216 -0.0994 -0.6970 0.952 -0.273 0.135 120 98 62 0 0
-0.0214 -0.0996 -0.6989 0.952 -0.273 0.135 144 121 84 0 0
-0.0216 -0.1004 -0.7115 0.893 -0.276 0.356 148 128 83 0 0
-0.0213 -0.1020 -0.7323 0.872 -0.432 0.230 164 146 98 0 0
-0.0194 -0.1028 -0.7374 0.825 -0.380 0.418 141 124 80 0 0
-0.0198 -0.1029 -0.7398 0.920 -0.367 0.140 147 130 86 0 0
-0.0212 -0.1038 -0.7556 0.945 -0.323 0.057 167 145 96 0 0
-0.0275 -0.1088 -0.8417 0.845 -0.511 -0.155 140 125 86 0 0
-0.0282 -0.1089 -0.8445 0.834 -0.522 -0.178 113 101 70 0 0
0.0003 -0.0668 -0.1717 0.784 -0.370 0.499 75 49 16 0 0
0.0074 -0.0699 -0.1948 0.543 -0.680 0.493 31 22 15 0 0
0.0065 -0.0702 -0.2007 0.918 -0.188 0.348 31 22 13 0 0
0.0072 -0.0705 -0.2020 0.870 -0.493 0.020 31 22 13 0 0
0.0073 -0.0706 -0.2035 0.752 -0.641 0.156 30 21 12 0 0
0.0035 -0.0707 -0.2157 0.778 -0.369 0.509 35 25 15 0 0
0.0051 -0.0711 -0.2169 0.696 -0.064 0.715 32 22 13 0 0
0.0083 -0.0741 -0.2487 0.643 -0.667 0.376 54 35 20 0 0
0.0073 -0.0748 -0.2609 0.843 -0.424 0.332 64 41 23 0 0
0.0079 -0.0753 -0.2653 0.962 -0.259 0.082 65 42 24 0 0
0.0080 -0.0754 -0.2667 0.962 -0.259 0.082 69 45 25 0 0
0.0086 -0.0756 -0.2681 0.904 -0.389 0.180 69 44 24 0 0
0.0059 -0.0763 -0.2840 0.982 -0.081 0.168 90 66 40 0 0
0.0064 -0.0775 -0.2993 0.817 -0.416 0.399 158 145 105 0 0
0.0047 -0.0780 -0.3107 0.938 -0.344 0.051 79 60 36 0 0
-0.0820 -0.0674 -0.4080 0.932 -0.317 0.176 28 23 16 0 0
-0.0818 -0.0675 -0.4097 0.954 -0.242 0.176 38 30 21 0 0
-0.0815 -0.0677 -0.4114 0.954 -0.242 0.176 46 35 25 0 0
-0.0817 -0.0678 -0.4132 0.932 -0.343 0.117 55 43 30 0 0
-0.0864 -0.0730 -0.4958 0.854 -0.491 0.172 52 42 25 0 0
-0.0849 -0.0735 -0.4989 0.979 -0.204 -0.012 45 36 30 0 0
-0.0855 -0.0738 -0.5049 0.972 -0.182 -0.149 24 21 20 0 0
-0.1065 -0.0758 -0.5891 0.862 -0.317 0.396 30 26 24 0 0
-0.1058 -0.0760 -0.5908 0.862 -0.317 0.396 38 34 32 0 0
-0.1051 -0.0763 -0.5925 0.862 -0.317 0.396 38 34 32 0 0
-0.0990 -0.0779 -0.5975 0.233 -0.006 0.973 44 40 37 0 0
-0.0931 -0.0792 -0.5986 0.611 -0.006 0.792 51 46 42 0 0
-0.0813 -0.0819 -0.6026 0.509 0.131 0.851 85 78 70 0 0
-0.0755 -0.0835 -0.6076 0.910 -0.024 0.413 80 73 59 0 0
-0.0699 -0.0849 -0.6107 0.580 -0.454 0.676 63 56 46 0 0
-0.0671 -0.0856 -0.6132 0.833 -0.340 0.437 46 39 34 0 0
-0.0665 -0.0859 -0.6149 0.791 -0.586 0.177 49 41 37 0 0
-0.0644 -0.0865 -0.6178 0.744 -0.557 0.369 47 42 38 0 0
-0.0638 -0.0868 -0.6195 0.744 -0.557 0.369 40 35 31 0 0
-0.0640 -0.0869 -0.6216 0.722 -0.441 0.533 63 58 54 0 0
-0.0306 -0.0965 -0.6592 0.722 0.689 0.064 63 54 41 0 0
-0.0308 -0.0967 -0.6613 0.796 0.590 -0.133 57 49 36 0 0
-0.0303 -0.0969 -0.6630 0.805 0.592 0.041 46 39 29 0 0
-0.0222 -0.1035 -0.7304 0.915 -0.380 0.134 160 143 95 0 0
-0.0205 -0.1046 -0.7398 0.920 -0.367 0.140 172 150 107 0 0
-0.0240 -0.1077 -0.7919 0.824 -0.438 0.358 142 123 76 0 0
-0.0226 -0.1084 -0.7974 0.850 -0.366 0.378 167 149 99 0 0
-0.0252 -0.1090 -0.8126 0.920 -0.324 0.222 166 148 100 0 0
-0.0282 -0.1106 -0.8418 0.863 -0.461 -0.206 136 120 84 0 0
-0.0297 -0.1105 -0.8452 0.881 -0.403 -0.250 113 101 70 0 0
-0.0360 -0.1104 -0.8615 0.910 -0.360 -0.206 11 8 9 0 0
-0.0040 -0.0668 -0.1638 0.624 -0.406 0.667 174 174 172 0 0
-0.0013 -0.0674 -0.1648 0.940 -0.182 0.290 173 171 166 0 0
-0.0009 -0.0676 -0.1662 0.999 0.004 0.037 164 158 150 0 0
0.0017 -0.0693 -0.1814 0.828 -0.526 0.193 40 32 21 0 0
0.0028 -0.0698 -0.1855 0.864 -0.503 0.019 36 28 17 0 0
0.0065 -0.0735 -0.2253 0.983 0.173 0.060 38 27 17 0 0
0.0063 -0.0742 -0.2341 0.958 -0.067 0.278 42 26 14 0 0
0.0067 -0.0743 -0.2355 0.958 -0.067 0.278 43 27 14 0 0
0.0059 -0.0743 -0.2372 0.853 -0.394 0.343 51 35 22 0 0
0.0068 -0.0750 -0.2444 0.942 -0.252 0.223 46 28 14 0 0
0.0058 -0.0749 -0.2461 0.994 -0.075 -0.080 49 30 15 0 0
0.0082 -0.0769 -0.2650 0.847 -0.438 0.302 65 42 24 0 0
0.0060 -0.0777 -0.2823 0.996 -0.068 0.049 81 57 33 0 0
0.0034 -0.0788 -0.3046 0.949 -0.035 0.315 89 64 40 0 0
0.0039 -0.0790 -0.3060 0.927 -0.194 0.321 85 61 37 0 0
-0.0876 -0.0657 -0.3778 0.841 -0.504 0.199 103 95 86 0 0
-0.0878 -0.0658 -0.3797 0.933 -0.273 0.234 64 55 48 0 0
-0.0857 -0.0671 -0.3913 0.938 -0.121 0.326 24 20 17 0 0
-0.0825 -0.0690 -0.4079 0.955 -0.204 0.216 36 28 18 0 0
-0.0823 -0.0692 -0.4096 0.954 -0.291 0.071 45 34 24 0 0
-0.0820 -0.0694 -0.4113 0.954 -0.242 0.176 51 38 25 0 0
-0.0827 -0.0695 -0.4151 0.987 -0.081 0.136 61 46 30 0 0
-0.0837 -0.0716 -0.4462 0.929 0.007 -0.369 67 59 47 0 0
-0.0883 -0.0723 -0.4682 0.980 -0.197 0.003 14 13 10 0 0
-0.0881 -0.0736 -0.4849 0.849 -0.370 0.378 67 54 37 0 0
-0.0903 -0.0751 -0.5105 0.765 -0.334 -0.551 23 21 19 0 0
-0.1499 -0.0668 -0.5627 0.534 -0.823 -0.192 175 176 178 0 0
-0.1504 -0.0669 -0.5650 0.574 -0.779 -0.252 165 166 167 0 0
-0.0766 -0.0850 -0.6058 0.820 -0.096 0.565 82 76 63 0 0
-0.0753 -0.0853 -0.6072 0.871 -0.096 0.482 74 67 53 0 0
-0.0739 -0.0859 -0.6105 0.928 -0.211 0.306 61 55 45 0 0
-0.0553 -0.0900 -0.6146 0.558 0.808 0.187 45 40 36 0 0
-0.0311 -0.0978 -0.6530 0.712 0.699 0.074 62 51 37 0 0
-0.0288 -0.0986 -0.6577 0.719 0.690 0.090 65 54 36 0 0
-0.0284 -0.0990 -0.6616 0.766 0.642 0.038 58 50 34 0 0
-0.0248 -0.1017 -0.6879 0.911 -0.331 0.246 153 132 94 0 0
-0.0262 -0.1025 -0.7033 0.910 -0.239 0.338 157 141 98 0 0
-0.0256 -0.1028 -0.7050 0.910 -0.239 0.338 167 153 108 0 0
-0.0216 -0.1059 -0.7359 0.920 -0.367 0.140 161 141 91 0 0
-0.0255 -0.1090 -0.7881 0.908 -0.225 0.353 154 133 88 0 0
-0.0250 -0.1094 -0.7921 0.917 -0.362 0.170 148 129 83 0 0
-0.0238 -0.1099 -0.7956 0.881 -0.393 0.262 166 146 100 0 0
-0.0233 -0.1102 -0.7975 0.850 -0.366 0.378 172 152 103 0 0
-0.0302 -0.1122 -0.8428 0.774 -0.596 -0.213 126 111 74 0 0
-0.0312 -0.1122 -0.8459 0.788 -0.533 -0.307 108 96 66 0 0
-0.0363 -0.1123 -0.8612 0.936 -0.144 0.320 11 9 10 0 0
0.0000 -0.0697 -0.1716 0.899 -0.101 0.426 113 95 66 0 0
0.0016 -0.0704 -0.1770 0.893 -0.271 0.359 76 59 31 0 0
0.0027 -0.0720 -0.1954 0.916 -0.049 0.398 30 22 15 0 0
0.0030 -0.0738 -0.2185 0.711 -0.249 0.657 32 22 13 0 0
0.0026 -0.0739 -0.2200 0.521 -0.325 0.789 33 23 14 0 0
0.0056 -0.0756 -0.2356 0.906 -0.419 0.062 42 26 14 0 0
0.0053 -0.0757 -0.2372 0.853 -0.394 0.343 47 31 18 0 0
0.0051 -0.0768 -0.2521 0.895 -0.405 0.189 63 41 27 0 0
0.0071 -0.0781 -0.2636 0.847 -0.438 0.302 67 44 26 0 0
0.0060 -0.0781 -0.2669 0.975 -0.152 -0.159 67 44 24 0 0
0.0034 -0.0809 -0.3106 0.860 -0.509 0.040 81 61 36 0 0
-0.0818 -0.0669 -0.3551 0.100 -0.985 0.142 90 87 83 0 0
-0.0885 -0.0673 -0.3779 0.858 -0.340 0.384 112 103 93 0 0
-0.0879 -0.0675 -0.3795 0.858 -0.340 0.384 65 58 50 0 0
-0.0873 -0.0677 -0.3810 0.858 -0.340 0.384 42 35 29 0 0
-0.0875 -0.0678 -0.3829 0.926 0.130 0.353 53 47 41 0 0
-0.0859 -0.0688 -0.3911 0.931 -0.156 0.330 26 22 18 0 0
-0.0856 -0.0690 -0.3928 0.858 -0.153 0.491 30 27 24 0 0
-0.0833 -0.0704 -0.4062 0.923 -0.338 0.186 39 31 23 0 0
-0.0830 -0.0706 -0.4079 0.923 -0.338 0.186 48 39 28 0 0
-0.0828 -0.0708 -0.4096 0.954 -0.291 0.071 50 37 25 0 0
-0.0827 -0.0709 -0.4113 0.954 -0.291 0.071 53 38 25 0 0
-0.0903 -0.0749 -0.4837 0.884 -0.348 0.312 78 65 48 0 0
-0.0899 -0.0751 -0.4854 0.820 -0.426 0.383 68 55 37 0 0
-0.1005 -0.0753 -0.5166 0.906 -0.395 -0.151 24 22 19 0 0
-0.1009 -0.0753 -0.5186 0.906 -0.395 -0.151 37 35 33 0 0
-0.1012 -0.0754 -0.5207 0.891 -0.328 -0.315 33 31 29 0 0
-0.1026 -0.0756 -0.5272 0.334 -0.909 0.251 64 65 62 0 0
-0.0541 -0.0920 -0.6135 0.517 0.844 0.138 47 43 39 0 0
-0.0297 -0.0995 -0.6478 0.661 0.747 0.072 66 54 40 0 0
-0.0285 -0.0998 -0.6491 0.821 0.569 -0.058 71 59 44 0 0
-0.0285 -0.1000 -0.6512 0.844 0.537 0.000 73 60 45 0 0
-0.0278 -0.1002 -0.6528 0.811 0.563 0.156 64 51 36 0 0
-0.0272 -0.1005 -0.6544 0.892 0.444 0.081 59 47 31 0 0
-0.0270 -0.1007 -0.6563 0.892 0.444 0.081 59 49 32 0 0
-0.0272 -0.1013 -0.6645 0.928 0.264 0.263 96 84 62 0 0
-0.0264 -0.1017 -0.6681 0.941 0.074 0.329 90 75 47 0 0
-0.0258 -0.1019 -0.6698 0.923 0.041 0.382 104 86 55 0 0
-0.0246 -0.1023 -0.6711 0.955 0.152 0.254 119 98 67 0 0
-0.0241 -0.1025 -0.6728 0.955 0.152 0.254 129 110 75 0 0
-0.0253 -0.1025 -0.6756 0.987 -0.122 0.104 123 105 71 0 0
-0.0254 -0.1034 -0.6880 0.911 -0.331 0.246 164 143 101 0 0
-0.0266 -0.1043 -0.7031 0.934 -0.234 0.269 159 144 102 0 0
-0.0217 -0.1072 -0.7292 0.955 -0.254 0.151 152 135 88 0 0
-0.0270 -0.1095 -0.7735 0.789 -0.534 0.303 172 151 106 0 0
-0.0261 -0.1109 -0.7903 0.875 -0.468 0.123 157 138 92 0 0
0.0007 -0.0716 -0.1756 0.845 -0.138 0.516 99 82 45 0 0
0.0012 -0.0718 -0.1769 0.893 -0.271 0.359 79 61 32 0 0
0.0005 -0.0720 -0.1813 0.794 -0.573 0.205 42 31 18 0 0
-0.0015 -0.0726 -0.1945 0.779 -0.625 0.056 27 20 13 0 0
0.0032 -0.0737 -0.1966 0.975 -0.078 0.210 30 21 14 0 0
0.0019 -0.0752 -0.2200 0.568 -0.420 0.708 32 22 13 0 0
0.0030 -0.0756 -0.2213 0.561 -0.518 0.646 33 23 14 0 0
0.0043 -0.0771 -0.2387 0.971 -0.192 0.143 51 35 22 0 0
0.0053 -0.0789 -0.2594 0.903 -0.297 0.310 58 35 19 0 0
0.0054 -0.0790 -0.2609 0.861 -0.354 0.364 66 43 27 0 0
0.0059 -0.0792 -0.2623 0.861 -0.354 0.364 67 44 28 0 0
0.0067 -0.0795 -0.2636 0.890 -0.233 0.391 63 40 22 0 0
0.0045 -0.0803 -0.2793 0.904 -0.424 0.058 83 59 33 0 0
0.0040 -0.0816 -0.2979 0.904 -0.366 0.222 130 113 79 0 0
-0.1018 -0.0661 -0.3749 0.247 -0.226 0.942 90 83 74 0 0
-0.0890 -0.0691 -0.3814 0.893 -0.295 0.339 51 42 35 0 0
-0.0861 -0.0705 -0.3910 0.938 -0.133 0.320 32 29 24 0 0
-0.0856 -0.0707 -0.3926 0.926 -0.143 0.348 27 26 21 0 0
-0.0843 -0.0719 -0.4045 0.898 -0.376 0.229 39 32 26 0 0
-0.0839 -0.0721 -0.4062 0.898 -0.376 0.229 43 33 24 0 0
-0.0833 -0.0724 -0.4095 0.898 -0.376 0.229 50 38 24 0 0
-0.0852 -0.0747 -0.4445 0.936 -0.296 -0.193 64 51 35 0 0
-0.0935 -0.0750 -0.4698 0.990 -0.085 -0.113 36 29 21 0 0
-0.0896 -0.0769 -0.4850 0.724 -0.499 0.476 60 47 28 0 0
-0.0894 -0.0771 -0.4868 0.725 -0.397 0.562 65 52 33 0 0
-0.0910 -0.0776 -0.4988 0.887 -0.461 0.012 63 51 37 0 0
-0.0910 -0.0778 -0.5007 0.854 -0.519 0.035 48 39 29 0 0
-0.0881 -0.0786 -0.5033 0.788 -0.614 0.039 51 45 34 0 0
-0.1457 -0.0714 -0.5622 0.993 -0.116 -0.037 10 10 10 0 0
-0.1449 -0.0717 -0.5639 0.766 0.640 0.056 8 8 8 0 0
-0.0272 -0.1017 -0.6460 0.709 0.700 0.083 68 55 39 0 0
-0.0270 -0.1018 -0.6479 0.821 0.569 -0.058 54 40 26 0 0
-0.0270 -0.1031 -0.6640 0.987 -0.003 0.161 103 86 56 0 0
-0.0271 -0.1035 -0.6702 0.784 -0.271 0.558 131 109 72 0 0
-0.0262 -0.1038 -0.6717 0.784 -0.271 0.558 155 132 91 0 0
-0.0259 -0.1040 -0.6736 0.890 -0.318 0.326 149 129 87 0 0
-0.0261 -0.1051 -0.6880 0.911 -0.331 0.246 166 147 106 0 0
-0.0267 -0.1064 -0.7070 0.807 -0.480 0.344 157 136 93 0 0
-0.0213 -0.1098 -0.7370 0.835 -0.533 0.134 165 145 99 0 0
-0.0282 -0.1110 -0.7718 0.882 -0.373 0.288 169 148 102 0 0
-0.0278 -0.1112 -0.7737 0.839 -0.418 0.348 172 151 106 0 0
-0.0268 -0.1115 -0.7751 0.876 -0.467 0.122 174 153 107 0 0
-0.0288 -0.1137 -0.8095 0.940 -0.305 0.154 172 154 107 0 0
-0.0385 -0.1151 -0.8528 0.904 -0.131 -0.407 71 63 43 0 0
-0.0384 -0.1152 -0.8551 0.880 -0.460 -0.121 31 25 14 0 0
0.0004 -0.0731 -0.1755 0.845 -0.138 0.516 80 63 30 0 0
-0.0034 -0.0734 -0.1904 0.976 0.113 0.189 33 26 16 0 0
0.0027 -0.0751 -0.1965 0.711 -0.614 0.343 29 20 13 0 0
0.0009 -0.0753 -0.2041 0.716 -0.393 0.577 35 26 17 0 0
0.0033 -0.0760 -0.2065 0.851 -0.109 0.513 35 26 17 0 0
0.0036 -0.0762 -0.2079 0.907 0.022 0.420 36 27 18 0 0
0.0068 -0.0781 -0.2248 0.568 -0.244 0.786 38 28 17 0 0
0.0036 -0.0785 -0.2387 0.887 -0.401 0.230 48 32 19 0 0
0.0045 -0.0790 -0.2430 0.887 -0.401 0.230 45 27 13 0 0
0.0048 -0.0803 -0.2593 0.903 -0.297 0.310 63 40 24 0 0
0.0046 -0.0804 -0.2609 0.925 -0.209 0.316 65 42 26 0 0
0.0053 -0.0806 -0.2622 0.830 -0.267 0.489 64 41 25 0 0
0.0063 -0.0810 -0.2635 0.890 -0.233 0.391 62 39 21 0 0
0.0022 -0.0820 -0.2874 0.854 -0.442 0.276 84 60 32 0 0
0.0018 -0.0827 -0.2983 0.838 -0.473 0.272 118 101 69 0 0
0.0002 -0.0833 -0.3096 0.877 -0.463 0.128 81 57 31 0 0
-0.0974 -0.0689 -0.3768 0.373 0.009 0.928 108 99 88 0 0
-0.0863 -0.0723 -0.3926 0.858 -0.356 0.370 26 25 20 0 0
-0.0853 -0.0733 -0.4029 0.898 -0.376 0.229 27 21 17 0 0
-0.0850 -0.0735 -0.4045 0.898 -0.376 0.229 32 25 21 0 0
-0.0846 -0.0737 -0.4062 0.898 -0.376 0.229 43 33 26 0 0
-0.0841 -0.0741 -0.4114 0.964 -0.267 0.011 57 45 31 0 0
-0.0843 -0.0747 -0.4186 0.914 -0.395 0.098 75 60 40 0 0
-0.0862 -0.0761 -0.4428 0.953 -0.273 0.131 73 61 39 0 0
-0.0910 -0.0784 -0.4853 0.856 -0.296 0.425 58 45 26 0 0
-0.0902 -0.0787 -0.4869 0.838 -0.304 0.453 70 57 38 0 0
-0.0906 -0.0788 -0.4889 0.871 -0.414 0.266 66 53 34 0 0
-0.0919 -0.0793 -0.4989 0.809 -0.588 0.003 53 43 30 0 0
-0.0915 -0.0795 -0.5007 0.697 -0.716 0.021 51 43 33 0 0
-0.0920 -0.0796 -0.5028 0.672 -0.707 0.221 50 43 32 0 0
-0.0929 -0.0795 -0.5051 0.763 -0.646 0.019 41 34 24 0 0
-0.1447 -0.0736 -0.5635 0.941 0.338 -0.007 7 7 7 0 0
-0.0267 -0.1050 -0.6655 0.987 -0.003 0.161 127 102 62 0 0
-0.0271 -0.1055 -0.6719 0.890 -0.318 0.326 149 128 86 0 0
-0.0265 -0.1057 -0.6736 0.890 -0.318 0.326 157 138 97 0 0
-0.0270 -0.1064 -0.6841 0.950 -0.149 0.274 167 148 108 0 0
-0.0261 -0.1069 -0.6876 0.955 -0.188 0.230 163 144 101 0 0
-0.0257 -0.1071 -0.6894 0.975 -0.144 0.172 165 146 104 0 0
-0.0255 -0.1073 -0.6914 0.970 -0.186 0.159 141 122 80 0 0
-0.0262 -0.1073 -0.6939 0.965 -0.258 0.041 157 137 95 0 0
-0.0276 -0.1080 -0.7072 0.807 -0.480 0.344 143 120 77 0 0
-0.0257 -0.1095 -0.7206 0.891 -0.307 0.335 168 151 105 0 0
-0.0289 -0.1127 -0.7718 0.913 -0.287 0.291 164 143 98 0 0
-0.0284 -0.1130 -0.7736 0.913 -0.287 0.291 170 149 104 0 0
-0.0297 -0.1140 -0.7898 0.894 -0.434 0.109 156 133 90 0 0
-0.0285 -0.1150 -0.7999 0.956 -0.284 0.078 158 140 92 0 0
-0.0298 -0.1149 -0.8031 0.916 -0.181 0.359 165 147 99 0 0
-0.0295 -0.1152 -0.8051 0.944 -0.236 0.231 168 150 102 0 0
-0.0391 -0.1170 -0.8551 0.926 -0.321 -0.200 35 30 17 0 0
-0.0007 -0.0743 -0.1756 0.877 -0.191 0.441 96 81 50 0 0
0.0020 -0.0783 -0.2197 0.863 -0.158 0.480 33 24 15 0 0
0.0034 -0.0786 -0.2209 0.903 -0.345 0.255 33 23 14 0 0
0.0053 -0.0796 -0.2279 0.943 -0.023 0.333 38 24 15 0 0
0.0031 -0.0801 -0.2402 0.826 -0.508 0.243 46 30 17 0 0
0.0042 -0.0817 -0.2593 0.866 -0.406 0.292 65 42 26 0 0
0.0042 -0.0820 -0.2623 0.825 -0.536 0.178 63 40 24 0 0
-0.1005 -0.0699 -0.3758 0.629 -0.609 0.483 107 100 90 0 0
-0.0867 -0.0739 -0.3925 0.967 -0.179 0.181 24 23 18 0 0
-0.0860 -0.0749 -0.4029 0.898 -0.376 0.229 23 18 15 0 0
-0.0847 -0.0754 -0.4060 0.886 -0.235 0.399 36 28 20 0 0
-0.0849 -0.0764 -0.4203 0.882 -0.450 0.137 74 59 37 0 0
-0.0871 -0.0777 -0.4428 0.919 -0.380 0.107 74 63 39 0 0
-0.0894 -0.0786 -0.4602 0.998 -0.064 0.022 40 35 27 0 0
-0.0892 -0.0788 -0.4620 0.951 -0.200 0.234 36 31 22 0 0
-0.0889 -0.0790 -0.4637 0.951 -0.200 0.234 41 34 24 0 0
-0.0885 -0.0792 -0.4654 0.951 -0.200 0.234 49 39 30 0 0
-0.0881 -0.0794 -0.4671 0.983 -0.076 0.167 46 35 25 0 0
-0.0918 -0.0801 -0.4854 0.815 -0.312 0.489 66 53 34 0 0
-0.0912 -0.0803 -0.4870 0.846 -0.339 0.411 66 53 34 0 0
-0.0913 -0.0804 -0.4890 0.908 -0.337 0.251 66 54 36 0 0
-0.0931 -0.0809 -0.4992 0.795 -0.607 0.006 48 39 27 0 0
-0.0930 -0.0810 -0.5010 0.705 -0.704 0.084 42 35 25 0 0
-0.0937 -0.0810 -0.5032 0.689 -0.697 0.198 39 34 23 0 0
-0.0933 -0.0813 -0.5049 0.727 -0.651 0.217 44 37 27 0 0
-0.1441 -0.0756 -0.5629 0.970 0.242 -0.024 8 8 8 0 0
-0.1483 -0.0751 -0.5669 0.851 0.223 0.475 5 5 5 0 0
-0.1474 -0.0754 -0.5685 0.845 0.257 0.469 4 4 4 0 0
-0.0332 -0.1015 -0.6130 0.859 0.511 -0.002 89 76 58 0 0
-0.0329 -0.1019 -0.6168 0.910 0.411 0.048 77 69 47 0 0
-0.0320 -0.1022 -0.6183 0.845 0.526 0.097 71 61 39 0 0
-0.0256 -0.1050 -0.6384 0.975 -0.018 0.219 78 66 48 0 0
-0.0265 -0.1076 -0.6752 0.970 -0.218 0.109 164 145 102 0 0
-0.0267 -0.1086 -0.6876 0.978 -0.091 0.187 151 132 90 0 0
-0.0279 -0.1098 -0.7070 0.908 -0.395 0.140 164 143 97 0 0
-0.0275 -0.1100 -0.7088 0.933 -0.347 0.095 171 152 106 0 0
-0.0271 -0.1135 -0.7530 0.904 -0.413 0.106 169 150 102 0 0
-0.0302 -0.1167 -0.8030 0.916 -0.181 0.359 163 145 97 0 0
-0.0295 -0.1172 -0.8069 0.944 -0.236 0.231 164 146 98 0 0
-0.0365 -0.1190 -0.8481 0.934 -0.206 -0.292 117 104 72 0 0
-0.0019 -0.0757 -0.1770 0.874 -0.425 0.236 55 36 20 0 0
-0.0023 -0.0762 -0.1842 0.965 -0.170 0.199 32 25 17 0 0
-0.0042 -0.0774 -0.2047 0.653 -0.632 0.417 29 20 13 0 0
-0.0036 -0.0776 -0.2061 0.653 -0.632 0.417 30 21 13 0 0
-0.0003 -0.0790 -0.2157 0.946 -0.029 0.322 33 24 16 0 0
0.0004 -0.0792 -0.2170 0.936 0.072 0.345 32 23 15 0 0
0.0010 -0.0795 -0.2183 0.862 -0.137 0.488 31 22 14 0 0
0.0024 -0.0798 -0.2195 0.867 -0.393 0.305 34 25 15 0 0
0.0028 -0.0800 -0.2209 0.867 -0.393 0.305 37 27 17 0 0
0.0032 -0.0802 -0.2223 0.867 -0.393 0.305 36 26 16 0 0
0.0036 -0.0804 -0.2237 0.867 -0.393 0.305 37 27 17 0 0
0.0040 -0.0806 -0.2251 0.798 -0.527 0.293 43 33 22 0 0
0.0036 -0.0826 -0.2518 0.920 -0.276 0.279 70 51 36 0 0
0.0032 -0.0827 -0.2549 0.968 -0.198 0.156 58 39 24 0 0
0.0018 -0.0829 -0.2612 0.831 -0.526 0.181 61 38 22 0 0
0.0018 -0.0839 -0.2734 0.876 -0.248 0.413 74 50 27 0 0
-0.1014 -0.0715 -0.3759 0.434 -0.455 0.777 117 108 98 0 0
-0.0852 -0.0770 -0.4059 0.886 -0.235 0.399 28 22 17 0 0
-0.0878 -0.0793 -0.4428 0.878 -0.448 0.170 80 69 47 0 0
-0.0878 -0.0795 -0.4447 0.846 -0.532 0.020 82 70 51 0 0
-0.0877 -0.0796 -0.4465 0.862 -0.499 0.093 74 63 46 0 0
-0.0890 -0.0806 -0.4617 0.994 -0.020 0.104 44 34 25 0 0
-0.0888 -0.0807 -0.4634 0.977 -0.186 0.108 59 50 38 0 0
-0.1063 -0.0818 -0.5218 0.738 -0.587 -0.334 22 18 17 0 0
-0.1459 -0.0770 -0.5614 0.374 -0.691 0.619 10 9 8 0 0
-0.0575 -0.0971 -0.5942 0.364 0.929 0.068 67 59 47 0 0
-0.0306 -0.1041 -0.6172 0.823 0.564 0.062 67 55 35 0 0
-0.0272 -0.1103 -0.6875 0.958 -0.139 0.252 149 130 88 0 0
-0.0267 -0.1105 -0.6893 0.958 -0.139 0.252 159 140 101 0 0
-0.0267 -0.1107 -0.6914 0.899 -0.086 0.430 147 128 86 0 0
-0.0272 -0.1143 -0.7398 0.992 -0.112 0.052 177 161 112 0 0
-0.0030 -0.0770 -0.1771 0.608 -0.636 0.476 62 44 28 0 0
-0.0033 -0.0785 -0.1972 0.855 -0.427 0.295 31 24 15 0 0
0.0022 -0.0811 -0.2165 0.751 -0.544 0.373 31 22 15 0 0
0.0034 -0.0821 -0.2265 0.840 -0.542 0.030 40 29 17 0 0
0.0015 -0.0827 -0.2387 0.883 -0.448 0.141 44 28 18 0 0
0.0028 -0.0841 -0.2533 0.932 -0.196 0.304 62 42 28 0 0
0.0001 -0.0845 -0.2660 0.951 0.121 0.283 66 43 25 0 0
0.0010 -0.0852 -0.2719 0.914 0.077 0.399 77 51 30 0 0
0.0012 -0.0853 -0.2733 0.942 -0.242 0.232 78 54 30 0 0
-0.1052 -0.0724 -0.3751 0.421 -0.549 0.722 116 108 98 0 0
-0.1030 -0.0729 -0.3761 0.385 -0.231 0.894 120 111 101 0 0
-0.0897 -0.0761 -0.3842 0.835 -0.344 0.430 42 39 32 0 0
-0.0891 -0.0764 -0.3858 0.969 -0.166 0.183 36 31 25 0 0
-0.0872 -0.0771 -0.3905 0.931 -0.094 0.352 28 23 19 0 0
-0.0866 -0.0774 -0.3920 0.868 0.002 0.496 28 24 20 0 0
-0.0876 -0.0779 -0.4012 0.866 -0.449 0.220 23 19 16 0 0
-0.0861 -0.0795 -0.4185 0.920 -0.336 0.201 71 56 36 0 0
-0.0860 -0.0797 -0.4202 0.907 -0.420 0.017 73 58 35 0 0
-0.0885 -0.0810 -0.4429 0.891 -0.449 0.062 87 76 54 0 0
-0.0976 -0.0828 -0.4891 0.803 -0.572 -0.167 51 41 32 0 0
-0.0947 -0.0852 -0.5126 0.514 -0.857 -0.020 34 30 23 0 0
-0.0323 -0.1046 -0.6040 0.819 0.572 0.035 78 64 42 0 0
-0.0255 -0.1074 -0.6238 0.967 0.073 0.246 66 52 39 0 0
-0.0256 -0.1085 -0.6377 0.981 0.025 0.193 99 83 59 0 0
-0.0266 -0.1118 -0.6827 0.991 -0.030 0.128 141 121 80 0 0
-0.0289 -0.1147 -0.7257 0.925 -0.186 0.330 149 131 84 0 0
-0.0286 -0.1149 -0.7276 0.908 -0.271 0.319 165 144 98 0 0
-0.0282 -0.1153 -0.7316 0.958 -0.281 0.050 176 156 110 0 0
-0.0276 -0.1157 -0.7354 0.987 -0.145 0.072 184 167 120 0 0
-0.0268 -0.1164 -0.7412 0.989 -0.085 0.124 176 158 110 0 0
-0.0310 -0.1173 -0.7634 0.844 -0.535 -0.050 155 138 97 0 0
-0.0315 -0.1175 -0.7680 0.882 -0.465 0.073 150 132 93 0 0
-0.0359 -0.1228 -0.8467 0.983 -0.123 -0.139 133 117 81 0 0
-0.0202 -0.0746 -0.1709 0.197 -0.459 0.866 177 177 179 0 0
-0.0028 -0.0796 -0.1912 0.942 -0.307 0.134 29 22 14 0 0
-0.0013 -0.0800 -0.1924 0.854 -0.340 0.395 27 20 13 0 0
-0.0003 -0.0803 -0.1937 0.803 -0.380 0.458 28 21 14 0 0
0.0018 -0.0843 -0.2400 0.991 -0.094 0.099 43 26 17 0 0
0.0019 -0.0845 -0.2415 0.966 -0.163 0.198 42 25 15 0 0
0.0020 -0.0853 -0.2519 0.932 -0.196 0.304 61 42 28 0 0
0.0023 -0.0855 -0.2533 0.942 -0.177 0.284 60 41 26 0 0
0.0027 -0.0857 -0.2547 0.942 -0.177 0.284 58 39 24 0 0
0.0015 -0.0859 -0.2610 0.868 -0.388 0.311 62 40 23 0 0
-0.0002 -0.0860 -0.2659 0.826 -0.084 0.557 67 44 26 0 0
0.0017 -0.0869 -0.2731 0.979 -0.199 -0.052 81 56 32 0 0
-0.0003 -0.0889 -0.3028 0.947 -0.319 -0.036 115 102 70 0 0
-0.0003 -0.0892 -0.3075 0.975 -0.210 0.075 68 46 24 0 0
-0.1060 -0.0740 -0.3751 0.385 -0.231 0.894 117 109 98 0 0
-0.0906 -0.0774 -0.3808 0.814 -0.226 0.535 56 49 43 0 0
-0.0904 -0.0779 -0.3860 0.911 -0.161 0.380 30 25 22 0 0
-0.0871 -0.0811 -0.4186 0.728 -0.583 0.360 75 60 40 0 0
-0.0884 -0.0824 -0.4389 0.943 -0.331 0.044 80 69 49 0 0
-0.0888 -0.0838 -0.4574 0.934 -0.356 0.021 61 51 34 0 0
-0.0989 -0.0843 -0.4894 0.653 -0.680 0.333 48 39 32 0 0
-0.0958 -0.0861 -0.5033 0.886 -0.451 0.111 40 32 22 0 0
-0.0959 -0.0868 -0.5129 0.726 -0.679 0.108 36 32 23 0 0
-0.0962 -0.0869 -0.5149 0.797 -0.544 -0.263 29 26 20 0 0
-0.1306 -0.0826 -0.5458 0.563 -0.811 0.159 15 14 10 0 0
-0.1302 -0.0828 -0.5476 0.644 -0.765 -0.008 14 13 11 0 0
-0.0273 -0.1082 -0.6146 0.969 0.005 0.246 61 51 33 0 0
-0.0268 -0.1084 -0.6163 0.969 0.005 0.246 73 66 47 0 0
-0.0254 -0.1092 -0.6234 0.950 0.043 0.309 103 89 69 0 0
-0.0252 -0.1095 -0.6272 0.996 -0.076 0.053 116 98 65 0 0
-0.0254 -0.1098 -0.6313 0.988 -0.151 -0.041 127 107 72 0 0
-0.0264 -0.1111 -0.6498 0.994 -0.029 0.104 128 110 75 0 0
-0.0264 -0.1112 -0.6518 0.995 -0.102 0.005 153 135 96 0 0
-0.0267 -0.1114 -0.6540 0.997 -0.013 -0.078 152 132 95 0 0
-0.0270 -0.1136 -0.6826 0.960 -0.230 0.157 124 101 61 0 0
-0.0306 -0.1143 -0.7013 0.881 -0.194 0.430 165 146 103 0 0
-0.0289 -0.1165 -0.7253 0.924 -0.231 0.305 148 130 84 0 0
-0.0319 -0.1190 -0.7636 0.761 -0.649 0.012 160 143 103 0 0
-0.0329 -0.1190 -0.7665 0.739 -0.652 0.173 146 129 93 0 0
-0.0343 -0.1238 -0.8315 0.918 -0.397 0.016 171 155 106 0 0
-0.0360 -0.1247 -0.8463 0.991 -0.073 -0.115 150 132 90 0 0
-0.0364 -0.1248 -0.8489 0.983 -0.123 -0.139 126 111 77 0 0
-0.0398 -0.1245 -0.8538 0.932 -0.107 -0.346 84 76 53 0 0
-0.0041 -0.0802 -0.1827 0.763 -0.494 0.418 34 25 15 0 0
-0.0040 -0.0803 -0.1841 0.822 -0.528 0.214 31 23 15 0 0
-0.0024 -0.0810 -0.1882 0.986 -0.164 0.029 28 22 13 0 0
0.0001 -0.0849 -0.2313 0.859 -0.472 0.197 39 25 16 0 0
0.0013 -0.0858 -0.2399 0.999 0.016 0.048 42 26 17 0 0
0.0016 -0.0866 -0.2503 0.971 -0.222 0.092 50 32 18 0 0
0.0009 -0.0874 -0.2610 0.853 -0.377 0.362 56 36 20 0 0
0.0018 -0.0884 -0.2714 0.987 0.023 0.162 72 48 26 0 0
0.0026 -0.0886 -0.2727 0.849 -0.523 0.078 81 59 35 0 0
-0.0017 -0.0897 -0.2968 0.973 -0.229 -0.008 133 117 85 0 0
-0.1069 -0.0755 -0.3752 0.398 -0.067 0.915 119 112 100 0 0
-0.0894 -0.0795 -0.3820 0.939 -0.143 0.311 45 41 36 0 0
-0.0906 -0.0796 -0.3859 0.807 -0.267 0.527 34 29 26 0 0
-0.0887 -0.0803 -0.3905 0.944 -0.217 0.248 33 28 23 0 0
-0.0881 -0.0817 -0.4062 0.850 -0.493 0.187 47 38 30 0 0
-0.0881 -0.0835 -0.4296 0.919 -0.386 0.076 81 68 49 0 0
-0.0963 -0.0879 -0.5051 0.870 -0.078 0.488 42 36 24 0 0
-0.0955 -0.0882 -0.5067 0.870 -0.078 0.488 45 39 27 0 0
-0.0984 -0.0885 -0.5175 0.744 -0.628 -0.229 24 21 17 0 0
-0.0993 -0.0885 -0.5198 0.927 -0.365 -0.090 18 16 13 0 0
-0.1330 -0.0841 -0.5466 0.587 -0.805 0.088 18 17 13 0 0
-0.1321 -0.0844 -0.5482 0.644 -0.765 -0.008 17 16 14 0 0
-0.1348 -0.0844 -0.5554 0.755 -0.385 -0.531 7 6 5 0 0
-0.0516 -0.1025 -0.5804 0.368 0.831 0.416 68 60 47 0 0
-0.0261 -0.1101 -0.6136 0.990 0.020 0.143 92 81 64 0 0
-0.0259 -0.1103 -0.6154 0.990 0.020 0.143 95 87 67 0 0
-0.0251 -0.1110 -0.6229 0.949 -0.231 0.214 121 103 72 0 0
-0.0247 -0.1114 -0.6266 0.955 -0.297 -0.004 136 113 79 0 0
-0.0245 -0.1116 -0.6284 0.916 -0.400 0.002 129 107 69 0 0
-0.0251 -0.1118 -0.6328 0.976 -0.216 0.032 131 108 71 0 0
-0.0273 -0.1126 -0.6480 0.987 -0.066 0.144 119 100 66 0 0
-0.0272 -0.1127 -0.6499 0.943 -0.065 0.328 136 118 81 0 0
-0.0266 -0.1130 -0.6516 0.995 -0.102 0.005 153 135 93 0 0
-0.0276 -0.1152 -0.6826 0.965 -0.174 0.195 141 120 79 0 0
-0.0294 -0.1183 -0.7252 0.924 -0.231 0.305 161 143 95 0 0
-0.0293 -0.1190 -0.7336 0.938 -0.249 0.242 179 161 111 0 0
-0.0289 -0.1192 -0.7355 0.938 -0.249 0.242 164 146 96 0 0
-0.0286 -0.1194 -0.7374 0.951 -0.281 0.129 164 144 95 0 0
-0.0328 -0.1233 -0.7965 0.946 -0.270 0.178 168 149 103 0 0
-0.0175 -0.0785 -0.1746 0.325 -0.156 0.933 158 154 143 0 0
-0.0141 -0.0792 -0.1756 0.479 -0.354 0.803 133 126 111 0 0
-0.0125 -0.0796 -0.1767 0.479 -0.354 0.803 149 141 123 0 0
-0.0011 -0.0862 -0.2314 0.798 -0.489 0.351 36 23 14 0 0
0.0000 -0.0867 -0.2356 0.941 -0.239 0.238 45 31 22 0 0
0.0006 -0.0876 -0.2459 0.956 -0.282 0.085 48 32 20 0 0
0.0005 -0.0877 -0.2474 0.891 -0.395 0.222 48 32 19 0 0
-0.0002 -0.0890 -0.2656 0.891 -0.157 0.426 66 44 23 0 0
0.0018 -0.0900 -0.2727 0.863 -0.475 0.174 81 61 36 0 0
0.0016 -0.0901 -0.2743 0.955 -0.290 0.070 76 55 31 0 0
-0.0022 -0.0912 -0.2968 0.925 -0.049 0.376 143 130 93 0 0
-0.0019 -0.0913 -0.2983 0.975 -0.082 0.207 111 94 67 0 0
-0.0003 -0.0918 -0.3009 0.901 0.010 0.434 65 44 21 0 0
-0.1132 -0.0759 -0.3734 0.192 -0.204 0.960 122 116 104 0 0
-0.1105 -0.0765 -0.3743 0.340 -0.173 0.924 124 118 106 0 0
-0.0892 -0.0814 -0.3834 0.929 -0.210 0.305 41 38 34 0 0
-0.0912 -0.0812 -0.3858 0.807 -0.267 0.527 36 32 28 0 0
-0.0902 -0.0815 -0.3873 0.829 -0.268 0.491 33 28 25 0 0
-0.0897 -0.0848 -0.4281 0.968 -0.234 0.095 78 66 43 0 0
-0.0234 -0.1111 -0.5982 0.989 0.131 -0.071 74 61 41 0 0
-0.0235 -0.1113 -0.6002 0.989 0.131 -0.071 74 63 42 0 0
-0.0251 -0.1127 -0.6225 0.915 -0.353 0.193 145 121 82 0 0
-0.0253 -0.1130 -0.6266 0.955 -0.297 -0.004 129 106 70 0 0
-0.0274 -0.1156 -0.6638 0.991 -0.107 0.079 171 152 110 0 0
-0.0287 -0.1169 -0.6829 0.891 -0.386 0.238 147 128 85 0 0
-0.0295 -0.1174 -0.6916 0.882 -0.287 0.374 169 151 105 0 0
-0.0273 -0.1179 -0.6923 0.950 0.100 0.297 175 158 112 0 0
-0.0289 -0.1190 -0.7099 0.968 -0.171 0.186 168 149 103 0 0
-0.0297 -0.1204 -0.7293 0.911 -0.388 0.140 176 158 110 0 0
-0.0435 -0.1219 -0.7817 0.331 -0.941 0.070 128 112 80 0 0
-0.0435 -0.1221 -0.7839 0.331 -0.941 0.070 138 124 91 0 0
-0.0343 -0.1272 -0.8260 0.901 -0.368 0.230 166 148 100 0 0
-0.0351 -0.1276 -0.8334 0.993 -0.099 -0.059 169 151 104 0 0
-0.0438 -0.1285 -0.8651 0.964 -0.169 0.203 34 30 21 0 0
-0.0141 -0.0807 -0.1754 0.562 -0.346 0.751 152 149 139 0 0
-0.0014 -0.0864 -0.2166 0.973 -0.135 -0.187 173 173 171 0 0
-0.0031 -0.0874 -0.2332 0.786 -0.003 0.618 34 23 13 0 0
-0.0013 -0.0880 -0.2357 0.892 -0.023 0.451 43 29 21 0 0
