ply
format ascii 1.0
element vertex 829
property float x
property float y
property float z
property float nx
property float ny
property float nz
property uchar diffuse_red
property uchar diffuse_green
property uchar diffuse_blue
property uchar class
property uchar detection
end_header
-0.1068 -0.0995 -0.5146 0.530 -0.848 0.015 104 101 96 0 0
-0.0923 -0.0667 -0.5974 0.077 -0.354 0.932 67 63 60 0 0
-0.0935 -0.0685 -0.5980 0.077 -0.354 0.932 63 59 56 0 0
-0.1016 -0.0823 -0.5961 -0.558 -0.555 -0.617 77 74 71 0 0
-0.1065 -0.0909 -0.5922 0.406 -0.814 0.416 74 70 67 0 0
-0.1116 -0.0911 -0.6703 -0.473 -0.857 -0.206 15 13 9 0 0
-0.1065 -0.0808 -0.6879 -0.654 -0.675 -0.341 5 3 4 0 0
-0.1062 -0.0800 -0.6905 -0.695 -0.658 -0.290 5 3 4 0 0
-0.1131 -0.0904 -0.7017 -0.286 -0.566 0.773 9 9 7 0 0
-0.1141 -0.0920 -0.7024 -0.542 -0.585 0.603 11 10 8 0 0
-0.1203 -0.1020 -0.7061 -0.043 -0.505 0.862 31 26 23 0 0
-0.1212 -0.1033 -0.7069 -0.043 -0.505 0.862 37 33 30 0 0
-0.1318 -0.1206 -0.7099 0.050 -0.681 0.730 109 95 75 0 0
-0.1375 -0.1299 -0.7136 -0.262 -0.679 0.686 191 176 134 0 0
-0.1388 -0.1319 -0.7158 -0.700 -0.654 0.285 135 121 84 0 0
-0.1392 -0.1322 -0.7174 -0.595 -0.729 0.338 94 81 50 0 0
-0.1401 -0.1324 -0.7308 -0.278 -0.937 -0.213 112 93 58 0 0
-0.1290 -0.1091 -0.7755 -0.391 -0.918 -0.063 72 58 37 0 0
-0.1300 -0.1103 -0.7806 -0.439 -0.737 0.514 62 50 29 0 0
-0.1395 -0.1241 -0.8003 -0.463 -0.625 0.629 113 95 69 0 0
-0.1399 -0.1246 -0.8019 -0.493 -0.730 0.474 79 65 41 0 0
-0.1404 -0.1252 -0.8033 -0.493 -0.730 0.474 64 51 26 0 0
-0.1408 -0.1257 -0.8049 -0.505 -0.780 0.371 86 71 40 0 0
-0.1412 -0.1263 -0.8064 -0.538 -0.790 0.294 129 107 73 0 0
-0.1423 -0.1280 -0.8068 -0.169 -0.783 0.599 119 101 75 0 0
-0.1419 -0.1268 -0.8121 -0.660 -0.727 0.191 77 65 41 0 0
-0.1480 -0.1355 -0.8262 -0.399 -0.848 0.347 114 101 65 0 0
-0.1495 -0.1378 -0.8281 -0.546 -0.602 0.582 116 103 68 0 0
-0.1513 -0.1404 -0.8316 -0.558 -0.682 0.472 119 106 77 0 0
-0.1513 -0.1400 -0.8362 -0.549 -0.835 -0.027 108 94 62 0 0
-0.1568 -0.1464 -0.8631 -0.305 -0.933 0.193 83 78 68 0 0
-0.1654 -0.1600 -0.8695 -0.004 -0.072 0.997 190 189 187 0 0
-0.0418 -0.0199 -0.2121 -0.699 -0.643 0.313 170 147 110 0 0
-0.0443 -0.0209 -0.2427 -0.821 -0.550 0.154 22 15 6 0 0
-0.0441 -0.0202 -0.2459 -0.662 -0.748 0.030 86 84 80 0 0
-0.0439 -0.0197 -0.2475 -0.526 -0.783 -0.331 155 154 150 0 0
-0.0439 -0.0195 -0.2491 -0.380 -0.835 -0.398 158 158 152 0 0
-0.0439 -0.0194 -0.2506 -0.368 -0.904 -0.218 117 115 108 0 0
-0.0658 -0.0506 -0.3019 -0.155 -0.518 0.841 71 63 60 0 0
-0.0772 -0.0642 -0.3539 -0.085 -0.995 -0.049 34 30 26 0 0
-0.0779 -0.0646 -0.3599 -0.178 -0.982 0.058 31 28 23 0 0
-0.0781 -0.0647 -0.3614 -0.246 -0.968 0.053 23 21 17 0 0
-0.0780 -0.0642 -0.3648 -0.505 -0.846 -0.174 39 35 29 0 0
-0.0777 -0.0636 -0.3666 -0.682 -0.729 -0.057 40 38 31 0 0
-0.0741 -0.0562 -0.3791 -0.055 -0.810 -0.584 56 52 48 0 0
-0.1024 -0.0999 -0.4138 -0.540 -0.841 0.020 92 81 59 0 0
-0.1046 -0.1004 -0.4439 -0.152 -0.985 0.081 86 74 51 0 0
-0.1049 -0.1008 -0.4454 -0.413 -0.911 0.001 92 79 58 0 0
-0.1053 -0.1011 -0.4484 -0.482 -0.870 -0.101 101 90 71 0 0
-0.1054 -0.1011 -0.4501 -0.434 -0.896 -0.092 104 97 79 0 0
-0.1071 -0.1034 -0.4554 -0.507 -0.853 -0.121 106 102 94 0 0
-0.1079 -0.0986 -0.5129 0.639 -0.688 0.344 100 97 89 0 0
-0.1115 -0.1035 -0.5236 0.513 -0.858 -0.011 113 110 105 0 0
-0.1119 -0.1037 -0.5269 0.249 -0.846 0.472 110 106 103 0 0
-0.1122 -0.1040 -0.5284 0.288 -0.791 0.539 112 109 106 0 0
-0.1132 -0.1057 -0.5292 0.206 -0.693 0.691 103 101 96 0 0
-0.1138 -0.1066 -0.5303 0.124 -0.790 0.601 89 85 78 0 0
-0.1132 -0.1053 -0.5328 0.376 -0.926 0.022 64 58 48 0 0
-0.1079 -0.0901 -0.5921 0.251 -0.676 0.693 74 70 67 0 0
-0.1080 -0.0800 -0.6877 -0.832 -0.535 -0.149 5 3 4 0 0
-0.1212 -0.1003 -0.7047 0.142 -0.706 0.694 24 20 19 0 0
-0.1218 -0.1013 -0.7058 0.135 -0.875 0.465 30 26 23 0 0
-0.1398 -0.1305 -0.7142 -0.021 -0.868 0.496 193 172 128 0 0
-0.1401 -0.1309 -0.7158 -0.115 -0.975 0.192 173 157 118 0 0
-0.1417 -0.1320 -0.7303 -0.148 -0.961 -0.235 129 110 74 0 0
-0.1294 -0.1064 -0.7771 -0.030 -0.532 0.846 86 71 49 0 0
-0.1314 -0.1094 -0.7805 -0.439 -0.737 0.514 63 51 29 0 0
-0.1320 -0.1102 -0.7818 -0.527 -0.813 0.250 73 61 36 0 0
-0.1407 -0.1228 -0.8006 -0.525 -0.681 0.510 116 100 69 0 0
-0.1413 -0.1236 -0.8018 -0.493 -0.730 0.474 88 75 49 0 0
-0.1418 -0.1243 -0.8033 -0.447 -0.772 0.452 66 53 28 0 0
-0.1422 -0.1249 -0.8048 -0.447 -0.772 0.452 77 62 34 0 0
-0.1427 -0.1256 -0.8061 -0.425 -0.851 0.308 132 112 81 0 0
-0.1434 -0.1263 -0.8095 -0.516 -0.806 0.290 81 68 45 0 0
-0.1468 -0.1309 -0.8195 -0.515 -0.663 0.543 94 81 50 0 0
-0.1509 -0.1369 -0.8280 -0.427 -0.772 0.471 111 98 65 0 0
-0.1562 -0.1432 -0.8528 -0.331 -0.801 0.499 119 107 69 0 0
-0.1590 -0.1467 -0.8639 -0.220 -0.660 0.718 106 102 92 0 0
-0.1666 -0.1588 -0.8698 0.151 -0.617 0.773 189 188 186 0 0
-0.0439 -0.0200 -0.2177 -0.721 -0.319 0.615 95 79 49 0 0
-0.0445 -0.0208 -0.2189 -0.733 -0.327 0.596 86 70 45 0 0
-0.0452 -0.0218 -0.2202 -0.808 -0.390 0.441 71 55 34 0 0
-0.0454 -0.0197 -0.2428 -0.693 -0.634 0.342 24 18 9 0 0
-0.0453 -0.0194 -0.2443 -0.494 -0.809 0.319 59 54 50 0 0
-0.0453 -0.0192 -0.2459 0.004 -0.961 0.275 154 150 145 0 0
-0.0669 -0.0496 -0.3003 -0.309 -0.474 0.825 64 61 57 0 0
-0.0785 -0.0632 -0.3554 -0.169 -0.907 0.385 47 40 35 0 0
-0.0789 -0.0637 -0.3568 -0.307 -0.903 0.302 38 33 27 0 0
-0.0796 -0.0644 -0.3612 -0.209 -0.971 -0.113 14 11 7 0 0
-0.0792 -0.0626 -0.3713 -0.654 -0.493 -0.574 37 34 29 0 0
-0.0783 -0.0609 -0.3736 -0.619 -0.482 -0.620 64 62 57 0 0
-0.0781 -0.0602 -0.3754 -0.753 -0.658 -0.026 51 48 43 0 0
-0.0780 -0.0599 -0.3772 -0.591 -0.715 -0.374 52 48 44 0 0
-0.1037 -0.1016 -0.3923 0.545 -0.790 0.281 111 103 85 0 0
-0.1035 -0.0976 -0.4256 -0.342 -0.931 0.129 75 62 36 0 0
-0.1042 -0.0981 -0.4318 -0.049 -0.999 0.020 87 73 48 0 0
-0.1144 -0.1053 -0.5237 0.529 -0.849 0.002 104 101 94 0 0
-0.1140 -0.1044 -0.5259 0.554 -0.813 0.182 102 99 93 0 0
-0.1144 -0.1049 -0.5273 0.529 -0.831 0.173 109 106 101 0 0
-0.1155 -0.1062 -0.5317 0.443 -0.897 -0.015 118 114 107 0 0
-0.1093 -0.0894 -0.5919 -0.924 -0.382 -0.018 74 70 67 0 0
-0.1230 -0.1002 -0.7039 -0.033 -0.888 0.458 25 21 19 0 0
-0.1235 -0.1009 -0.7054 -0.024 -0.936 0.350 29 25 22 0 0
-0.1239 -0.1014 -0.7069 -0.024 -0.936 0.350 38 34 31 0 0
-0.1405 -0.1258 -0.7388 -0.260 -0.924 -0.280 115 96 64 0 0
-0.1353 -0.1123 -0.7830 -0.256 -0.909 0.328 71 59 38 0 0
-0.1361 -0.1135 -0.7839 -0.287 -0.848 0.445 61 48 29 0 0
-0.1361 -0.1133 -0.7861 -0.542 -0.783 0.305 58 45 25 0 0
-0.1420 -0.1218 -0.8007 -0.525 -0.681 0.510 97 83 52 0 0
-0.1476 -0.1290 -0.8204 -0.398 -0.886 0.240 89 76 45 0 0
-0.1482 -0.1299 -0.8216 -0.615 -0.778 0.131 88 74 45 0 0
-0.1525 -0.1364 -0.8275 -0.403 -0.849 0.343 99 85 54 0 0
-0.1539 -0.1383 -0.8318 -0.565 -0.679 0.468 95 83 53 0 0
-0.1542 -0.1381 -0.8383 -0.181 -0.983 0.008 105 95 60 0 0
-0.1596 -0.1445 -0.8630 -0.448 -0.893 0.054 73 68 56 0 0
-0.1604 -0.1457 -0.8639 -0.238 -0.708 0.665 99 95 84 0 0
-0.1683 -0.1585 -0.8691 0.151 -0.617 0.773 190 189 187 0 0
-0.0441 -0.0178 -0.2135 -0.617 -0.593 0.517 135 123 102 0 0
-0.0443 -0.0177 -0.2179 -0.846 -0.306 0.437 149 131 95 0 0
-0.0457 -0.0175 -0.2416 -0.174 -0.565 0.807 58 52 42 0 0
-0.0464 -0.0184 -0.2428 -0.018 -0.728 0.685 72 66 58 0 0
-0.0629 -0.0419 -0.2828 0.003 -0.945 0.327 36 31 26 0 0
-0.0631 -0.0421 -0.2842 -0.142 -0.811 0.568 120 112 102 0 0
-0.0637 -0.0429 -0.2855 -0.142 -0.811 0.568 158 150 138 0 0
-0.0643 -0.0438 -0.2868 -0.038 -0.951 0.308 106 96 85 0 0
-0.0681 -0.0489 -0.2987 -0.203 -0.702 0.682 17 14 13 0 0
-0.0688 -0.0499 -0.2999 -0.194 -0.739 0.645 63 59 56 0 0
-0.0819 -0.0644 -0.3686 -0.602 -0.793 0.090 33 28 22 0 0
-0.0833 -0.0653 -0.3825 0.317 -0.136 0.939 74 66 58 0 0
-0.1066 -0.0988 -0.4358 -0.115 -0.962 0.248 63 50 28 0 0
-0.1082 -0.0989 -0.4584 0.072 -0.911 -0.405 108 104 93 0 0
-0.1168 -0.1070 -0.5170 0.569 -0.822 0.028 102 97 85 0 0
-0.1094 -0.0862 -0.5934 -0.909 -0.211 0.359 73 69 66 0 0
-0.1122 -0.0912 -0.5918 0.417 -0.399 0.817 69 67 63 0 0
-0.1110 -0.0788 -0.6852 -0.932 -0.289 -0.220 8 6 7 0 0
-0.1109 -0.0784 -0.6874 -0.976 -0.218 -0.014 7 5 6 0 0
-0.1247 -0.0999 -0.7034 -0.033 -0.888 0.458 24 20 18 0 0
-0.1252 -0.1005 -0.7048 -0.087 -0.939 0.331 30 27 23 0 0
-0.1256 -0.1010 -0.7064 -0.087 -0.939 0.331 39 36 32 0 0
-0.1290 -0.1067 -0.7075 0.058 -0.221 0.974 48 43 37 0 0
-0.1436 -0.1300 -0.7187 -0.681 -0.573 0.457 104 91 57 0 0
-0.1440 -0.1306 -0.7202 -0.681 -0.573 0.457 101 87 55 0 0
-0.1449 -0.1309 -0.7316 -0.217 -0.933 -0.287 137 118 82 0 0
-0.1345 -0.1089 -0.7730 -0.085 -0.979 -0.188 86 73 47 0 0
-0.1430 -0.1206 -0.7968 -0.171 -0.842 0.512 91 77 47 0 0
-0.1453 -0.1237 -0.8041 -0.250 -0.846 0.471 96 80 50 0 0
-0.1459 -0.1244 -0.8054 -0.371 -0.855 0.363 93 78 50 0 0
-0.1463 -0.1249 -0.8070 -0.356 -0.853 0.382 93 75 52 0 0
-0.1491 -0.1284 -0.8179 -0.234 -0.840 0.490 88 74 41 0 0
-0.1539 -0.1356 -0.8274 -0.494 -0.818 0.295 97 84 52 0 0
-0.1551 -0.1371 -0.8321 -0.142 -0.849 0.510 84 72 41 0 0
-0.1557 -0.1376 -0.8357 0.024 -0.891 0.454 106 94 62 0 0
-0.1558 -0.1377 -0.8377 -0.121 -0.988 0.098 103 91 59 0 0
-0.1548 -0.1349 -0.8469 0.079 -0.736 0.673 142 129 81 0 0
-0.1610 -0.1438 -0.8607 -0.455 -0.854 0.252 74 69 56 0 0
-0.1616 -0.1445 -0.8641 -0.433 -0.629 0.645 94 90 80 0 0
-0.1692 -0.1575 -0.8629 -0.018 -0.968 0.249 184 184 182 0 0
-0.0454 -0.0169 -0.2149 -0.580 -0.703 0.411 155 147 131 0 0
-0.0457 -0.0173 -0.2163 -0.688 -0.587 0.426 139 125 98 0 0
-0.0449 -0.0157 -0.2181 -0.820 -0.258 0.510 131 115 81 0 0
-0.0617 -0.0380 -0.2732 -0.146 -0.937 0.317 31 26 20 0 0
-0.0624 -0.0391 -0.2743 -0.458 -0.840 0.289 19 14 12 0 0
-0.0635 -0.0405 -0.2784 -0.305 -0.923 0.236 17 12 11 0 0
-0.0678 -0.0462 -0.2917 -0.146 -0.935 0.322 26 18 16 0 0
-0.0681 -0.0466 -0.2931 -0.220 -0.927 0.303 24 18 15 0 0
-0.0831 -0.0635 -0.3686 -0.602 -0.793 0.090 36 29 23 0 0
-0.0839 -0.0635 -0.3812 0.375 -0.196 0.906 79 71 58 0 0
-0.1027 -0.0955 -0.3787 0.280 -0.317 0.906 108 99 88 0 0
-0.1039 -0.0975 -0.3794 0.338 -0.345 0.876 114 106 95 0 0
-0.1075 -0.1031 -0.3831 0.088 -0.994 0.064 106 97 83 0 0
-0.1076 -0.1028 -0.3878 0.098 -0.991 -0.091 102 94 71 0 0
-0.1088 -0.0995 -0.4349 -0.531 -0.807 0.258 75 60 38 0 0
-0.1090 -0.0999 -0.4364 -0.537 -0.813 0.226 60 45 24 0 0
-0.1091 -0.0998 -0.4380 -0.464 -0.848 0.256 82 67 46 0 0
-0.1088 -0.0823 -0.5917 -0.564 -0.624 0.540 71 68 64 0 0
-0.1123 -0.0882 -0.5914 -0.288 -0.592 0.753 71 68 64 0 0
-0.1235 -0.1066 -0.5950 0.351 -0.869 0.350 60 51 43 0 0
-0.1237 -0.1069 -0.5966 0.322 -0.869 0.377 63 53 43 0 0
-0.1269 -0.1078 -0.6379 -0.101 -0.970 -0.222 72 62 49 0 0
-0.1267 -0.1070 -0.6403 -0.159 -0.963 -0.216 55 46 35 0 0
-0.1265 -0.1065 -0.6425 -0.230 -0.917 -0.327 47 39 30 0 0
-0.1228 -0.0993 -0.6516 -0.543 -0.709 -0.450 28 23 20 0 0
-0.1222 -0.0979 -0.6546 -0.543 -0.709 -0.450 25 20 17 0 0
-0.1115 -0.0761 -0.6885 -0.991 -0.133 -0.014 7 5 6 0 0
-0.1149 -0.0801 -0.7029 -0.032 -0.861 0.508 8 7 5 0 0
-0.1171 -0.0839 -0.7039 -0.470 -0.769 0.433 10 9 7 0 0
-0.1272 -0.1007 -0.7059 -0.301 -0.925 0.231 34 31 26 0 0
-0.1454 -0.1285 -0.7328 -0.306 -0.888 -0.344 147 127 89 0 0
-0.1416 -0.1199 -0.7523 -0.397 -0.801 -0.448 112 96 63 0 0
-0.1374 -0.1110 -0.7682 -0.524 -0.727 -0.443 94 79 56 0 0
-0.1363 -0.1087 -0.7724 -0.229 -0.942 -0.244 91 79 53 0 0
-0.1426 -0.1172 -0.7909 -0.261 -0.913 0.313 98 83 55 0 0
-0.1629 -0.1433 -0.8644 -0.430 -0.858 0.280 87 83 73 0 0
-0.0467 -0.0160 -0.2163 -0.713 -0.583 0.389 172 165 156 0 0
-0.0637 -0.0382 -0.2743 -0.330 -0.882 0.336 29 24 20 0 0
-0.0651 -0.0401 -0.2797 -0.181 -0.822 0.540 14 10 7 0 0
-0.0696 -0.0463 -0.2929 -0.455 -0.857 0.243 25 20 17 0 0
-0.0779 -0.0570 -0.3227 -0.244 -0.955 0.172 58 51 44 0 0
-0.0840 -0.0620 -0.3688 -0.198 -0.974 0.108 36 29 23 0 0
-0.1104 -0.1053 -0.3817 0.118 -0.953 0.277 99 89 69 0 0
-0.1100 -0.0987 -0.4349 -0.531 -0.807 0.258 93 80 56 0 0
-0.1103 -0.0990 -0.4363 -0.537 -0.813 0.226 76 61 38 0 0
-0.1105 -0.0992 -0.4379 -0.488 -0.715 0.501 79 64 41 0 0
-0.1117 -0.0977 -0.4695 -0.020 -0.956 0.293 91 85 75 0 0
-0.1230 -0.1122 -0.5111 0.267 -0.963 0.035 94 83 66 0 0
-0.1231 -0.1121 -0.5128 0.240 -0.970 0.040 80 70 53 0 0
-0.1241 -0.1138 -0.5135 0.310 -0.946 -0.091 82 71 55 0 0
-0.1240 -0.1134 -0.5154 0.313 -0.930 -0.192 87 79 61 0 0
-0.1239 -0.1130 -0.5174 0.313 -0.930 -0.192 73 65 47 0 0
-0.1238 -0.1126 -0.5193 0.352 -0.919 -0.177 76 68 50 0 0
-0.1127 -0.0855 -0.5926 0.327 -0.771 0.547 67 64 59 0 0
-0.1165 -0.0923 -0.5898 0.417 -0.416 0.808 66 63 59 0 0
-0.1288 -0.1079 -0.6370 -0.171 -0.965 -0.197 71 63 50 0 0
-0.1284 -0.1069 -0.6396 -0.333 -0.928 -0.165 52 44 33 0 0
-0.1282 -0.1063 -0.6419 -0.270 -0.935 -0.228 47 39 31 0 0
-0.1240 -0.0981 -0.6518 -0.659 -0.610 -0.440 26 21 18 0 0
-0.1234 -0.0967 -0.6547 -0.688 -0.591 -0.421 26 21 18 0 0
-0.1187 -0.0836 -0.7014 -0.323 -0.838 0.440 10 9 7 0 0
-0.1188 -0.0834 -0.7034 -0.134 -0.865 0.483 11 10 8 0 0
-0.1288 -0.1001 -0.7055 -0.499 -0.851 0.165 33 30 25 0 0
-0.1457 -0.1277 -0.7153 -0.444 -0.794 0.415 186 169 120 0 0
-0.1461 -0.1282 -0.7168 -0.444 -0.794 0.415 164 147 107 0 0
-0.1464 -0.1285 -0.7184 -0.360 -0.664 0.656 121 106 78 0 0
-0.1460 -0.1256 -0.7385 -0.253 -0.868 -0.426 122 105 76 0 0
-0.1386 -0.1097 -0.7686 -0.811 -0.501 -0.302 95 80 57 0 0
-0.1374 -0.1072 -0.7728 -0.501 -0.842 -0.199 91 79 53 0 0
-0.1374 -0.1066 -0.7774 -0.339 -0.875 0.345 77 65 39 0 0
-0.1433 -0.1155 -0.7875 -0.198 -0.792 0.578 86 72 46 0 0
-0.1439 -0.1163 -0.7887 -0.198 -0.792 0.578 84 70 46 0 0
-0.1442 -0.1168 -0.7904 -0.203 -0.811 0.548 81 65 40 0 0
-0.1460 -0.1190 -0.7964 -0.318 -0.774 0.548 78 63 37 0 0
-0.1470 -0.1205 -0.7991 -0.426 -0.767 0.481 89 73 47 0 0
-0.1498 -0.1245 -0.8055 -0.505 -0.679 0.532 108 94 61 0 0
-0.1504 -0.1255 -0.8066 -0.346 -0.853 0.391 89 77 48 0 0
-0.1514 -0.1265 -0.8118 -0.498 -0.860 0.110 97 82 51 0 0
-0.1639 -0.1423 -0.8602 -0.388 -0.896 0.216 66 63 48 0 0
-0.1642 -0.1425 -0.8621 -0.318 -0.934 0.165 66 62 51 0 0
-0.1644 -0.1426 -0.8641 -0.357 -0.895 0.268 82 78 68 0 0
-0.1645 -0.1423 -0.8687 -0.401 -0.916 -0.027 142 140 136 0 0
-0.1697 -0.1518 -0.8627 -0.771 -0.531 0.351 172 171 169 0 0
-0.0623 -0.0346 -0.2601 -0.356 -0.632 0.688 12 11 8 0 0
-0.0668 -0.0398 -0.2810 -0.290 -0.763 0.578 16 13 9 0 0
-0.0814 -0.0589 -0.3309 -0.155 -0.940 0.305 44 36 26 0 0
-0.1154 -0.1022 -0.4584 -0.639 -0.641 0.426 72 61 40 0 0
-0.1143 -0.0993 -0.4681 0.385 -0.923 0.013 88 81 64 0 0
-0.1250 -0.1127 -0.5103 0.267 -0.963 0.035 72 60 46 0 0
-0.1251 -0.1126 -0.5120 0.359 -0.925 0.127 76 64 50 0 0
-0.1263 -0.1146 -0.5125 0.310 -0.946 -0.091 75 63 48 0 0
-0.1263 -0.1144 -0.5143 0.310 -0.946 -0.091 73 63 46 0 0
-0.1264 -0.1142 -0.5178 0.334 -0.938 -0.093 60 50 34 0 0
-0.1265 -0.1141 -0.5195 0.369 -0.920 -0.131 67 56 39 0 0
-0.1143 -0.0853 -0.5921 0.184 -0.751 0.634 64 61 54 0 0
-0.1181 -0.0919 -0.5894 0.410 -0.364 0.836 62 58 53 0 0
-0.1242 -0.1025 -0.5876 0.413 -0.817 0.403 49 41 35 0 0
-0.1304 -0.1079 -0.6327 -0.241 -0.957 -0.164 65 57 42 0 0
-0.1300 -0.1064 -0.6393 -0.333 -0.928 -0.165 44 36 26 0 0
-0.1187 -0.0832 -0.6756 0.252 -0.919 0.302 9 7 7 0 0
-0.1202 -0.0829 -0.7011 -0.323 -0.838 0.440 10 9 7 0 0
-0.1253 -0.0911 -0.7043 -0.421 -0.822 0.384 18 14 13 0 0
-0.1272 -0.0944 -0.7036 -0.674 -0.337 0.657 18 14 13 0 0
-0.1302 -0.0993 -0.7054 -0.595 -0.745 0.302 31 28 23 0 0
-0.1305 -0.0996 -0.7071 -0.494 -0.863 0.110 34 31 26 0 0
-0.1445 -0.1227 -0.7130 -0.580 -0.734 0.352 189 174 132 0 0
-0.1459 -0.1250 -0.7149 -0.277 -0.781 0.560 193 177 129 0 0
-0.1466 -0.1260 -0.7160 -0.257 -0.772 0.582 194 177 132 0 0
-0.1495 -0.1305 -0.7197 -0.373 -0.883 0.285 114 99 68 0 0
-0.1391 -0.1063 -0.7768 -0.515 -0.837 0.186 76 64 38 0 0
-0.1396 -0.1069 -0.7782 -0.362 -0.704 0.611 74 59 35 0 0
-0.1401 -0.1077 -0.7795 -0.263 -0.772 0.578 74 59 37 0 0
-0.1462 -0.1164 -0.7939 -0.610 -0.599 0.519 82 68 41 0 0
-0.1504 -0.1224 -0.8046 -0.646 -0.623 0.442 103 88 55 0 0
-0.1592 -0.1350 -0.8251 -0.591 -0.741 0.319 90 77 45 0 0
-0.1593 -0.1348 -0.8273 -0.298 -0.844 0.446 80 66 37 0 0
-0.1597 -0.1354 -0.8288 -0.258 -0.826 0.502 89 75 46 0 0
-0.1602 -0.1361 -0.8302 -0.415 -0.845 0.337 103 90 60 0 0
-0.1614 -0.1368 -0.8419 -0.286 -0.819 0.497 108 93 56 0 0
-0.1625 -0.1384 -0.8445 -0.307 -0.786 0.537 130 117 83 0 0
-0.1627 -0.1385 -0.8464 -0.427 -0.704 0.568 122 108 73 0 0
-0.1654 -0.1416 -0.8600 -0.419 -0.890 0.179 68 65 51 0 0
-0.1657 -0.1419 -0.8617 -0.318 -0.934 0.165 68 64 53 0 0
-0.1658 -0.1418 -0.8640 -0.328 -0.872 0.364 81 77 67 0 0
-0.0619 -0.0316 -0.2548 -0.160 -0.889 0.430 51 44 34 0 0
-0.0683 -0.0405 -0.2716 -0.091 -0.916 0.391 35 26 18 0 0
-0.0688 -0.0404 -0.2806 -0.014 -0.866 0.500 12 10 5 0 0
-0.0779 -0.0526 -0.3099 -0.229 -0.933 0.277 25 17 10 0 0
-0.0788 -0.0538 -0.3125 -0.280 -0.937 0.209 41 34 22 0 0
-0.0837 -0.0597 -0.3333 -0.545 -0.807 0.227 51 41 33 0 0
-0.0840 -0.0600 -0.3347 -0.507 -0.862 0.005 84 77 67 0 0
-0.0849 -0.0608 -0.3406 -0.316 -0.877 0.362 31 27 22 0 0
-0.0879 -0.0629 -0.3677 -0.128 -0.985 -0.119 32 26 20 0 0
-0.1045 -0.0902 -0.3767 0.195 -0.483 0.853 124 111 90 0 0
-0.1135 -0.1012 -0.4138 -0.316 -0.948 0.034 89 75 51 0 0
-0.1135 -0.0983 -0.4390 -0.478 -0.861 0.172 86 73 50 0 0
-0.1141 -0.0990 -0.4418 -0.192 -0.944 0.268 60 46 25 0 0
-0.1141 -0.0988 -0.4435 -0.510 -0.846 0.155 79 64 42 0 0
-0.1267 -0.1126 -0.5098 0.001 -0.989 0.151 71 60 45 0 0
-0.1269 -0.1128 -0.5113 0.001 -0.989 0.151 69 59 44 0 0
-0.1272 -0.1132 -0.5128 0.166 -0.961 0.219 62 49 35 0 0
-0.1229 -0.0972 -0.5870 0.416 -0.372 0.830 59 54 50 0 0
-0.1317 -0.1100 -0.6069 -0.132 -0.991 0.018 71 59 40 0 0
-0.1320 -0.1081 -0.6282 -0.138 -0.990 -0.037 83 74 57 0 0
-0.1322 -0.1081 -0.6300 -0.453 -0.854 -0.257 65 57 41 0 0
-0.1312 -0.1054 -0.6393 -0.475 -0.822 -0.314 36 29 19 0 0
-0.1243 -0.0910 -0.6614 -0.540 -0.669 -0.510 15 13 11 0 0
-0.1293 -0.0947 -0.7045 -0.407 -0.306 0.861 23 19 15 0 0
-0.1306 -0.0966 -0.7068 -0.424 -0.151 0.893 29 26 21 0 0
-0.1427 -0.1168 -0.7094 -0.555 -0.366 0.747 120 106 74 0 0
-0.1451 -0.1207 -0.7119 -0.494 -0.541 0.681 153 138 101 0 0
-0.1465 -0.1229 -0.7139 -0.396 -0.417 0.818 191 171 129 0 0
-0.1473 -0.1242 -0.7148 -0.385 -0.635 0.670 198 181 137 0 0
-0.1479 -0.1251 -0.7160 -0.385 -0.635 0.670 195 177 133 0 0
-0.1496 -0.1255 -0.7369 -0.226 -0.878 -0.422 116 99 70 0 0
-0.1490 -0.1241 -0.7400 -0.226 -0.878 -0.422 120 102 74 0 0
-0.1408 -0.1065 -0.7717 -0.762 -0.642 -0.082 88 75 49 0 0
-0.1411 -0.1062 -0.7780 -0.367 -0.880 0.303 74 58 35 0 0
-0.1473 -0.1150 -0.7943 -0.672 -0.615 0.413 96 80 55 0 0
-0.1478 -0.1156 -0.7958 -0.553 -0.684 0.476 92 77 50 0 0
-0.1605 -0.1340 -0.8252 -0.591 -0.741 0.319 95 80 48 0 0
-0.1609 -0.1344 -0.8268 -0.591 -0.741 0.319 83 68 40 0 0
-0.1616 -0.1353 -0.8300 -0.415 -0.845 0.337 108 94 62 0 0
-0.1622 -0.1350 -0.8407 -0.318 -0.861 0.396 96 81 53 0 0
-0.1630 -0.1362 -0.8415 -0.338 -0.918 0.208 102 86 54 0 0
-0.1633 -0.1367 -0.8431 -0.296 -0.913 0.281 140 125 88 0 0
-0.1642 -0.1377 -0.8462 -0.365 -0.814 0.453 123 108 73 0 0
-0.1653 -0.1396 -0.8464 -0.301 -0.803 0.515 125 109 75 0 0
-0.1654 -0.1396 -0.8484 -0.515 -0.638 0.573 127 113 78 0 0
-0.1675 -0.1414 -0.8634 -0.232 -0.890 0.392 81 77 66 0 0
-0.1675 -0.1408 -0.8682 -0.491 -0.867 0.089 136 134 130 0 0
-0.2032 -0.2018 -0.8674 -0.810 -0.533 0.245 203 201 202 0 0
-0.2035 -0.2021 -0.8691 -0.843 -0.445 0.302 204 202 203 0 0
-0.2044 -0.2036 -0.8694 -0.917 -0.225 0.329 205 203 204 0 0
-0.0634 -0.0311 -0.2546 -0.253 -0.913 0.320 47 40 30 0 0
-0.0640 -0.0321 -0.2558 -0.205 -0.866 0.456 19 17 12 0 0
-0.0665 -0.0356 -0.2623 -0.091 -0.867 0.490 71 64 53 0 0
-0.0681 -0.0376 -0.2677 -0.083 -0.938 0.337 96 81 55 0 0
-0.0692 -0.0393 -0.2702 -0.070 -0.820 0.567 60 48 36 0 0
-0.0694 -0.0395 -0.2716 -0.408 -0.912 0.046 31 22 14 0 0
-0.0702 -0.0399 -0.2804 -0.363 -0.809 0.462 17 12 7 0 0
-0.0710 -0.0411 -0.2816 -0.239 -0.802 0.547 78 71 62 0 0
-0.0852 -0.0593 -0.3331 -0.196 -0.867 0.458 57 47 35 0 0
-0.0899 -0.0622 -0.3770 0.251 -0.940 0.232 64 56 44 0 0
-0.0905 -0.0630 -0.3783 0.327 -0.850 0.413 60 52 41 0 0
-0.1064 -0.0906 -0.3761 0.044 -0.494 0.868 120 107 84 0 0
-0.1147 -0.1004 -0.4137 -0.421 -0.896 0.138 83 68 45 0 0
-0.1149 -0.1006 -0.4152 -0.307 -0.915 0.261 79 65 39 0 0
-0.1154 -0.0983 -0.4417 -0.469 -0.839 0.275 54 39 19 0 0
-0.1169 -0.0994 -0.4541 -0.329 -0.894 0.303 73 59 33 0 0
-0.1215 -0.1035 -0.4862 -0.533 -0.523 0.665 106 96 76 0 0
-0.1222 -0.1046 -0.4873 -0.340 -0.413 0.845 102 93 72 0 0
-0.1226 -0.1052 -0.4886 -0.524 -0.372 0.766 106 95 79 0 0
-0.1333 -0.1064 -0.6343 -0.512 -0.799 -0.315 54 47 31 0 0
-0.1330 -0.1056 -0.6367 -0.423 -0.851 -0.310 41 34 22 0 0
-0.1326 -0.1047 -0.6392 -0.475 -0.822 -0.314 37 30 20 0 0
-0.1217 -0.0815 -0.6774 -0.464 -0.881 -0.095 8 6 7 0 0
-0.1217 -0.0810 -0.6816 -0.464 -0.881 -0.095 8 6 9 0 0
-0.1306 -0.0935 -0.7047 -0.235 -0.548 0.803 22 18 14 0 0
-0.1314 -0.0948 -0.7055 -0.085 -0.273 0.958 28 24 21 0 0
-0.1486 -0.1231 -0.7149 -0.486 -0.552 0.677 191 173 130 0 0
-0.1492 -0.1240 -0.7161 -0.486 -0.552 0.677 185 169 126 0 0
-0.1426 -0.1055 -0.7778 -0.367 -0.880 0.303 68 53 30 0 0
-0.1548 -0.1229 -0.8084 -0.397 -0.909 0.128 79 65 40 0 0
-0.1618 -0.1328 -0.8254 -0.324 -0.845 0.426 101 87 52 0 0
-0.1621 -0.1332 -0.8271 -0.634 -0.713 0.299 96 81 49 0 0
-0.1682 -0.1403 -0.8551 -0.498 -0.862 0.093 99 91 64 0 0
-0.1689 -0.1400 -0.8680 -0.474 -0.879 0.052 133 131 127 0 0
-0.2040 -0.2004 -0.8639 -0.303 -0.868 0.393 202 200 201 0 0
-0.2041 -0.2001 -0.8683 -0.834 -0.551 0.034 202 200 201 0 0
-0.2046 -0.2008 -0.8696 -0.810 -0.533 0.245 204 202 203 0 0
-0.0649 -0.0310 -0.2529 -0.607 -0.575 0.549 63 51 32 0 0
-0.0654 -0.0317 -0.2542 -0.717 -0.575 0.394 60 53 41 0 0
-0.0655 -0.0317 -0.2557 -0.390 -0.764 0.514 17 15 10 0 0
-0.0666 -0.0332 -0.2597 -0.156 -0.848 0.506 26 20 12 0 0
-0.0693 -0.0370 -0.2661 -0.083 -0.938 0.337 120 101 69 0 0
-0.0706 -0.0387 -0.2700 -0.085 -0.908 0.410 69 58 45 0 0
-0.0708 -0.0389 -0.2715 -0.408 -0.912 0.046 43 35 27 0 0
-0.0761 -0.0456 -0.2919 -0.177 -0.978 0.108 23 17 13 0 0
-0.0905 -0.0640 -0.3448 -0.246 -0.786 0.567 45 35 20 0 0
-0.0909 -0.0624 -0.3640 -0.134 -0.991 0.010 39 32 23 0 0
-0.0913 -0.0631 -0.3653 -0.292 -0.954 -0.071 37 30 21 0 0
-0.1151 -0.1025 -0.3768 -0.080 -0.397 0.914 171 154 116 0 0
-0.1159 -0.1038 -0.3778 -0.233 -0.527 0.817 188 174 137 0 0
-0.1174 -0.1061 -0.3798 -0.124 -0.885 0.450 75 63 41 0 0
-0.1179 -0.1067 -0.3811 -0.144 -0.911 0.387 57 46 27 0 0
-0.1180 -0.0984 -0.4525 -0.329 -0.894 0.303 49 34 14 0 0
-0.1183 -0.0988 -0.4539 -0.329 -0.894 0.303 74 60 35 0 0
-0.1186 -0.0992 -0.4553 -0.329 -0.894 0.303 113 99 75 0 0
-0.1204 -0.1016 -0.4605 -0.445 -0.855 0.266 67 54 35 0 0
-0.1229 -0.1029 -0.4860 -0.092 -0.825 0.558 91 79 57 0 0
-0.1332 -0.1142 -0.5398 0.273 -0.959 -0.076 70 58 44 0 0
-0.1334 -0.1144 -0.5414 0.181 -0.973 -0.142 74 63 47 0 0
-0.1334 -0.1141 -0.5432 0.159 -0.965 -0.208 73 64 49 0 0
-0.1332 -0.1131 -0.5490 0.380 -0.908 -0.176 87 79 69 0 0
-0.1284 -0.1011 -0.5814 0.191 -0.969 0.159 59 53 46 0 0
-0.1280 -0.1001 -0.5838 0.376 -0.718 0.585 61 53 44 0 0
-0.1328 -0.1017 -0.6407 -0.394 -0.824 -0.408 31 24 14 0 0
-0.1232 -0.0808 -0.6772 -0.493 -0.848 -0.196 9 7 8 0 0
-0.1228 -0.0792 -0.6862 -0.364 -0.925 -0.111 8 6 7 0 0
-0.1325 -0.0934 -0.7059 0.088 -0.571 0.816 25 21 19 0 0
-0.1417 -0.1091 -0.7066 0.096 -0.453 0.886 60 52 44 0 0
-0.1540 -0.1282 -0.7231 -0.419 -0.788 0.451 104 87 59 0 0
-0.1529 -0.1247 -0.7379 -0.119 -0.899 -0.421 137 118 82 0 0
-0.1437 -0.1048 -0.7714 -0.401 -0.897 -0.187 82 68 42 0 0
-0.1434 -0.1040 -0.7742 -0.631 -0.717 0.297 79 65 39 0 0
-0.1437 -0.1044 -0.7759 -0.631 -0.717 0.297 74 60 35 0 0
-0.1455 -0.1069 -0.7796 -0.366 -0.621 0.693 69 54 33 0 0
-0.1556 -0.1213 -0.8049 -0.517 -0.748 0.416 109 95 68 0 0
-0.1560 -0.1218 -0.8064 -0.473 -0.834 0.284 105 91 63 0 0
-0.1647 -0.1338 -0.8316 -0.511 -0.784 0.353 95 81 50 0 0
-0.1689 -0.1388 -0.8494 -0.728 -0.421 0.541 122 108 71 0 0
-0.1704 -0.1393 -0.8678 -0.527 -0.840 -0.127 129 128 123 0 0
-0.2055 -0.1997 -0.8657 -0.347 -0.923 0.166 200 198 199 0 0
-0.2056 -0.1996 -0.8678 -0.528 -0.833 0.168 202 200 201 0 0
-0.2058 -0.1998 -0.8696 -0.528 -0.833 0.168 204 202 203 0 0
-0.0557 -0.0143 -0.2361 -0.030 -0.576 0.817 178 179 177 0 0
-0.0578 -0.0175 -0.2383 -0.144 -0.374 0.916 173 164 155 0 0
-0.0661 -0.0301 -0.2529 -0.611 -0.560 0.559 87 75 55 0 0
-0.0772 -0.0450 -0.2888 -0.198 -0.944 0.262 33 26 16 0 0
-0.0772 -0.0445 -0.2919 -0.267 -0.964 -0.004 35 29 26 0 0
-0.0771 -0.0439 -0.2951 -0.265 -0.881 0.392 8 7 6 0 0
-0.0931 -0.0648 -0.3519 -0.094 -0.969 0.228 41 30 19 0 0
-0.0932 -0.0620 -0.3763 0.022 -0.842 0.539 45 36 27 0 0
-0.1161 -0.1013 -0.3769 -0.452 -0.324 0.831 177 158 125 0 0
-0.1187 -0.1056 -0.3781 -0.478 -0.537 0.695 126 112 82 0 0
-0.1191 -0.1061 -0.3794 -0.516 -0.786 0.339 91 77 54 0 0
-0.1192 -0.1062 -0.3809 -0.321 -0.936 0.145 60 49 30 0 0
-0.1174 -0.0993 -0.4118 -0.391 -0.919 -0.047 108 93 71 0 0
-0.1175 -0.0991 -0.4150 -0.454 -0.889 -0.067 105 91 61 0 0
-0.1172 -0.0984 -0.4169 -0.336 -0.942 -0.008 99 85 57 0 0
-0.1174 -0.0979 -0.4235 -0.330 -0.940 0.086 101 86 58 0 0
-0.1176 -0.0972 -0.4334 -0.415 -0.896 0.156 73 58 36 0 0
-0.1178 -0.0973 -0.4349 -0.415 -0.896 0.156 71 59 35 0 0
-0.1180 -0.0975 -0.4364 -0.415 -0.896 0.156 75 62 38 0 0
-0.1178 -0.0969 -0.4383 -0.349 -0.855 0.383 79 66 43 0 0
-0.1194 -0.0979 -0.4523 -0.434 -0.881 0.189 64 49 29 0 0
-0.1196 -0.0981 -0.4538 -0.581 -0.759 0.293 67 52 30 0 0
-0.1199 -0.0984 -0.4552 -0.493 -0.811 0.313 93 78 57 0 0
-0.1217 -0.1009 -0.4604 -0.445 -0.855 0.266 54 42 23 0 0
-0.1242 -0.1023 -0.4859 -0.257 -0.670 0.697 94 82 58 0 0
-0.1253 -0.1038 -0.4883 -0.366 -0.725 0.584 105 93 71 0 0
-0.1259 -0.1046 -0.4895 -0.630 -0.490 0.603 103 92 69 0 0
-0.1265 -0.1055 -0.4907 -0.499 -0.490 0.715 96 86 61 0 0
-0.1367 -0.1197 -0.5189 -0.211 -0.785 0.583 105 88 69 0 0
-0.1369 -0.1198 -0.5205 -0.360 -0.816 0.452 104 88 69 0 0
-0.1315 -0.1038 -0.5771 0.235 -0.972 -0.001 62 57 51 0 0
-0.1305 -0.1016 -0.5803 0.387 -0.869 0.308 64 57 49 0 0
-0.1307 -0.1017 -0.5839 0.177 -0.891 0.419 76 68 58 0 0
-0.1271 -0.0859 -0.6630 -0.819 -0.569 -0.079 12 10 8 0 0
-0.1270 -0.0856 -0.6651 -0.819 -0.569 -0.079 11 9 8 0 0
-0.1263 -0.0840 -0.6683 -0.454 -0.853 -0.257 11 10 8 0 0
-0.1242 -0.0779 -0.6883 -0.370 -0.929 -0.030 7 6 6 0 0
-0.1224 -0.0736 -0.6995 0.069 -0.797 0.601 11 10 8 0 0
-0.1306 -0.0870 -0.7044 -0.669 -0.218 0.710 25 20 17 0 0
-0.1453 -0.1120 -0.7072 -0.596 -0.536 0.598 90 80 62 0 0
-0.1459 -0.1128 -0.7085 -0.417 -0.624 0.661 103 90 67 0 0
-0.1465 -0.1138 -0.7096 -0.568 -0.733 0.374 109 94 72 0 0
-0.1541 -0.1261 -0.7165 -0.452 -0.835 0.314 117 101 68 0 0
-0.1548 -0.1269 -0.7196 -0.452 -0.835 0.314 78 67 40 0 0
-0.1552 -0.1273 -0.7212 -0.452 -0.835 0.314 96 83 55 0 0
-0.1555 -0.1277 -0.7228 -0.520 -0.783 0.342 106 90 60 0 0
-0.1559 -0.1281 -0.7243 -0.520 -0.783 0.342 117 98 67 0 0
-0.1549 -0.1249 -0.7368 -0.119 -0.899 -0.421 135 118 81 0 0
-0.1544 -0.1237 -0.7399 -0.088 -0.903 -0.421 119 104 71 0 0
-0.1538 -0.1222 -0.7431 -0.088 -0.903 -0.421 108 95 65 0 0
-0.1452 -0.1042 -0.7711 -0.401 -0.897 -0.187 83 68 42 0 0
-0.1451 -0.1037 -0.7736 -0.425 -0.905 0.004 85 69 44 0 0
-0.1452 -0.1037 -0.7756 -0.371 -0.922 0.115 84 70 45 0 0
-0.1573 -0.1209 -0.8043 -0.355 -0.736 0.576 118 105 73 0 0
-0.1577 -0.1215 -0.8058 -0.365 -0.881 0.302 111 98 64 0 0
-0.1642 -0.1305 -0.8236 -0.610 -0.679 0.408 96 80 49 0 0
-0.1646 -0.1311 -0.8251 -0.492 -0.742 0.456 107 90 62 0 0
-0.1661 -0.1329 -0.8316 -0.511 -0.784 0.353 100 87 54 0 0
-0.1692 -0.1361 -0.8491 -0.213 -0.951 0.226 120 106 71 0 0
-0.2058 -0.1976 -0.8609 0.408 -0.687 0.601 202 202 202 0 0
-0.2070 -0.1991 -0.8653 -0.518 -0.841 0.153 203 201 202 0 0
-0.2069 -0.1988 -0.8678 -0.528 -0.833 0.168 204 202 203 0 0
-0.0585 -0.0158 -0.2384 -0.099 -0.276 0.956 172 162 153 0 0
-0.0639 -0.0247 -0.2422 -0.600 -0.679 0.423 129 113 82 0 0
-0.0642 -0.0250 -0.2436 -0.658 -0.579 0.481 181 165 135 0 0
-0.0655 -0.0270 -0.2460 -0.200 -0.878 0.436 143 128 103 0 0
-0.0670 -0.0289 -0.2514 -0.268 -0.833 0.485 130 115 84 0 0
-0.0787 -0.0446 -0.2886 -0.371 -0.916 0.156 33 26 17 0 0
-0.0788 -0.0439 -0.2948 -0.408 -0.828 0.384 8 7 8 0 0
-0.0870 -0.0553 -0.3183 -0.308 -0.795 0.523 91 78 63 0 0
-0.0945 -0.0645 -0.3501 -0.275 -0.765 0.583 63 53 43 0 0
-0.0940 -0.0622 -0.3602 -0.037 -0.998 0.059 37 28 19 0 0
-0.0973 -0.0661 -0.3758 0.277 -0.397 0.875 72 64 53 0 0
-0.1190 -0.1036 -0.3756 -0.113 -0.695 0.710 178 161 124 0 0
-0.1191 -0.1036 -0.3771 -0.580 -0.783 0.225 167 153 113 0 0
-0.1203 -0.1054 -0.3793 -0.416 -0.777 0.472 82 70 48 0 0
-0.1188 -0.0989 -0.4116 -0.482 -0.872 -0.085 109 94 71 0 0
-0.1187 -0.0982 -0.4150 -0.679 -0.734 0.012 114 99 71 0 0
-0.1186 -0.0979 -0.4167 -0.278 -0.959 0.059 117 103 75 0 0
-0.1192 -0.0967 -0.4348 -0.415 -0.896 0.156 70 55 31 0 0
-0.1194 -0.0969 -0.4363 -0.415 -0.896 0.156 69 55 29 0 0
-0.1215 -0.0980 -0.4566 -0.493 -0.811 0.313 106 94 72 0 0
-0.1227 -0.1000 -0.4572 -0.419 -0.869 0.265 58 46 24 0 0
-0.1230 -0.1002 -0.4603 -0.445 -0.855 0.266 73 61 38 0 0
-0.1235 -0.1005 -0.4650 -0.200 -0.966 0.166 81 68 53 0 0
-0.1265 -0.1030 -0.4866 -0.147 -0.845 0.514 96 84 60 0 0
-0.1371 -0.1179 -0.5144 -0.301 -0.869 0.394 63 47 30 0 0
-0.1375 -0.1184 -0.5158 -0.301 -0.869 0.394 64 48 32 0 0
-0.1379 -0.1190 -0.5171 -0.188 -0.859 0.476 67 50 32 0 0
-0.1382 -0.1191 -0.5204 -0.360 -0.816 0.452 79 64 43 0 0
-0.1363 -0.1106 -0.5632 0.340 -0.874 -0.347 43 36 29 0 0
-0.1379 -0.1055 -0.6292 -0.221 -0.906 -0.360 56 46 28 0 0
-0.1376 -0.1047 -0.6316 -0.184 -0.916 -0.356 47 40 24 0 0
-0.1372 -0.1036 -0.6342 -0.146 -0.914 -0.377 43 35 23 0 0
-0.1294 -0.0872 -0.6595 -0.895 -0.321 -0.311 13 11 10 0 0
-0.1254 -0.0759 -0.6950 -0.545 -0.773 0.325 13 10 9 0 0
-0.1263 -0.0766 -0.7022 -0.436 -0.633 0.640 19 16 11 0 0
-0.1294 -0.0817 -0.7040 -0.476 -0.456 0.752 31 23 20 0 0
-0.1377 -0.0958 -0.7063 -0.277 -0.121 0.953 31 27 24 0 0
-0.1461 -0.1100 -0.7082 -0.256 -0.472 0.843 82 71 53 0 0
-0.1483 -0.1136 -0.7090 -0.375 -0.279 0.884 99 86 62 0 0
-0.1557 -0.1256 -0.7161 -0.606 -0.730 0.317 136 120 86 0 0
-0.1491 -0.1058 -0.7849 -0.263 -0.937 0.231 46 33 16 0 0
-0.1514 -0.1096 -0.7876 -0.182 -0.898 0.400 90 75 53 0 0
-0.1519 -0.1103 -0.7890 -0.298 -0.887 0.354 106 91 65 0 0
-0.1523 -0.1108 -0.7906 -0.182 -0.898 0.400 131 114 85 0 0
-0.1537 -0.1126 -0.7950 -0.218 -0.884 0.413 152 137 100 0 0
-0.1551 -0.1145 -0.7993 -0.458 -0.622 0.635 176 156 112 0 0
-0.1647 -0.1285 -0.8206 -0.438 -0.874 0.211 70 55 30 0 0
-0.1675 -0.1320 -0.8316 -0.511 -0.784 0.353 104 91 59 0 0
-0.1709 -0.1358 -0.8484 -0.357 -0.892 0.278 114 100 65 0 0
-0.2079 -0.1984 -0.8590 0.576 -0.657 0.486 202 202 202 0 0
-0.2088 -0.1992 -0.8642 -0.153 -0.927 0.342 203 201 202 0 0
-0.0594 -0.0148 -0.2340 -0.459 -0.297 0.837 177 178 178 0 0
-0.0613 -0.0178 -0.2377 -0.534 -0.290 0.794 168 158 144 0 0
-0.0635 -0.0214 -0.2398 -0.240 -0.779 0.580 157 135 97 0 0
-0.0651 -0.0237 -0.2422 -0.600 -0.679 0.423 120 104 73 0 0
-0.0655 -0.0242 -0.2435 -0.600 -0.679 0.423 124 112 83 0 0
-0.0659 -0.0247 -0.2449 -0.600 -0.679 0.423 149 138 111 0 0
-0.0673 -0.0269 -0.2473 -0.376 -0.755 0.537 140 127 101 0 0
-0.0749 -0.0375 -0.2681 -0.252 -0.843 0.475 102 88 67 0 0
-0.0801 -0.0432 -0.2947 -0.408 -0.828 0.384 8 7 7 0 0
-0.0831 -0.0479 -0.2993 -0.371 -0.725 0.580 96 84 71 0 0
-0.0837 -0.0484 -0.3036 -0.344 -0.896 0.282 100 85 63 0 0
-0.0953 -0.0631 -0.3471 -0.188 -0.940 0.285 47 36 24 0 0
-0.1196 -0.1017 -0.3760 0.287 -0.792 0.538 211 192 153 0 0
-0.1222 -0.1056 -0.3804 -0.697 -0.637 0.329 47 34 19 0 0
-0.1198 -0.0970 -0.4167 -0.111 -0.991 0.073 105 88 59 0 0
-0.1205 -0.0965 -0.4312 -0.497 -0.867 0.034 105 90 68 0 0
-0.1207 -0.0962 -0.4361 -0.486 -0.855 0.181 77 63 38 0 0
-0.1243 -0.0995 -0.4602 -0.445 -0.855 0.266 75 62 40 0 0
-0.1324 -0.1092 -0.4958 -0.458 -0.632 0.625 78 64 38 0 0
-0.1334 -0.1107 -0.4966 -0.542 -0.538 0.645 64 49 26 0 0
-0.1374 -0.1165 -0.5064 -0.633 -0.763 0.130 49 33 20 0 0
-0.1382 -0.1175 -0.5092 -0.709 -0.704 0.045 62 45 30 0 0
-0.1380 -0.1169 -0.5112 -0.618 -0.779 0.106 64 49 33 0 0
-0.1382 -0.1170 -0.5128 -0.618 -0.779 0.106 63 51 33 0 0
-0.1387 -0.1178 -0.5140 -0.528 -0.833 0.166 70 56 39 0 0
-0.1387 -0.1176 -0.5157 -0.472 -0.746 0.469 73 58 41 0 0
-0.1392 -0.1182 -0.5171 -0.356 -0.809 0.467 73 56 38 0 0
-0.1395 -0.1186 -0.5185 -0.206 -0.883 0.422 71 54 34 0 0
-0.1397 -0.1140 -0.5587 0.251 -0.904 -0.346 66 57 45 0 0
-0.1359 -0.1042 -0.5844 0.208 -0.854 0.477 45 36 24 0 0
-0.1364 -0.1050 -0.5857 0.106 -0.890 0.444 69 58 45 0 0
-0.1380 -0.1075 -0.5875 -0.131 -0.959 0.251 76 62 44 0 0
-0.1382 -0.1076 -0.5892 -0.300 -0.953 -0.047 76 65 45 0 0
-0.1285 -0.0816 -0.6648 -0.526 -0.817 -0.234 16 11 10 0 0
-0.1263 -0.0741 -0.6956 -0.398 -0.897 0.193 17 13 12 0 0
-0.1262 -0.0736 -0.6979 0.014 -0.872 0.489 16 12 11 0 0
-0.1395 -0.0956 -0.7056 0.178 -0.380 0.908 32 27 24 0 0
-0.1451 -0.1050 -0.7076 -0.126 -0.105 0.986 55 51 41 0 0
-0.1483 -0.1104 -0.7089 -0.222 -0.458 0.861 92 79 58 0 0
-0.1495 -0.1125 -0.7091 -0.375 -0.279 0.884 115 102 76 0 0
-0.1498 -0.1129 -0.7107 -0.232 -0.876 0.423 150 133 104 0 0
-0.1507 -0.1144 -0.7114 -0.111 -0.638 0.762 136 119 88 0 0
-0.1569 -0.1245 -0.7163 -0.332 -0.834 0.440 133 117 83 0 0
-0.1573 -0.1250 -0.7177 -0.342 -0.882 0.324 90 80 51 0 0
-0.1583 -0.1263 -0.7204 -0.266 -0.841 0.472 95 81 54 0 0
-0.1582 -0.1245 -0.7336 -0.698 -0.702 -0.143 138 120 82 0 0
-0.1580 -0.1236 -0.7382 -0.072 -0.945 -0.319 125 109 75 0 0
-0.1568 -0.1210 -0.7425 -0.377 -0.867 -0.324 103 88 56 0 0
-0.1484 -0.1023 -0.7772 -0.259 -0.845 0.468 99 87 61 0 0
-0.1492 -0.1033 -0.7803 -0.502 -0.697 0.512 66 54 32 0 0
-0.1489 -0.1024 -0.7831 -0.516 -0.764 0.388 67 55 35 0 0
-0.1530 -0.1091 -0.7871 -0.182 -0.898 0.400 92 77 53 0 0
-0.1564 -0.1135 -0.7993 -0.458 -0.622 0.635 156 139 94 0 0
-0.1570 -0.1143 -0.8006 -0.500 -0.386 0.775 131 114 78 0 0
-0.1608 -0.1203 -0.8051 -0.210 -0.746 0.632 169 151 110 0 0
-0.1691 -0.1313 -0.8334 -0.261 -0.836 0.484 109 95 66 0 0
-0.1710 -0.1335 -0.8415 -0.352 -0.813 0.465 91 79 52 0 0
-0.1715 -0.1341 -0.8429 -0.352 -0.813 0.465 93 79 49 0 0
-0.1727 -0.1357 -0.8475 -0.645 -0.708 0.287 121 107 72 0 0
-0.2088 -0.1955 -0.8694 -0.165 -0.375 0.912 204 202 203 0 0
-0.0605 -0.0138 -0.2340 -0.425 -0.264 0.866 177 178 177 0 0
-0.0636 -0.0187 -0.2372 -0.774 -0.356 0.523 163 151 132 0 0
-0.0687 -0.0267 -0.2456 -0.403 -0.832 0.380 140 126 98 0 0
-0.0691 -0.0269 -0.2485 -0.376 -0.755 0.537 85 73 47 0 0
-0.0731 -0.0326 -0.2588 -0.175 -0.677 0.715 143 130 106 0 0
-0.0738 -0.0337 -0.2599 -0.178 -0.751 0.636 112 96 71 0 0
-0.0841 -0.0469 -0.2978 -0.636 -0.738 0.224 104 95 83 0 0
-0.0849 -0.0478 -0.3005 -0.279 -0.831 0.482 115 104 84 0 0
-0.0976 -0.0638 -0.3496 -0.183 -0.903 0.389 44 34 23 0 0
-0.1014 -0.0674 -0.3745 0.021 -0.098 0.995 67 59 48 0 0
-0.1230 -0.1042 -0.3791 -0.599 -0.682 0.419 46 33 17 0 0
-0.1230 -0.1022 -0.3952 -0.720 -0.693 -0.041 105 91 64 0 0
-0.1217 -0.0957 -0.4295 -0.523 -0.851 -0.039 69 53 30 0 0
-0.1219 -0.0958 -0.4327 -0.497 -0.867 0.034 64 48 33 0 0
-0.1221 -0.0958 -0.4343 -0.497 -0.867 0.034 50 34 18 0 0
-0.1221 -0.0956 -0.4360 -0.415 -0.896 0.156 64 49 28 0 0
-0.1224 -0.0957 -0.4391 -0.484 -0.804 0.346 56 41 22 0 0
-0.1225 -0.0957 -0.4407 -0.429 -0.877 0.217 57 42 23 0 0
-0.1233 -0.0960 -0.4502 -0.568 -0.785 0.245 57 42 22 0 0
-0.1259 -0.0988 -0.4634 -0.129 -0.973 0.190 79 66 48 0 0
-0.1261 -0.0990 -0.4649 -0.299 -0.915 0.273 75 62 47 0 0
-0.1387 -0.1156 -0.5064 -0.604 -0.742 0.292 47 34 25 0 0
-0.1399 -0.1168 -0.5140 -0.710 -0.676 0.197 66 51 34 0 0
-0.1406 -0.1175 -0.5186 -0.481 -0.799 0.362 64 47 28 0 0
-0.1383 -0.1057 -0.5811 0.423 -0.903 0.077 59 50 35 0 0
-0.1390 -0.1063 -0.5859 -0.565 -0.737 0.371 96 82 60 0 0
-0.1393 -0.1068 -0.5874 -0.565 -0.737 0.371 94 79 56 0 0
-0.1397 -0.1070 -0.5908 -0.169 -0.930 0.325 99 86 61 0 0
-0.1404 -0.1081 -0.5918 -0.088 -0.804 0.588 87 73 49 0 0
-0.1278 -0.0736 -0.6932 -0.566 -0.824 0.027 13 12 10 0 0
-0.1278 -0.0734 -0.6954 -0.398 -0.897 0.193 17 14 13 0 0
-0.1323 -0.0800 -0.7038 -0.174 -0.739 0.651 34 28 22 0 0
-0.1486 -0.1078 -0.7084 -0.281 -0.363 0.889 85 75 59 0 0
-0.1508 -0.1116 -0.7091 0.062 -0.712 0.700 120 106 80 0 0
-0.1516 -0.1129 -0.7099 0.249 -0.925 0.286 156 138 108 0 0
-0.1520 -0.1133 -0.7115 0.154 -0.860 0.486 144 125 92 0 0
-0.1598 -0.1257 -0.7201 -0.266 -0.841 0.472 95 80 54 0 0
-0.1596 -0.1237 -0.7334 -0.414 -0.868 -0.275 138 120 82 0 0
-0.1601 -0.1245 -0.7347 -0.484 -0.790 -0.376 137 120 82 0 0
-0.1597 -0.1234 -0.7376 -0.484 -0.790 -0.376 127 111 77 0 0
-0.1591 -0.1221 -0.7407 -0.603 -0.649 -0.463 114 97 66 0 0
-0.1506 -0.1023 -0.7803 -0.502 -0.697 0.512 73 61 39 0 0
-0.1546 -0.1084 -0.7869 -0.266 -0.869 0.416 82 68 43 0 0
-0.1591 -0.1146 -0.8015 -0.221 -0.584 0.781 104 88 53 0 0
-0.0701 -0.0261 -0.2455 -0.527 -0.757 0.387 115 99 73 0 0
-0.0709 -0.0269 -0.2497 -0.274 -0.643 0.715 182 166 144 0 0
-0.0813 -0.0412 -0.2798 -0.406 -0.887 0.218 110 99 83 0 0
-0.0828 -0.0431 -0.2867 -0.211 -0.966 0.149 42 32 24 0 0
-0.0909 -0.0537 -0.3133 -0.269 -0.915 0.302 56 43 28 0 0
-0.0942 -0.0573 -0.3302 -0.399 -0.814 0.423 74 63 47 0 0
-0.0953 -0.0590 -0.3326 -0.261 -0.817 0.514 48 38 25 0 0
-0.1248 -0.1042 -0.3817 -0.512 -0.833 0.210 53 36 21 0 0
-0.1245 -0.1034 -0.3836 -0.303 -0.738 0.603 68 51 28 0 0
-0.1244 -0.1019 -0.3934 -0.435 -0.870 -0.234 86 72 45 0 0
-0.1233 -0.0944 -0.4377 -0.354 -0.886 0.301 63 48 31 0 0
-0.1236 -0.0948 -0.4391 -0.429 -0.877 0.217 62 47 30 0 0
-0.1245 -0.0954 -0.4468 -0.385 -0.917 0.109 67 52 29 0 0
-0.1271 -0.0978 -0.4634 -0.454 -0.891 0.022 73 60 40 0 0
-0.1274 -0.0983 -0.4647 -0.449 -0.890 0.079 67 55 41 0 0
-0.1365 -0.1102 -0.4958 -0.304 -0.861 0.408 75 61 35 0 0
-0.1370 -0.1109 -0.4970 -0.571 -0.714 0.404 76 63 42 0 0
-0.1400 -0.1153 -0.5044 -0.696 -0.683 0.221 39 27 18 0 0
-0.1414 -0.1162 -0.5155 -0.221 -0.937 0.270 61 46 32 0 0
-0.1417 -0.1166 -0.5169 -0.221 -0.937 0.270 64 47 32 0 0
-0.1420 -0.1169 -0.5184 -0.221 -0.937 0.270 67 49 31 0 0
-0.1422 -0.1171 -0.5199 -0.183 -0.929 0.321 73 55 35 0 0
-0.1426 -0.1176 -0.5213 -0.449 -0.886 0.118 78 60 40 0 0
-0.1428 -0.1177 -0.5229 -0.464 -0.870 0.165 70 53 32 0 0
-0.1430 -0.1179 -0.5245 -0.473 -0.803 0.363 73 57 35 0 0
-0.1443 -0.1193 -0.5320 -0.189 -0.976 0.108 100 82 59 0 0
-0.1443 -0.1191 -0.5338 -0.203 -0.978 -0.035 101 84 59 0 0
-0.1450 -0.1123 -0.5971 -0.437 -0.880 0.188 85 72 53 0 0
-0.1451 -0.1122 -0.5989 -0.518 -0.854 0.038 96 83 64 0 0
-0.1451 -0.1098 -0.6185 0.038 -0.997 0.072 78 64 46 0 0
-0.1295 -0.0729 -0.6950 0.177 -0.924 0.338 17 13 12 0 0
-0.1306 -0.0743 -0.6997 -0.276 -0.766 0.580 21 17 14 0 0
-0.1310 -0.0748 -0.7013 -0.250 -0.833 0.494 24 21 16 0 0
-0.1319 -0.0762 -0.7022 -0.158 -0.880 0.448 28 25 20 0 0
-0.1460 -0.1004 -0.7060 0.132 -0.506 0.852 54 47 41 0 0
-0.1516 -0.1099 -0.7078 -0.091 -0.635 0.767 91 79 60 0 0
-0.1531 -0.1123 -0.7096 0.062 -0.712 0.700 127 111 82 0 0
-0.1539 -0.1135 -0.7105 0.105 -0.691 0.715 138 120 85 0 0
-0.1612 -0.1231 -0.7351 -0.438 -0.859 -0.265 138 119 82 0 0
-0.1519 -0.1016 -0.7780 -0.363 -0.832 0.418 73 63 38 0 0
-0.1525 -0.1021 -0.7817 -0.561 -0.683 0.467 75 63 39 0 0
-0.1561 -0.1078 -0.7865 -0.266 -0.869 0.416 77 62 38 0 0
-0.1567 -0.1086 -0.7878 -0.214 -0.853 0.476 90 74 48 0 0
-0.1644 -0.1198 -0.8058 -0.237 -0.817 0.525 108 93 70 0 0
-0.1781 -0.1373 -0.8565 -0.454 -0.876 0.160 87 78 57 0 0
-0.1785 -0.1377 -0.8581 -0.338 -0.918 0.208 77 71 54 0 0
-0.0685 -0.0208 -0.2406 0.082 -0.751 0.655 222 205 162 0 0
-0.0722 -0.0262 -0.2496 -0.238 -0.850 0.470 165 149 128 0 0
-0.0726 -0.0268 -0.2509 -0.241 -0.871 0.429 126 114 91 0 0
-0.0843 -0.0427 -0.2865 -0.168 -0.961 0.220 55 46 39 0 0
-0.0847 -0.0426 -0.2925 -0.370 -0.921 0.123 11 7 7 0 0
-0.0849 -0.0427 -0.2939 -0.138 -0.933 0.333 11 7 9 0 0
-0.0919 -0.0527 -0.3118 -0.455 -0.847 0.275 53 40 24 0 0
-0.0922 -0.0531 -0.3132 -0.455 -0.847 0.275 49 36 20 0 0
-0.0926 -0.0536 -0.3145 -0.284 -0.916 0.284 46 33 19 0 0
-0.0929 -0.0540 -0.3159 -0.284 -0.916 0.284 51 37 25 0 0
-0.0970 -0.0590 -0.3323 -0.527 -0.735 0.426 69 58 44 0 0
-0.0992 -0.0620 -0.3389 -0.508 -0.834 0.216 71 61 43 0 0
-0.0995 -0.0617 -0.3451 -0.266 -0.940 0.212 83 69 56 0 0
-0.0997 -0.0618 -0.3465 -0.237 -0.964 0.117 64 52 38 0 0
-0.1257 -0.1013 -0.3933 -0.435 -0.870 -0.234 100 86 60 0 0
-0.1248 -0.0951 -0.4306 -0.440 -0.887 0.141 58 46 27 0 0
-0.1246 -0.0938 -0.4375 -0.354 -0.886 0.301 47 31 16 0 0
-0.1249 -0.0941 -0.4390 -0.429 -0.877 0.217 64 48 32 0 0
-0.1261 -0.0950 -0.4482 -0.342 -0.933 0.115 82 66 49 0 0
-0.1382 -0.1099 -0.4971 -0.248 -0.834 0.492 82 69 48 0 0
-0.1388 -0.1106 -0.5000 -0.254 -0.801 0.542 52 39 23 0 0
-0.1391 -0.1109 -0.5015 -0.505 -0.771 0.388 84 71 55 0 0
-0.1418 -0.1150 -0.5074 -0.418 -0.816 0.400 41 29 17 0 0
-0.1431 -0.1161 -0.5167 -0.221 -0.937 0.270 54 38 26 0 0
-0.1433 -0.1162 -0.5183 -0.462 -0.867 0.188 64 47 30 0 0
-0.1436 -0.1164 -0.5198 -0.462 -0.867 0.188 75 60 37 0 0
-0.1444 -0.1178 -0.5206 -0.403 -0.827 0.392 86 70 47 0 0
-0.1441 -0.1168 -0.5246 -0.667 -0.625 0.405 68 47 26 0 0
-0.1454 -0.1186 -0.5285 -0.484 -0.803 0.348 92 77 51 0 0
-0.1459 -0.1188 -0.5334 -0.427 -0.904 0.005 98 80 55 0 0
-0.1462 -0.1189 -0.5367 -0.195 -0.980 0.028 114 98 73 0 0
-0.1463 -0.1189 -0.5384 -0.195 -0.980 0.028 112 98 68 0 0
-0.1464 -0.1186 -0.5420 -0.075 -0.997 -0.018 106 92 62 0 0
-0.1465 -0.1185 -0.5437 -0.075 -0.997 -0.018 97 82 53 0 0
-0.1462 -0.1114 -0.5953 -0.437 -0.880 0.188 101 86 66 0 0
-0.1464 -0.1116 -0.5970 -0.523 -0.835 0.172 99 86 67 0 0
-0.1464 -0.1114 -0.5988 -0.501 -0.863 0.069 102 89 70 0 0
-0.1465 -0.1114 -0.6006 -0.518 -0.854 0.038 104 91 72 0 0
-0.1469 -0.1098 -0.6178 0.038 -0.997 0.072 91 79 63 0 0
-0.1323 -0.0778 -0.6693 -0.574 -0.786 -0.231 16 15 13 0 0
-0.1326 -0.0767 -0.6816 -0.454 -0.890 -0.040 9 8 6 0 0
-0.1317 -0.0734 -0.6958 0.076 -0.967 0.242 16 12 11 0 0
-0.1316 -0.0729 -0.6981 -0.321 -0.845 0.427 15 11 10 0 0
-0.1325 -0.0741 -0.7011 -0.321 -0.845 0.427 20 17 12 0 0
-0.1369 -0.0812 -0.7052 -0.511 -0.307 0.803 44 37 29 0 0
-0.1524 -0.1078 -0.7087 -0.123 -0.433 0.893 92 81 63 0 0
-0.1613 -0.1226 -0.7155 -0.357 -0.656 0.665 152 134 100 0 0
-0.1618 -0.1233 -0.7167 -0.272 -0.830 0.487 144 128 97 0 0
-0.1538 -0.1014 -0.7793 -0.363 -0.832 0.418 76 66 41 0 0
-0.1576 -0.1072 -0.7862 -0.314 -0.865 0.391 81 67 41 0 0
-0.1581 -0.1077 -0.7877 -0.429 -0.789 0.440 90 75 47 0 0
-0.1658 -0.1188 -0.8058 -0.396 -0.673 0.625 85 71 49 0 0
-0.1664 -0.1198 -0.8069 -0.494 -0.771 0.402 74 61 42 0 0
-0.1795 -0.1365 -0.8563 -0.454 -0.876 0.160 88 77 55 0 0
-0.1800 -0.1371 -0.8577 -0.411 -0.883 0.228 75 68 50 0 0
-0.1803 -0.1375 -0.8594 -0.385 -0.918 0.096 63 60 47 0 0
-0.1805 -0.1374 -0.8615 -0.292 -0.939 0.182 78 74 63 0 0
-0.1802 -0.1360 -0.8694 -0.134 -0.989 0.058 156 152 152 0 0
-0.0659 -0.0140 -0.2361 0.223 -0.769 0.599 178 174 166 0 0
-0.0740 -0.0265 -0.2493 -0.419 -0.752 0.509 134 121 100 0 0
-0.0743 -0.0267 -0.2507 -0.359 -0.904 0.233 114 101 78 0 0
-0.0746 -0.0271 -0.2520 -0.255 -0.816 0.519 82 65 43 0 0
-0.0807 -0.0359 -0.2674 -0.275 -0.955 0.108 67 57 40 0 0
-0.0856 -0.0420 -0.2864 -0.278 -0.919 0.281 48 39 32 0 0
-0.0863 -0.0429 -0.2891 -0.608 -0.772 0.185 33 27 22 0 0
-0.0878 -0.0445 -0.2961 -0.107 -0.949 0.296 87 79 69 0 0
-0.0952 -0.0543 -0.3215 -0.478 -0.821 0.311 100 87 70 0 0
-0.0956 -0.0548 -0.3228 -0.465 -0.755 0.462 116 105 86 0 0
-0.1006 -0.0612 -0.3403 -0.265 -0.877 0.401 82 70 50 0 0
-0.1019 -0.0613 -0.3587 -0.562 -0.827 0.022 41 32 25 0 0
-0.1024 -0.0604 -0.3715 -0.354 -0.727 0.588 40 32 21 0 0
-0.1276 -0.1040 -0.3765 -0.287 -0.877 0.385 75 59 38 0 0
-0.1276 -0.1032 -0.3813 -0.634 -0.707 0.314 63 46 27 0 0
-0.1255 -0.0958 -0.4109 -0.386 -0.912 -0.136 76 62 36 0 0
-0.1265 -0.0937 -0.4403 -0.429 -0.877 0.217 37 24 12 0 0
-0.1274 -0.0944 -0.4480 -0.490 -0.863 0.119 82 66 52 0 0
-0.1290 -0.0965 -0.4534 -0.202 -0.928 0.313 43 27 14 0 0
-0.1287 -0.0937 -0.4711 -0.434 -0.873 0.221 65 52 36 0 0
-0.1296 -0.0947 -0.4755 -0.350 -0.602 0.718 53 45 30 0 0
-0.1382 -0.1077 -0.4913 -0.508 -0.741 0.439 96 82 57 0 0
-0.1404 -0.1102 -0.5014 -0.407 -0.854 0.325 94 81 61 0 0
-0.1446 -0.1157 -0.5164 -0.221 -0.937 0.270 48 34 20 0 0
-0.1447 -0.1156 -0.5181 -0.385 -0.899 0.208 58 42 24 0 0
-0.1449 -0.1158 -0.5196 -0.385 -0.899 0.208 94 80 55 0 0
-0.1457 -0.1167 -0.5241 -0.308 -0.861 0.404 67 45 23 0 0
-0.1462 -0.1172 -0.5272 -0.408 -0.892 0.196 90 73 50 0 0
-0.1465 -0.1174 -0.5287 -0.376 -0.889 0.263 98 82 57 0 0
-0.1482 -0.1192 -0.5377 -0.275 -0.947 0.167 100 86 59 0 0
-0.1478 -0.1109 -0.5968 -0.340 -0.923 0.178 86 73 54 0 0
-0.1486 -0.1099 -0.6153 -0.049 -0.995 -0.082 84 74 58 0 0
-0.1338 -0.0771 -0.6691 -0.506 -0.821 -0.265 13 12 10 0 0
-0.1342 -0.0763 -0.6812 -0.291 -0.954 -0.072 10 9 7 0 0
-0.1335 -0.0729 -0.6973 -0.540 -0.740 0.400 15 11 10 0 0
-0.1338 -0.0733 -0.6990 -0.572 -0.768 0.286 15 11 9 0 0
-0.1343 -0.0739 -0.7005 -0.425 -0.804 0.416 18 15 10 0 0
-0.1389 -0.0813 -0.7063 -0.778 -0.439 0.450 44 37 29 0 0
-0.1497 -0.1011 -0.7000 -0.464 -0.866 -0.188 35 31 26 0 0
-0.1495 -0.1003 -0.7026 -0.623 -0.781 -0.031 44 36 33 0 0
-0.1487 -0.0984 -0.7060 0.050 -0.443 0.895 47 40 32 0 0
-0.1496 -0.1000 -0.7066 -0.101 -0.459 0.882 56 49 39 0 0
-0.1618 -0.1205 -0.7126 -0.383 -0.447 0.808 134 116 82 0 0
-0.1659 -0.1166 -0.7989 -0.199 -0.744 0.638 137 113 77 0 0
-0.1683 -0.1196 -0.8082 -0.615 -0.732 0.294 67 54 34 0 0
-0.1685 -0.1197 -0.8101 -0.577 -0.737 0.353 63 50 31 0 0
-0.1689 -0.1202 -0.8117 -0.602 -0.715 0.357 61 45 29 0 0
-0.1693 -0.1208 -0.8132 -0.617 -0.722 0.313 59 43 26 0 0
-0.1698 -0.1215 -0.8145 -0.495 -0.757 0.427 61 46 27 0 0
-0.1704 -0.1223 -0.8158 -0.501 -0.706 0.499 66 51 30 0 0
-0.1719 -0.1244 -0.8199 -0.736 -0.579 0.352 78 58 33 0 0
-0.1808 -0.1354 -0.8564 -0.287 -0.926 0.247 91 79 55 0 0
-0.1813 -0.1361 -0.8577 -0.268 -0.894 0.358 75 68 49 0 0
-0.1817 -0.1366 -0.8593 -0.292 -0.939 0.182 61 56 43 0 0
-0.1818 -0.1365 -0.8616 -0.231 -0.833 0.503 77 71 59 0 0
-0.1823 -0.1371 -0.8630 -0.292 -0.939 0.182 105 101 91 0 0
-0.1832 -0.1370 -0.8757 -0.301 0.264 0.916 184 182 183 0 0
-0.0746 -0.0247 -0.2480 -0.259 -0.867 0.426 70 63 46 0 0
-0.0753 -0.0257 -0.2492 -0.419 -0.752 0.509 81 72 54 0 0
-0.0823 -0.0356 -0.2672 -0.414 -0.839 0.354 91 80 63 0 0
-0.0871 -0.0417 -0.2862 -0.566 -0.812 0.141 29 20 15 0 0
-0.0944 -0.0513 -0.3101 -0.344 -0.864 0.367 69 55 42 0 0
-0.0969 -0.0543 -0.3211 -0.286 -0.908 0.306 95 83 65 0 0
-0.0985 -0.0561 -0.3281 -0.433 -0.741 0.513 69 60 42 0 0
-0.0990 -0.0567 -0.3309 -0.252 -0.898 0.361 49 42 27 0 0
-0.0997 -0.0576 -0.3337 -0.378 -0.790 0.482 80 71 53 0 0
-0.1020 -0.0608 -0.3401 -0.243 -0.888 0.390 86 73 54 0 0
-0.1023 -0.0612 -0.3415 -0.261 -0.822 0.507 79 67 46 0 0
-0.1033 -0.0610 -0.3554 -0.352 -0.936 0.001 39 30 21 0 0
-0.1293 -0.1038 -0.3777 -0.604 -0.579 0.547 53 37 22 0 0
-0.1297 -0.1044 -0.3789 -0.572 -0.749 0.335 47 30 16 0 0
-0.1289 -0.1027 -0.3812 -0.638 -0.717 0.281 63 47 26 0 0
-0.1266 -0.0950 -0.4092 -0.552 -0.805 -0.217 90 76 51 0 0
-0.1294 -0.0946 -0.4507 -0.622 -0.658 0.425 36 23 14 0 0
-0.1304 -0.0959 -0.4532 -0.385 -0.837 0.390 46 34 22 0 0
-0.1306 -0.0961 -0.4547 -0.493 -0.628 0.602 40 26 12 0 0
-0.1311 -0.0969 -0.4559 -0.493 -0.628 0.602 43 26 12 0 0
-0.1306 -0.0954 -0.4600 -0.371 -0.918 0.140 66 48 30 0 0
-0.1371 -0.1034 -0.4866 -0.384 -0.853 0.354 112 99 68 0 0
-0.1402 -0.1077 -0.4957 -0.354 -0.784 0.509 132 119 91 0 0
-0.1408 -0.1085 -0.4969 -0.242 -0.870 0.430 93 81 58 0 0
-0.1424 -0.1109 -0.5004 -0.288 -0.871 0.398 96 83 64 0 0
-0.1444 -0.1136 -0.5054 -0.204 -0.865 0.458 61 49 36 0 0
-0.1458 -0.1148 -0.5164 -0.459 -0.869 0.184 67 50 34 0 0
-0.1459 -0.1148 -0.5180 -0.462 -0.867 0.188 73 55 33 0 0
-0.1461 -0.1149 -0.5197 -0.324 -0.905 0.278 103 86 61 0 0
-0.1465 -0.1154 -0.5210 -0.299 -0.847 0.440 92 74 50 0 0
-0.1493 -0.1184 -0.5359 -0.298 -0.926 0.233 115 99 73 0 0
-0.1496 -0.1187 -0.5374 -0.298 -0.926 0.233 104 88 62 0 0
-0.1492 -0.1105 -0.5946 0.063 -0.916 0.396 102 87 65 0 0
-0.1489 -0.1098 -0.5969 -0.172 -0.949 0.265 81 68 49 0 0
-0.1493 -0.1101 -0.5984 -0.172 -0.949 0.265 74 61 42 0 0
-0.1498 -0.1110 -0.5996 -0.274 -0.936 0.220 73 60 42 0 0
-0.1349 -0.0757 -0.6694 -0.452 -0.884 -0.119 12 11 9 0 0
-0.1351 -0.0758 -0.6713 -0.395 -0.919 0.017 15 13 11 0 0
