ply
format ascii 1.0
element vertex 834
property float x
property float y
property float z
property float nx
property float ny
property float nz
property uchar diffuse_red
property uchar diffuse_green
property uchar diffuse_blue
property uchar class
property uchar detection
end_header
0.0157 -0.0419 -0.1781 0.693 -0.461 0.555 171 156 111 0 0
0.0157 -0.0422 -0.1796 0.673 -0.367 0.642 168 147 104 0 0
0.0164 -0.0460 -0.2040 0.826 -0.401 0.395 113 94 60 0 0
0.0162 -0.0465 -0.2129 0.798 -0.585 0.147 116 100 66 0 0
0.0164 -0.0474 -0.2187 0.901 -0.390 0.189 111 96 62 0 0
0.0155 -0.0519 -0.2825 0.831 -0.541 0.131 112 99 66 0 0
-0.0357 0.0372 -0.4520 0.572 -0.758 0.313 58 49 40 0 0
-0.0329 0.0253 -0.5143 0.837 -0.547 0.008 83 71 45 0 0
-0.0330 0.0252 -0.5162 0.837 -0.547 0.008 77 65 39 0 0
-0.0330 0.0251 -0.5182 0.837 -0.547 0.008 78 67 39 0 0
-0.0404 0.0375 -0.5468 0.973 -0.231 0.023 87 74 47 0 0
-0.0393 0.0324 -0.5748 0.838 -0.473 0.272 88 84 75 0 0
-0.0389 0.0315 -0.5763 0.873 -0.366 0.322 99 93 84 0 0
-0.0386 0.0307 -0.5779 0.850 -0.380 0.364 97 90 80 0 0
-0.0389 0.0312 -0.5803 0.837 -0.457 0.301 85 78 66 0 0
-0.0387 0.0305 -0.5820 0.837 -0.457 0.301 76 68 55 0 0
-0.0386 0.0301 -0.5838 0.839 -0.475 0.265 79 72 62 0 0
-0.0255 -0.0085 -0.7016 0.939 -0.333 0.088 43 36 27 0 0
-0.0248 -0.0104 -0.7068 0.610 -0.697 0.377 60 54 42 0 0
-0.0203 -0.0202 -0.7106 0.226 -0.709 0.668 111 100 80 0 0
-0.0198 -0.0213 -0.7120 0.226 -0.709 0.668 112 100 81 0 0
-0.0020 -0.0630 -0.7606 0.815 -0.510 0.274 157 137 100 0 0
-0.0018 -0.0636 -0.7645 0.745 -0.646 0.166 151 131 94 0 0
-0.0017 -0.0641 -0.7663 0.719 -0.684 0.119 148 129 90 0 0
-0.0021 -0.0651 -0.7855 0.738 -0.669 0.092 171 150 107 0 0
-0.0019 -0.0656 -0.7874 0.842 -0.391 0.371 174 155 109 0 0
-0.0094 -0.0562 -0.8485 0.772 -0.571 -0.279 134 121 90 0 0
-0.0104 -0.0549 -0.8544 0.816 -0.505 -0.282 82 76 57 0 0
-0.0102 -0.0553 -0.8564 0.863 -0.406 -0.299 46 45 34 0 0
-0.0119 -0.0528 -0.8658 0.892 -0.411 -0.188 51 47 40 0 0
-0.0125 -0.0521 -0.8712 0.929 -0.360 -0.091 101 100 95 0 0
-0.0086 -0.0602 -0.8708 0.622 -0.320 0.714 150 149 145 0 0
0.0139 -0.0412 -0.1739 0.221 -0.764 0.607 181 165 117 0 0
0.0140 -0.0416 -0.1753 0.393 -0.595 0.701 181 165 116 0 0
0.0146 -0.0430 -0.1765 0.593 -0.523 0.612 185 171 124 0 0
0.0146 -0.0432 -0.1780 0.534 -0.497 0.684 160 144 100 0 0
0.0147 -0.0436 -0.1794 0.673 -0.367 0.642 162 143 100 0 0
0.0146 -0.0434 -0.1809 0.725 -0.321 0.610 166 147 101 0 0
0.0144 -0.0431 -0.1824 0.602 -0.682 0.416 166 148 100 0 0
0.0138 -0.0420 -0.1841 0.846 -0.456 0.276 151 131 89 0 0
0.0156 -0.0470 -0.1964 0.893 -0.449 0.031 133 117 79 0 0
0.0156 -0.0491 -0.2169 0.950 -0.302 0.081 103 89 58 0 0
0.0159 -0.0524 -0.2435 0.865 -0.442 0.238 99 86 55 0 0
0.0155 -0.0545 -0.2739 0.924 -0.383 0.013 103 89 56 0 0
0.0147 -0.0544 -0.2882 0.848 -0.529 0.012 109 96 64 0 0
-0.0376 0.0372 -0.4503 0.512 -0.818 0.263 45 37 31 0 0
-0.0375 0.0367 -0.4521 0.512 -0.818 0.263 50 41 35 0 0
-0.0416 0.0357 -0.5482 0.982 -0.189 -0.026 88 74 46 0 0
-0.0445 0.0395 -0.5688 -0.146 -0.962 0.231 81 72 50 0 0
-0.0443 0.0390 -0.5706 -0.055 -0.992 0.112 78 70 50 0 0
-0.0415 0.0333 -0.5694 0.149 -0.984 -0.099 67 61 41 0 0
-0.0410 0.0319 -0.5728 0.582 -0.785 0.210 68 64 50 0 0
-0.0370 0.0203 -0.6076 0.700 -0.713 0.040 86 80 69 0 0
-0.0379 0.0215 -0.6146 0.947 0.001 0.321 80 73 62 0 0
-0.0262 -0.0121 -0.7083 0.262 -0.664 0.700 52 47 36 0 0
-0.0154 -0.0351 -0.7174 0.134 -0.154 0.979 117 103 84 0 0
-0.0031 -0.0673 -0.7866 0.540 -0.739 0.404 176 158 112 0 0
-0.0033 -0.0671 -0.7890 0.528 -0.849 0.028 182 164 118 0 0
-0.0110 -0.0577 -0.8525 0.897 -0.380 -0.225 99 92 67 0 0
-0.0113 -0.0573 -0.8552 0.889 -0.390 -0.240 59 56 40 0 0
-0.0138 -0.0535 -0.8683 0.845 -0.400 -0.355 62 60 55 0 0
-0.0099 -0.0616 -0.8701 0.787 -0.414 0.458 144 143 139 0 0
-0.0093 -0.0629 -0.8712 0.519 -0.271 0.811 157 153 150 0 0
0.0127 -0.0422 -0.1738 0.460 -0.467 0.755 190 173 127 0 0
0.0128 -0.0432 -0.1824 -0.023 -0.902 0.432 180 164 117 0 0
0.0152 -0.0544 -0.2446 0.865 -0.442 0.238 117 103 73 0 0
0.0147 -0.0563 -0.2720 0.924 -0.383 0.013 112 98 65 0 0
0.0147 -0.0564 -0.2735 0.924 -0.383 0.013 101 86 53 0 0
0.0141 -0.0558 -0.2800 0.875 -0.465 -0.135 104 91 59 0 0
-0.0072 -0.0225 -0.3849 0.953 -0.287 0.095 120 103 77 0 0
-0.0072 -0.0229 -0.3866 0.953 -0.287 0.095 103 86 61 0 0
-0.0071 -0.0232 -0.3882 0.956 -0.270 0.112 114 97 72 0 0
-0.0070 -0.0239 -0.3932 0.821 -0.571 -0.020 95 81 52 0 0
-0.0071 -0.0239 -0.3949 0.793 -0.599 -0.114 104 90 62 0 0
-0.0388 0.0364 -0.4426 0.574 -0.769 -0.281 6 4 6 0 0
-0.0408 0.0270 -0.5766 0.850 -0.380 0.364 92 84 68 0 0
-0.0401 0.0254 -0.5798 0.850 -0.380 0.364 79 67 50 0 0
-0.0401 0.0250 -0.5816 0.831 -0.471 0.296 72 60 43 0 0
-0.0407 0.0260 -0.5843 0.596 -0.775 -0.212 70 58 41 0 0
-0.0384 0.0192 -0.6052 0.757 -0.483 0.439 97 89 80 0 0
-0.0381 0.0184 -0.6068 0.742 -0.587 0.324 96 88 79 0 0
-0.0379 0.0178 -0.6086 0.714 -0.677 0.180 90 83 75 0 0
-0.0375 0.0168 -0.6101 0.883 -0.445 0.147 82 76 67 0 0
-0.0373 0.0163 -0.6118 0.920 -0.314 0.233 80 73 61 0 0
-0.0373 0.0160 -0.6138 0.887 -0.173 0.428 88 80 66 0 0
-0.0269 -0.0077 -0.6387 0.569 -0.803 0.177 69 57 42 0 0
-0.0279 -0.0127 -0.7083 0.759 -0.542 0.361 43 36 26 0 0
-0.0231 -0.0228 -0.7118 0.716 -0.111 0.689 121 107 90 0 0
-0.0216 -0.0261 -0.7138 0.920 -0.368 0.133 113 98 79 0 0
-0.0208 -0.0278 -0.7147 0.913 -0.171 0.370 114 101 82 0 0
-0.0059 -0.0597 -0.7272 0.716 -0.679 0.162 120 105 77 0 0
-0.0059 -0.0601 -0.7291 0.716 -0.679 0.162 126 109 78 0 0
-0.0045 -0.0638 -0.7392 0.625 -0.779 -0.054 171 153 114 0 0
-0.0049 -0.0675 -0.7847 0.335 -0.927 0.166 178 160 115 0 0
-0.0046 -0.0684 -0.7862 0.644 -0.748 0.161 183 165 119 0 0
-0.0049 -0.0681 -0.7887 0.289 -0.957 0.026 180 162 116 0 0
-0.0050 -0.0681 -0.7909 0.518 -0.855 -0.034 182 164 118 0 0
-0.0053 -0.0682 -0.7976 0.665 -0.747 0.020 174 156 110 0 0
-0.0053 -0.0684 -0.7998 0.769 -0.632 0.097 176 158 112 0 0
-0.0145 -0.0563 -0.8687 0.901 -0.340 -0.270 74 74 66 0 0
-0.0107 -0.0644 -0.8705 0.635 -0.311 0.708 150 147 144 0 0
0.0129 -0.0461 -0.1760 0.754 -0.255 0.605 189 172 125 0 0
0.0144 -0.0555 -0.2367 0.380 -0.922 0.079 105 90 57 0 0
0.0145 -0.0558 -0.2382 0.643 -0.757 0.114 103 88 55 0 0
0.0141 -0.0556 -0.2428 0.567 -0.775 0.279 115 100 69 0 0
0.0142 -0.0559 -0.2443 0.763 -0.646 0.013 121 104 74 0 0
0.0142 -0.0560 -0.2458 0.763 -0.646 0.013 118 102 73 0 0
0.0141 -0.0560 -0.2473 0.763 -0.646 0.013 106 91 62 0 0
0.0145 -0.0569 -0.2486 0.920 -0.254 0.300 110 95 66 0 0
0.0148 -0.0585 -0.2575 0.760 -0.650 -0.016 105 91 61 0 0
0.0148 -0.0585 -0.2590 0.760 -0.650 -0.016 105 91 62 0 0
0.0147 -0.0585 -0.2605 0.760 -0.650 -0.016 109 95 65 0 0
0.0144 -0.0588 -0.2698 0.889 -0.459 -0.013 114 101 67 0 0
0.0143 -0.0588 -0.2713 0.889 -0.459 -0.013 114 101 68 0 0
0.0134 -0.0578 -0.2795 0.905 -0.418 -0.083 102 89 57 0 0
-0.0080 -0.0249 -0.3859 0.821 -0.570 0.024 143 125 92 0 0
-0.0078 -0.0254 -0.3875 0.737 -0.655 -0.169 119 102 73 0 0
-0.0080 -0.0252 -0.3893 0.702 -0.711 -0.048 103 87 61 0 0
-0.0081 -0.0252 -0.3911 0.702 -0.711 -0.048 118 103 76 0 0
-0.0082 -0.0252 -0.3928 0.641 -0.761 -0.095 98 84 56 0 0
-0.0401 0.0351 -0.4423 0.664 -0.724 -0.189 12 11 7 0 0
-0.0349 0.0198 -0.4871 0.829 -0.485 0.279 92 80 55 0 0
-0.0347 0.0194 -0.4888 0.649 -0.631 0.425 91 79 54 0 0
-0.0350 0.0195 -0.4927 0.748 -0.656 0.101 92 78 52 0 0
-0.0345 0.0181 -0.4959 0.753 -0.603 0.265 107 93 68 0 0
-0.0412 0.0232 -0.5809 0.777 -0.622 0.096 69 58 40 0 0
-0.0418 0.0242 -0.5836 0.588 -0.777 -0.226 70 59 41 0 0
-0.0401 0.0185 -0.6052 0.229 -0.422 0.877 98 89 75 0 0
-0.0393 0.0168 -0.6063 0.586 -0.497 0.640 100 92 79 0 0
-0.0385 0.0150 -0.6073 0.794 -0.269 0.545 92 84 72 0 0
-0.0226 -0.0283 -0.7127 0.733 -0.492 0.470 114 98 80 0 0
-0.0219 -0.0298 -0.7137 0.885 -0.253 0.391 116 103 84 0 0
-0.0068 -0.0626 -0.7320 0.575 -0.817 0.045 149 130 96 0 0
-0.0059 -0.0655 -0.7427 0.807 -0.588 0.056 166 148 108 0 0
-0.0070 -0.0669 -0.7792 0.644 -0.762 0.060 170 151 109 0 0
-0.0070 -0.0670 -0.7812 0.644 -0.762 0.060 176 157 114 0 0
-0.0065 -0.0684 -0.7845 0.544 -0.833 0.100 182 163 119 0 0
-0.0066 -0.0685 -0.7867 0.431 -0.889 0.153 181 163 117 0 0
-0.0062 -0.0694 -0.7882 0.593 -0.805 -0.015 170 152 106 0 0
-0.0062 -0.0696 -0.7903 0.625 -0.781 -0.009 178 160 114 0 0
-0.0065 -0.0698 -0.7991 0.778 -0.626 0.048 175 157 111 0 0
-0.0148 -0.0600 -0.8683 0.921 -0.390 -0.028 84 83 78 0 0
0.0097 -0.1099 -0.8671 0.551 -0.792 -0.263 197 193 190 0 0
0.0103 -0.1113 -0.8680 0.865 -0.485 -0.127 198 194 191 0 0
-0.0004 -0.0196 -0.1485 0.379 -0.890 0.251 178 178 178 0 0
0.0119 -0.0471 -0.1715 0.539 -0.258 0.802 195 179 135 0 0
0.0131 -0.0518 -0.1926 0.876 -0.372 0.308 139 123 85 0 0
0.0131 -0.0563 -0.2382 0.458 -0.845 0.276 110 95 63 0 0
0.0131 -0.0566 -0.2396 0.389 -0.918 -0.081 105 90 59 0 0
0.0130 -0.0566 -0.2412 0.596 -0.802 0.039 116 100 70 0 0
0.0129 -0.0564 -0.2427 0.583 -0.755 0.301 115 99 69 0 0
0.0131 -0.0571 -0.2441 0.914 -0.397 0.085 115 99 68 0 0
0.0133 -0.0577 -0.2470 0.933 -0.347 0.100 117 101 72 0 0
0.0111 -0.0589 -0.3015 0.830 -0.551 0.091 117 101 70 0 0
-0.0088 -0.0269 -0.3854 0.776 -0.623 -0.101 132 114 78 0 0
-0.0437 0.0251 -0.5721 0.853 -0.404 0.331 62 53 40 0 0
-0.0438 0.0251 -0.5742 0.827 -0.349 0.441 69 61 47 0 0
-0.0434 0.0241 -0.5757 0.778 -0.445 0.444 89 79 62 0 0
-0.0405 0.0154 -0.6037 0.777 -0.368 0.511 87 78 59 0 0
-0.0390 0.0119 -0.6079 0.900 -0.233 0.367 94 86 68 0 0
-0.0301 -0.0087 -0.6326 0.752 -0.267 0.603 139 123 97 0 0
-0.0243 -0.0288 -0.7128 0.586 -0.309 0.749 115 100 82 0 0
-0.0235 -0.0306 -0.7137 0.891 -0.389 0.234 117 104 85 0 0
-0.0156 -0.0472 -0.7185 0.307 -0.291 0.906 106 94 78 0 0
-0.0146 -0.0493 -0.7191 0.512 -0.414 0.753 106 92 74 0 0
-0.0077 -0.0707 -0.7899 0.625 -0.781 -0.009 178 160 114 0 0
-0.0160 -0.0617 -0.8674 0.912 -0.372 -0.175 66 65 61 0 0
0.0085 -0.1114 -0.8663 0.899 -0.411 -0.152 197 193 190 0 0
0.0083 -0.1114 -0.8686 0.878 -0.466 -0.108 197 193 190 0 0
-0.0014 -0.0212 -0.1497 0.162 -0.829 0.535 178 178 177 0 0
0.0014 -0.0273 -0.1546 -0.399 -0.641 0.656 97 89 76 0 0
0.0123 -0.0535 -0.1923 0.888 -0.306 0.343 138 121 82 0 0
-0.0417 0.0296 -0.4499 0.822 -0.564 0.085 49 42 32 0 0
-0.0414 0.0288 -0.4515 0.845 -0.508 0.168 56 49 39 0 0
-0.0412 0.0283 -0.4532 0.657 -0.746 0.106 42 35 25 0 0
-0.0344 -0.0032 -0.6239 0.773 -0.491 0.402 60 50 39 0 0
-0.0341 -0.0040 -0.6255 0.773 -0.491 0.402 62 54 44 0 0
-0.0331 -0.0061 -0.6263 0.719 -0.583 0.379 85 74 60 0 0
-0.0328 -0.0069 -0.6279 0.551 -0.714 0.432 109 95 75 0 0
-0.0327 -0.0073 -0.6297 0.367 -0.770 0.522 118 104 79 0 0
-0.0324 -0.0081 -0.6313 0.408 -0.771 0.489 130 114 89 0 0
-0.0321 -0.0090 -0.6328 0.332 -0.707 0.624 139 124 96 0 0
-0.0317 -0.0098 -0.6344 0.439 -0.580 0.686 127 111 86 0 0
-0.0269 -0.0225 -0.6618 0.796 -0.575 0.188 138 122 91 0 0
-0.0270 -0.0224 -0.6640 0.851 -0.374 0.369 144 128 96 0 0
-0.0235 -0.0349 -0.7153 0.828 -0.462 0.318 114 98 82 0 0
0.0060 -0.1109 -0.8698 0.748 -0.647 0.151 198 194 191 0 0
-0.0034 -0.0209 -0.1527 -0.161 -0.318 0.934 177 175 169 0 0
0.0059 -0.0397 -0.1540 0.836 -0.076 0.544 125 117 105 0 0
0.0110 -0.0635 -0.2813 0.874 -0.466 0.135 111 98 66 0 0
-0.0093 -0.0330 -0.3816 0.658 -0.752 0.041 80 69 45 0 0
-0.0093 -0.0331 -0.3833 0.658 -0.752 0.041 101 89 67 0 0
-0.0093 -0.0332 -0.3850 0.658 -0.752 0.041 93 84 61 0 0
-0.0093 -0.0333 -0.3867 0.621 -0.783 -0.034 95 87 64 0 0
-0.0095 -0.0331 -0.3885 0.563 -0.826 -0.041 94 86 63 0 0
-0.0386 0.0023 -0.6132 0.612 -0.593 0.523 98 85 65 0 0
-0.0382 0.0013 -0.6147 0.585 -0.626 0.516 109 94 71 0 0
-0.0337 -0.0088 -0.6250 0.856 -0.356 0.375 69 62 49 0 0
-0.0331 -0.0104 -0.6282 0.767 -0.517 0.380 116 102 80 0 0
-0.0331 -0.0107 -0.6301 0.726 -0.526 0.443 126 111 85 0 0
-0.0326 -0.0119 -0.6314 0.795 -0.365 0.485 139 123 96 0 0
-0.0277 -0.0278 -0.6885 0.858 -0.413 -0.306 76 67 51 0 0
-0.0180 -0.0665 -0.8714 0.911 -0.408 -0.063 113 112 108 0 0
-0.0189 -0.0652 -0.8750 0.886 -0.460 0.061 132 129 126 0 0
-0.0007 -0.0293 -0.1485 0.972 -0.212 0.100 178 178 177 0 0
0.0017 -0.0343 -0.1506 0.632 -0.060 0.773 177 175 169 0 0
0.0030 -0.0370 -0.1516 0.616 -0.079 0.784 152 144 132 0 0
0.0051 -0.0414 -0.1523 0.739 -0.256 0.623 120 112 97 0 0
0.0057 -0.0427 -0.1535 0.739 -0.256 0.623 123 116 100 0 0
-0.0104 -0.0345 -0.3829 0.735 -0.675 0.066 70 62 45 0 0
-0.0104 -0.0346 -0.3846 0.748 -0.660 -0.061 63 54 38 0 0
-0.0105 -0.0346 -0.3864 0.748 -0.660 -0.061 47 37 21 0 0
-0.0399 0.0159 -0.4690 0.496 -0.633 0.594 134 115 88 0 0
-0.0393 0.0147 -0.4704 0.622 -0.698 0.355 123 105 79 0 0
-0.0391 0.0141 -0.4720 0.776 -0.550 0.309 88 74 53 0 0
-0.0389 0.0135 -0.4736 0.776 -0.550 0.309 102 88 65 0 0
-0.0452 0.0157 -0.5720 0.807 -0.537 0.246 79 69 53 0 0
-0.0431 0.0110 -0.5774 0.563 -0.814 0.142 65 57 38 0 0
-0.0361 -0.0076 -0.6200 0.874 -0.075 0.479 87 75 60 0 0
-0.0344 -0.0119 -0.6276 0.767 -0.517 0.380 112 101 78 0 0
-0.0299 -0.0221 -0.6377 0.712 -0.507 0.487 106 93 69 0 0
-0.0297 -0.0240 -0.6532 0.639 -0.770 0.000 120 106 77 0 0
-0.0087 -0.0782 -0.7652 0.669 -0.728 0.149 153 131 91 0 0
-0.0087 -0.0786 -0.7693 0.763 -0.602 0.234 172 151 107 0 0
-0.0164 -0.0719 -0.8505 0.869 -0.410 -0.277 92 84 61 0 0
-0.0198 -0.0671 -0.8715 0.902 -0.433 -0.005 101 100 95 0 0
-0.0199 -0.0672 -0.8738 0.902 -0.433 -0.005 120 118 114 0 0
-0.0202 -0.0668 -0.8766 0.762 -0.307 0.570 137 136 132 0 0
0.0002 -0.1076 -0.8722 0.049 -0.903 -0.426 197 193 190 0 0
-0.0007 -0.0325 -0.1480 0.997 -0.063 -0.053 178 178 178 0 0
0.0011 -0.0364 -0.1503 0.632 -0.060 0.773 180 177 172 0 0
0.0024 -0.0390 -0.1513 0.616 -0.079 0.784 160 155 145 0 0
0.0043 -0.0431 -0.1521 0.739 -0.256 0.623 131 124 107 0 0
0.0103 -0.0605 -0.2029 0.773 -0.613 0.161 129 112 76 0 0
0.0100 -0.0665 -0.2635 0.749 -0.639 -0.175 112 99 67 0 0
0.0052 -0.0622 -0.3139 0.801 -0.346 -0.488 127 114 89 0 0
0.0045 -0.0610 -0.3160 0.705 -0.361 -0.611 101 89 65 0 0
-0.0115 -0.0360 -0.3843 0.748 -0.660 -0.061 82 73 58 0 0
-0.0116 -0.0359 -0.3860 0.748 -0.660 -0.061 85 76 62 0 0
-0.0118 -0.0359 -0.3878 0.844 -0.532 0.071 71 60 44 0 0
-0.0453 0.0246 -0.4523 0.954 -0.061 0.295 64 56 48 0 0
-0.0399 0.0116 -0.4730 0.579 -0.725 0.373 95 82 58 0 0
-0.0435 0.0048 -0.6052 0.756 -0.347 0.555 114 102 79 0 0
-0.0430 0.0037 -0.6066 0.756 -0.347 0.555 139 123 96 0 0
-0.0425 0.0026 -0.6079 0.756 -0.347 0.555 140 123 91 0 0
-0.0420 0.0014 -0.6093 0.756 -0.347 0.555 126 110 80 0 0
-0.0416 0.0004 -0.6108 0.744 -0.556 0.371 110 97 71 0 0
-0.0414 -0.0003 -0.6124 0.744 -0.556 0.371 100 88 65 0 0
-0.0405 -0.0024 -0.6153 0.733 -0.470 0.492 106 94 71 0 0
-0.0370 -0.0098 -0.6190 0.853 -0.052 0.519 75 65 51 0 0
-0.0358 -0.0129 -0.6253 0.609 -0.644 0.463 79 69 52 0 0
-0.0319 -0.0217 -0.6342 0.691 -0.648 0.320 83 71 52 0 0
-0.0315 -0.0225 -0.6357 0.665 -0.607 0.435 99 86 66 0 0
-0.0312 -0.0233 -0.6373 0.665 -0.607 0.435 100 87 67 0 0
-0.0310 -0.0240 -0.6389 0.692 -0.720 0.057 98 86 66 0 0
-0.0310 -0.0244 -0.6429 0.651 -0.753 0.097 108 97 75 0 0
-0.0310 -0.0246 -0.6448 0.651 -0.753 0.097 106 94 72 0 0
-0.0289 -0.0357 -0.7097 0.844 -0.215 0.492 105 93 78 0 0
-0.0129 -0.0687 -0.7169 0.808 0.067 0.585 118 103 81 0 0
-0.0095 -0.0792 -0.7518 0.897 -0.408 0.171 151 132 92 0 0
-0.0100 -0.0798 -0.7667 0.726 -0.687 0.034 150 130 93 0 0
-0.0100 -0.0800 -0.7687 0.777 -0.568 0.272 156 136 95 0 0
-0.0099 -0.0815 -0.7808 0.708 -0.702 -0.080 181 163 117 0 0
-0.0175 -0.0739 -0.8516 0.876 -0.419 -0.238 73 69 51 0 0
-0.0198 -0.0713 -0.8706 0.897 -0.374 0.238 109 107 104 0 0
-0.0174 -0.0759 -0.8686 0.811 -0.331 0.483 128 127 123 0 0
-0.0170 -0.0769 -0.8700 0.811 -0.331 0.483 144 143 139 0 0
-0.0162 -0.0785 -0.8708 0.716 -0.274 0.642 154 153 151 0 0
-0.0160 -0.0791 -0.8726 0.828 -0.344 0.444 164 163 162 0 0
-0.0122 -0.0869 -0.8745 0.300 0.321 0.898 183 182 178 0 0
0.0017 -0.1134 -0.8603 -0.283 -0.959 -0.029 193 191 188 0 0
0.0078 -0.0556 -0.1731 0.675 -0.256 0.692 220 204 156 0 0
0.0080 -0.0562 -0.1744 0.309 -0.325 0.894 215 199 153 0 0
0.0082 -0.0568 -0.1758 0.307 -0.352 0.884 214 198 148 0 0
0.0091 -0.0587 -0.1768 0.227 -0.352 0.908 203 185 135 0 0
0.0097 -0.0601 -0.1795 0.878 -0.155 0.453 191 171 126 0 0
0.0097 -0.0626 -0.2025 0.589 -0.802 0.097 134 117 82 0 0
0.0093 -0.0619 -0.2041 0.705 -0.681 0.197 145 128 89 0 0
0.0106 -0.0667 -0.2239 0.749 -0.626 0.219 116 101 68 0 0
0.0114 -0.0685 -0.2264 0.761 -0.596 0.257 103 88 57 0 0
-0.0121 -0.0376 -0.3769 0.740 -0.625 0.249 58 48 31 0 0
-0.0128 -0.0374 -0.3874 0.844 -0.532 0.071 68 59 42 0 0
-0.0429 0.0147 -0.4633 0.750 -0.515 0.415 77 65 49 0 0
-0.0447 0.0092 -0.5487 0.461 -0.827 0.323 103 91 66 0 0
-0.0445 0.0087 -0.5504 0.461 -0.827 0.323 100 87 62 0 0
-0.0442 0.0079 -0.5520 0.249 -0.897 0.364 101 87 63 0 0
-0.0459 0.0102 -0.5614 0.550 -0.835 -0.014 90 79 59 0 0
-0.0436 0.0011 -0.6033 0.895 -0.422 0.145 104 92 70 0 0
-0.0441 0.0017 -0.6058 0.707 -0.589 0.392 119 106 79 0 0
-0.0438 0.0010 -0.6074 0.707 -0.589 0.392 140 124 94 0 0
-0.0433 -0.0001 -0.6088 0.587 -0.442 0.678 134 118 90 0 0
-0.0427 -0.0014 -0.6101 0.587 -0.442 0.678 114 101 75 0 0
-0.0422 -0.0028 -0.6134 0.697 -0.565 0.442 94 82 60 0 0
-0.0418 -0.0037 -0.6149 0.563 -0.693 0.451 95 83 61 0 0
-0.0390 -0.0095 -0.6154 0.539 -0.257 0.802 128 112 86 0 0
-0.0378 -0.0121 -0.6179 0.866 -0.142 0.479 68 59 42 0 0
-0.0370 -0.0141 -0.6208 0.863 -0.453 0.223 63 57 44 0 0
-0.0368 -0.0146 -0.6226 0.863 -0.453 0.223 66 59 47 0 0
-0.0333 -0.0229 -0.6338 0.691 -0.648 0.320 84 72 53 0 0
-0.0328 -0.0240 -0.6352 0.521 -0.771 0.366 88 75 56 0 0
-0.0326 -0.0246 -0.6369 0.521 -0.771 0.366 84 71 52 0 0
-0.0323 -0.0253 -0.6385 0.370 -0.717 0.591 81 68 49 0 0
-0.0319 -0.0262 -0.6400 0.541 -0.741 0.398 88 76 54 0 0
-0.0319 -0.0266 -0.6419 0.565 -0.813 0.140 104 92 70 0 0
-0.0307 -0.0362 -0.7099 0.511 -0.280 0.813 93 82 69 0 0
-0.0295 -0.0391 -0.7143 0.575 -0.814 0.079 101 89 73 0 0
-0.0115 -0.0756 -0.7184 0.888 -0.417 0.193 161 140 102 0 0
-0.0107 -0.0812 -0.7551 0.775 -0.632 -0.012 161 140 100 0 0
-0.0110 -0.0822 -0.7697 0.814 -0.565 0.135 167 149 102 0 0
-0.0109 -0.0825 -0.7716 0.814 -0.565 0.135 174 156 108 0 0
-0.0112 -0.0830 -0.7801 0.673 -0.734 -0.087 179 161 115 0 0
-0.0182 -0.0764 -0.8499 0.925 -0.325 -0.199 98 92 70 0 0
-0.0208 -0.0734 -0.8693 0.906 -0.391 0.164 96 95 92 0 0
-0.0206 -0.0738 -0.8713 0.881 -0.321 0.346 117 116 112 0 0
-0.0185 -0.0779 -0.8697 0.847 -0.340 0.408 135 134 130 0 0
-0.0177 -0.0795 -0.8705 0.811 -0.331 0.483 149 148 146 0 0
-0.0169 -0.0820 -0.8776 0.200 0.148 0.969 180 179 175 0 0
0.0060 -0.0539 -0.1604 0.464 -0.669 0.581 217 200 159 0 0
0.0068 -0.0566 -0.1700 0.828 -0.507 0.238 231 216 167 0 0
0.0068 -0.0567 -0.1715 0.820 -0.240 0.520 232 219 169 0 0
0.0064 -0.0562 -0.1730 0.915 -0.347 0.208 228 215 166 0 0
0.0090 -0.0655 -0.2123 0.419 -0.826 0.376 102 88 55 0 0
0.0110 -0.0701 -0.2171 0.585 -0.586 0.561 126 113 78 0 0
0.0113 -0.0709 -0.2184 0.683 -0.431 0.590 126 113 76 0 0
0.0098 -0.0683 -0.2221 0.604 -0.693 0.393 110 95 61 0 0
0.0099 -0.0686 -0.2235 0.627 -0.644 0.439 110 95 63 0 0
0.0102 -0.0693 -0.2248 0.671 -0.635 0.382 110 95 64 0 0
0.0103 -0.0698 -0.2262 0.761 -0.596 0.257 112 97 66 0 0
-0.0130 -0.0389 -0.3714 0.633 -0.589 0.503 102 86 58 0 0
-0.0148 -0.0378 -0.3944 0.635 -0.753 -0.172 76 65 45 0 0
-0.0153 -0.0371 -0.3965 0.516 -0.734 -0.441 92 80 60 0 0
-0.0433 0.0044 -0.5304 0.472 -0.697 0.540 107 93 67 0 0
-0.0436 -0.0040 -0.6131 0.563 -0.693 0.451 89 77 56 0 0
-0.0433 -0.0047 -0.6147 0.563 -0.693 0.451 85 72 53 0 0
-0.0388 -0.0140 -0.6171 0.741 -0.302 0.600 88 78 56 0 0
-0.0381 -0.0158 -0.6201 0.844 -0.509 0.172 85 76 59 0 0
-0.0384 -0.0156 -0.6244 0.669 -0.470 0.576 70 61 46 0 0
-0.0287 -0.0414 -0.6828 0.591 -0.770 0.240 81 74 58 0 0
-0.0310 -0.0401 -0.7140 0.575 -0.814 0.079 93 81 67 0 0
-0.0285 -0.0455 -0.7164 0.273 -0.422 0.864 95 84 74 0 0
-0.0124 -0.0794 -0.7332 0.724 -0.689 0.012 133 113 79 0 0
-0.0120 -0.0819 -0.7486 0.746 -0.650 0.144 135 119 81 0 0
-0.0119 -0.0822 -0.7505 0.746 -0.650 0.144 127 110 74 0 0
-0.0119 -0.0825 -0.7524 0.748 -0.657 0.091 154 136 98 0 0
-0.0119 -0.0827 -0.7544 0.775 -0.632 -0.012 162 143 104 0 0
-0.0120 -0.0827 -0.7566 0.775 -0.632 -0.012 165 146 107 0 0
-0.0208 -0.0773 -0.8687 0.755 -0.353 0.552 106 105 101 0 0
-0.0203 -0.0785 -0.8699 0.752 -0.369 0.546 126 125 121 0 0
-0.0190 -0.0812 -0.8719 0.736 -0.417 0.533 154 152 151 0 0
-0.0123 -0.0941 -0.8665 0.300 0.039 0.953 177 176 172 0 0
-0.0125 -0.0939 -0.8691 0.474 0.093 0.876 181 180 176 0 0
0.0018 -0.0480 -0.1528 0.578 -0.564 0.590 154 147 132 0 0
0.0022 -0.0491 -0.1555 0.374 -0.728 0.575 91 78 56 0 0
0.0044 -0.0539 -0.1590 0.546 -0.701 0.459 225 210 179 0 0
0.0046 -0.0545 -0.1603 0.546 -0.701 0.459 210 194 157 0 0
0.0047 -0.0549 -0.1631 0.431 -0.900 0.065 201 180 132 0 0
0.0063 -0.0589 -0.1696 0.711 -0.404 0.575 232 217 168 0 0
0.0061 -0.0586 -0.1712 0.833 -0.250 0.494 236 222 175 0 0
0.0064 -0.0598 -0.1767 0.811 -0.205 0.549 216 203 153 0 0
0.0105 -0.0724 -0.2167 0.164 -0.914 0.371 132 118 83 0 0
0.0107 -0.0729 -0.2180 0.164 -0.914 0.371 128 113 79 0 0
0.0086 -0.0692 -0.2219 0.581 -0.723 0.374 99 84 52 0 0
0.0092 -0.0706 -0.2246 0.723 -0.598 0.345 113 98 66 0 0
0.0093 -0.0710 -0.2260 0.761 -0.596 0.257 111 96 64 0 0
0.0089 -0.0728 -0.2497 0.463 -0.603 0.650 106 92 59 0 0
0.0063 -0.0715 -0.2842 0.544 -0.780 0.310 125 110 75 0 0
0.0065 -0.0720 -0.2856 0.409 -0.684 0.604 125 111 75 0 0
0.0072 -0.0740 -0.2913 0.132 -0.964 0.231 103 92 61 0 0
0.0067 -0.0736 -0.2962 0.791 -0.599 -0.128 139 124 84 0 0
-0.0083 -0.0479 -0.3343 0.423 -0.651 -0.630 56 50 40 0 0
-0.0097 -0.0453 -0.3369 0.659 -0.606 -0.444 54 49 41 0 0
-0.0131 -0.0416 -0.3654 0.378 -0.913 -0.151 116 98 68 0 0
-0.0133 -0.0415 -0.3671 0.261 -0.961 -0.089 116 98 68 0 0
-0.0135 -0.0412 -0.3690 0.249 -0.890 0.381 112 95 67 0 0
-0.0144 -0.0407 -0.3795 0.829 -0.543 0.132 57 49 31 0 0
-0.0141 -0.0416 -0.3826 0.748 -0.649 0.139 75 69 56 0 0
-0.0159 -0.0393 -0.3940 0.613 -0.733 -0.297 76 66 46 0 0
-0.0197 -0.0325 -0.4022 0.362 -0.641 -0.677 80 71 53 0 0
-0.0393 0.0043 -0.4216 0.904 -0.057 -0.423 63 54 44 0 0
-0.0458 0.0152 -0.4413 0.972 -0.133 -0.196 63 52 38 0 0
-0.0411 0.0029 -0.4678 0.727 -0.576 0.375 85 74 54 0 0
-0.0408 0.0022 -0.4693 0.727 -0.576 0.375 104 91 70 0 0
-0.0413 0.0019 -0.4806 0.652 -0.725 0.222 98 86 62 0 0
-0.0411 0.0013 -0.4823 0.590 -0.806 0.049 90 76 52 0 0
-0.0411 0.0010 -0.4841 0.705 -0.709 -0.030 101 87 64 0 0
-0.0442 0.0039 -0.5147 0.644 -0.756 0.114 119 104 78 0 0
-0.0394 -0.0169 -0.6178 0.735 -0.347 0.583 112 98 74 0 0
-0.0392 -0.0175 -0.6195 0.849 -0.468 0.247 102 89 69 0 0
-0.0390 -0.0180 -0.6212 0.849 -0.468 0.247 82 68 52 0 0
-0.0397 -0.0171 -0.6239 0.378 -0.619 0.689 70 60 45 0 0
-0.0294 -0.0404 -0.6501 0.827 -0.562 0.024 105 92 68 0 0
-0.0290 -0.0431 -0.6672 0.899 -0.379 -0.217 106 93 65 0 0
-0.0290 -0.0438 -0.6730 0.943 -0.308 0.124 114 104 79 0 0
-0.0297 -0.0433 -0.6819 0.860 -0.447 0.246 85 78 59 0 0
-0.0327 -0.0404 -0.7099 0.608 -0.713 0.349 96 84 75 0 0
-0.0328 -0.0405 -0.7120 0.668 -0.742 0.053 93 81 70 0 0
-0.0328 -0.0407 -0.7141 0.668 -0.742 0.053 96 85 73 0 0
-0.0132 -0.0828 -0.7419 0.786 -0.596 0.165 154 135 96 0 0
-0.0132 -0.0833 -0.7479 0.775 -0.621 0.117 151 135 100 0 0
-0.0130 -0.0842 -0.7515 0.862 -0.464 0.204 136 119 84 0 0
-0.0229 -0.0774 -0.8692 0.882 -0.472 0.003 92 92 87 0 0
-0.0217 -0.0798 -0.8693 0.471 -0.325 0.820 114 113 109 0 0
-0.0208 -0.0816 -0.8699 0.731 -0.425 0.534 134 133 131 0 0
-0.0204 -0.0826 -0.8713 0.731 -0.425 0.534 148 146 144 0 0
-0.0002 -0.0471 -0.1501 0.695 -0.528 0.489 156 151 141 0 0
0.0070 -0.0673 -0.2046 0.831 -0.387 0.400 127 111 76 0 0
0.0080 -0.0698 -0.2085 0.626 -0.512 0.589 100 84 53 0 0
0.0096 -0.0738 -0.2164 0.630 -0.623 0.463 138 123 83 0 0
0.0075 -0.0703 -0.2218 0.492 -0.812 0.313 102 87 56 0 0
0.0075 -0.0734 -0.2497 0.633 -0.635 0.443 115 100 68 0 0
0.0079 -0.0744 -0.2509 0.665 -0.743 0.081 112 97 66 0 0
0.0079 -0.0745 -0.2524 0.592 -0.804 0.062 115 100 69 0 0
0.0053 -0.0727 -0.2840 0.710 -0.700 -0.073 123 108 75 0 0
0.0056 -0.0735 -0.2853 0.639 -0.676 0.368 129 114 81 0 0
0.0053 -0.0733 -0.2885 0.184 -0.896 0.404 119 106 72 0 0
-0.0116 -0.0453 -0.3387 0.671 -0.664 -0.329 87 80 64 0 0
-0.0151 -0.0417 -0.3690 0.211 -0.924 0.317 109 95 66 0 0
-0.0151 -0.0419 -0.3706 0.181 -0.958 0.223 114 96 68 0 0
-0.0150 -0.0422 -0.3722 0.261 -0.928 0.265 107 87 60 0 0
-0.0148 -0.0431 -0.3770 0.506 -0.863 0.006 83 71 48 0 0
-0.0151 -0.0427 -0.3789 0.614 -0.786 0.071 63 53 35 0 0
-0.0152 -0.0429 -0.3806 0.621 -0.766 0.166 57 49 35 0 0
-0.0171 -0.0404 -0.3938 0.613 -0.733 -0.297 96 86 69 0 0
-0.0387 -0.0004 -0.4198 0.904 -0.057 -0.423 68 60 49 0 0
-0.0459 0.0114 -0.4417 0.963 -0.223 -0.152 59 50 33 0 0
-0.0461 0.0117 -0.4437 0.963 -0.223 -0.152 56 46 34 0 0
-0.0467 0.0125 -0.4460 0.969 -0.054 0.243 36 28 20 0 0
-0.0425 0.0002 -0.4821 0.590 -0.806 0.049 89 77 53 0 0
-0.0424 -0.0001 -0.4838 0.776 -0.620 0.120 96 84 60 0 0
-0.0428 -0.0004 -0.4933 0.507 -0.861 -0.029 100 86 60 0 0
-0.0458 0.0015 -0.5296 0.649 -0.756 0.083 107 93 68 0 0
-0.0459 0.0013 -0.5334 0.629 -0.775 -0.068 96 83 59 0 0
-0.0457 0.0008 -0.5351 0.473 -0.855 -0.213 91 79 55 0 0
-0.0461 0.0013 -0.5374 0.615 -0.788 -0.022 90 78 54 0 0
-0.0489 0.0044 -0.5592 0.863 -0.431 0.264 78 66 47 0 0
-0.0487 0.0038 -0.5609 0.803 -0.540 0.252 85 72 55 0 0
-0.0407 -0.0184 -0.6173 0.764 -0.325 0.557 113 100 74 0 0
-0.0405 -0.0189 -0.6190 0.779 -0.550 0.302 111 100 75 0 0
-0.0410 -0.0184 -0.6235 0.549 -0.613 0.568 69 60 43 0 0
-0.0306 -0.0420 -0.6495 0.827 -0.562 0.024 119 105 81 0 0
-0.0299 -0.0439 -0.6544 0.904 -0.315 0.290 96 86 63 0 0
-0.0296 -0.0447 -0.6560 0.872 -0.264 0.412 136 126 97 0 0
-0.0298 -0.0460 -0.6719 0.769 -0.611 0.187 128 115 89 0 0
-0.0305 -0.0455 -0.6808 0.890 -0.448 0.088 103 93 73 0 0
-0.0322 -0.0458 -0.7129 0.921 -0.223 0.321 89 79 66 0 0
-0.0153 -0.0791 -0.7109 0.927 -0.172 0.333 125 110 81 0 0
-0.0143 -0.0853 -0.7490 0.786 -0.581 0.211 137 121 88 0 0
-0.0137 -0.0902 -0.7824 0.704 -0.708 0.052 178 159 116 0 0
-0.0137 -0.0903 -0.7844 0.739 -0.661 0.132 175 157 111 0 0
-0.0229 -0.0814 -0.8685 0.474 -0.407 0.781 100 101 95 0 0
0.0745 -0.2747 -0.8670 0.637 -0.224 0.738 214 213 211 0 0
0.0751 -0.2759 -0.8678 0.565 -0.455 0.688 214 213 211 0 0
0.0753 -0.2765 -0.8692 0.747 -0.284 0.601 215 214 212 0 0
0.0774 -0.2804 -0.8665 -0.012 -0.999 -0.049 215 214 212 0 0
-0.0020 -0.0464 -0.1474 0.964 -0.253 0.081 179 176 174 0 0
-0.0024 -0.0458 -0.1489 0.382 -0.452 0.806 162 156 145 0 0
-0.0022 -0.0463 -0.1503 0.135 -0.724 0.676 162 154 137 0 0
-0.0018 -0.0474 -0.1515 0.135 -0.724 0.676 155 145 125 0 0
-0.0018 -0.0474 -0.1530 0.681 -0.607 0.410 134 123 103 0 0
0.0059 -0.0704 -0.2218 0.193 -0.759 0.621 109 94 63 0 0
0.0076 -0.0747 -0.2312 0.243 -0.950 0.195 120 105 72 0 0
0.0063 -0.0743 -0.2495 0.716 -0.511 0.475 123 108 76 0 0
0.0067 -0.0751 -0.2508 0.601 -0.777 0.188 116 101 70 0 0
0.0065 -0.0750 -0.2524 0.353 -0.864 0.360 118 103 72 0 0
0.0070 -0.0762 -0.2536 0.677 -0.734 0.048 114 99 68 0 0
0.0057 -0.0763 -0.2783 0.503 -0.797 0.335 117 102 69 0 0
0.0037 -0.0736 -0.2886 0.230 -0.904 0.361 116 103 69 0 0
0.0043 -0.0760 -0.3004 0.951 -0.304 -0.061 175 165 120 0 0
-0.0131 -0.0460 -0.3404 0.652 -0.673 -0.350 84 76 56 0 0
-0.0164 -0.0430 -0.3721 0.499 -0.837 0.227 102 83 58 0 0
-0.0163 -0.0434 -0.3737 0.499 -0.837 0.227 72 55 30 0 0
-0.0164 -0.0436 -0.3770 0.607 -0.786 0.118 87 75 52 0 0
-0.0163 -0.0439 -0.3787 0.607 -0.786 0.118 65 55 37 0 0
-0.0155 -0.0456 -0.3797 0.528 -0.840 -0.125 53 45 32 0 0
-0.0157 -0.0454 -0.3815 0.528 -0.840 -0.125 59 51 40 0 0
-0.0379 -0.0055 -0.4178 0.881 -0.086 -0.466 81 72 59 0 0
-0.0441 0.0010 -0.4694 0.475 -0.743 0.472 112 100 78 0 0
-0.0439 0.0003 -0.4709 0.616 -0.710 0.341 107 94 71 0 0
-0.0436 -0.0015 -0.4834 0.690 -0.715 0.113 103 90 68 0 0
-0.0469 0.0005 -0.5234 0.619 -0.785 -0.037 106 93 69 0 0
-0.0472 0.0000 -0.5331 0.507 -0.859 -0.073 94 83 62 0 0
-0.0473 0.0000 -0.5350 0.394 -0.889 -0.233 100 88 67 0 0
-0.0476 0.0002 -0.5372 0.384 -0.906 -0.176 96 84 63 0 0
-0.0495 0.0028 -0.5486 0.684 -0.702 -0.196 81 68 50 0 0
-0.0497 0.0030 -0.5507 0.690 -0.696 -0.199 77 64 47 0 0
-0.0500 0.0033 -0.5529 0.683 -0.712 -0.162 72 59 41 0 0
-0.0504 0.0038 -0.5552 0.886 -0.376 0.273 84 71 54 0 0
-0.0422 -0.0191 -0.6152 0.844 -0.412 0.344 108 93 69 0 0
-0.0381 -0.0287 -0.6297 0.846 -0.321 0.426 103 90 67 0 0
-0.0317 -0.0437 -0.6488 0.768 -0.604 0.213 127 114 89 0 0
-0.0313 -0.0452 -0.6561 0.667 -0.743 0.050 108 97 70 0 0
-0.0313 -0.0454 -0.6581 0.667 -0.743 0.050 157 143 110 0 0
-0.0310 -0.0463 -0.6595 0.637 -0.767 0.070 142 128 96 0 0
-0.0308 -0.0468 -0.6613 0.950 -0.221 0.219 119 105 76 0 0
-0.0302 -0.0501 -0.6801 0.916 -0.391 0.087 100 90 72 0 0
-0.0315 -0.0479 -0.6838 0.900 -0.394 -0.185 91 79 63 0 0
-0.0318 -0.0475 -0.6862 0.896 -0.405 -0.179 96 86 69 0 0
-0.0330 -0.0481 -0.7117 0.380 -0.804 0.458 86 76 63 0 0
-0.0164 -0.0808 -0.7101 0.895 -0.100 0.434 128 112 81 0 0
-0.0160 -0.0816 -0.7115 0.813 -0.572 0.111 135 117 80 0 0
-0.0256 -0.0804 -0.8702 0.867 -0.475 -0.152 86 85 80 0 0
0.0738 -0.2769 -0.8674 0.565 -0.455 0.688 212 211 209 0 0
0.0741 -0.2776 -0.8686 0.663 -0.248 0.707 213 212 210 0 0
-0.0030 -0.0478 -0.1472 0.475 -0.878 0.065 179 175 171 0 0
0.0055 -0.0712 -0.2068 0.718 -0.474 0.510 105 88 61 0 0
0.0063 -0.0735 -0.2137 0.684 -0.388 0.618 143 129 91 0 0
0.0067 -0.0745 -0.2149 0.414 -0.700 0.582 150 135 93 0 0
0.0049 -0.0717 -0.2216 0.489 -0.493 0.719 115 100 68 0 0
0.0052 -0.0724 -0.2229 0.618 -0.578 0.533 114 100 67 0 0
0.0054 -0.0760 -0.2507 0.601 -0.777 0.188 120 105 74 0 0
0.0054 -0.0762 -0.2522 0.557 -0.829 0.042 123 108 77 0 0
0.0049 -0.0761 -0.2599 0.809 -0.506 0.300 104 91 57 0 0
0.0054 -0.0776 -0.2656 0.842 -0.494 0.216 114 101 69 0 0
0.0028 -0.0759 -0.2958 0.091 -0.808 0.582 134 120 83 0 0
-0.0164 -0.0448 -0.3562 0.703 -0.701 -0.120 104 91 62 0 0
-0.0378 -0.0094 -0.4164 0.649 -0.348 -0.676 79 69 54 0 0
-0.0405 -0.0045 -0.4204 0.709 -0.437 -0.553 79 71 55 0 0
-0.0412 -0.0034 -0.4227 0.721 -0.409 -0.560 92 85 69 0 0
-0.0477 0.0068 -0.4458 0.711 -0.580 -0.397 48 39 29 0 0
-0.0489 0.0088 -0.4486 0.535 -0.769 -0.351 27 23 12 0 0
-0.0493 0.0094 -0.4508 0.525 -0.790 -0.316 31 26 15 0 0
-0.0475 0.0047 -0.4619 0.673 -0.638 0.374 45 37 27 0 0
-0.0473 0.0041 -0.4635 0.673 -0.638 0.374 64 55 43 0 0
-0.0449 -0.0013 -0.4685 0.639 -0.432 0.637 98 86 66 0 0
-0.0453 -0.0019 -0.4816 0.670 -0.724 0.166 105 93 72 0 0
-0.0450 -0.0027 -0.4831 0.651 -0.697 0.301 83 70 51 0 0
-0.0479 -0.0003 -0.5135 0.541 -0.839 -0.051 92 81 62 0 0
-0.0480 -0.0004 -0.5154 0.457 -0.874 0.163 93 82 63 0 0
-0.0480 -0.0007 -0.5172 0.597 -0.802 -0.026 77 66 47 0 0
-0.0481 -0.0006 -0.5192 0.638 -0.763 -0.099 90 79 60 0 0
-0.0482 -0.0006 -0.5212 0.619 -0.785 -0.037 96 85 66 0 0
-0.0483 -0.0006 -0.5231 0.619 -0.785 -0.037 77 66 48 0 0
-0.0481 -0.0012 -0.5248 0.507 -0.859 -0.073 84 73 56 0 0
-0.0488 -0.0064 -0.5822 0.618 -0.746 -0.248 79 70 57 0 0
-0.0447 -0.0174 -0.6084 0.565 -0.647 0.511 118 102 81 0 0
-0.0321 -0.0475 -0.6549 0.902 -0.173 0.396 96 85 58 0 0
-0.0326 -0.0469 -0.6575 0.384 -0.909 0.160 147 135 102 0 0
-0.0324 -0.0473 -0.6593 0.360 -0.933 -0.026 144 129 96 0 0
-0.0317 -0.0488 -0.6603 0.945 -0.327 -0.010 124 109 81 0 0
-0.0307 -0.0528 -0.6786 0.904 -0.343 0.254 105 93 74 0 0
-0.0307 -0.0531 -0.6805 0.887 -0.461 0.030 83 71 55 0 0
-0.0165 -0.0933 -0.7876 0.669 -0.737 -0.097 176 158 112 0 0
-0.0232 -0.0873 -0.8525 0.831 -0.456 -0.318 51 50 38 0 0
-0.0266 -0.0824 -0.8689 0.871 -0.444 -0.209 73 70 65 0 0
-0.0256 -0.0845 -0.8693 0.774 -0.430 0.465 100 99 95 0 0
-0.0201 -0.0949 -0.8662 0.711 -0.230 0.665 152 151 147 0 0
0.0729 -0.2787 -0.8681 0.607 -0.426 0.671 213 212 210 0 0
0.0039 -0.0779 -0.2656 0.896 -0.401 0.192 105 92 59 0 0
0.0038 -0.0781 -0.2687 0.797 -0.596 0.098 104 91 58 0 0
0.0041 -0.0791 -0.2715 0.837 -0.547 0.026 110 96 63 0 0
0.0040 -0.0794 -0.2760 0.641 -0.559 0.527 108 93 60 0 0
-0.0164 -0.0465 -0.3405 -0.153 -0.982 -0.110 55 51 43 0 0
-0.0169 -0.0458 -0.3425 0.183 -0.949 -0.255 39 34 26 0 0
-0.0179 -0.0446 -0.3497 0.210 -0.962 0.174 55 43 31 0 0
-0.0177 -0.0458 -0.3560 0.552 -0.830 -0.080 77 66 44 0 0
-0.0387 -0.0114 -0.4158 0.576 -0.416 -0.704 86 74 59 0 0
-0.0399 -0.0091 -0.4186 0.675 -0.348 -0.651 80 70 53 0 0
-0.0501 0.0073 -0.4501 0.779 -0.508 -0.369 30 24 13 0 0
-0.0497 0.0062 -0.4534 0.752 -0.487 0.445 54 47 38 0 0
-0.0488 0.0038 -0.4579 0.385 -0.778 0.498 67 59 47 0 0
-0.0487 0.0032 -0.4615 0.548 -0.797 0.256 48 40 30 0 0
-0.0486 0.0028 -0.4632 0.548 -0.797 0.256 58 49 37 0 0
-0.0502 -0.0075 -0.5819 0.533 -0.802 -0.270 63 51 38 0 0
-0.0503 -0.0075 -0.5840 0.508 -0.855 -0.104 64 54 38 0 0
-0.0502 -0.0081 -0.5877 0.717 -0.678 0.162 111 100 81 0 0
-0.0462 -0.0184 -0.6081 0.565 -0.647 0.511 103 89 65 0 0
-0.0459 -0.0190 -0.6098 0.277 -0.820 0.501 100 88 69 0 0
-0.0454 -0.0202 -0.6111 0.240 -0.920 0.309 101 90 69 0 0
-0.0399 -0.0332 -0.6297 0.857 -0.289 0.427 101 88 65 0 0
-0.0321 -0.0516 -0.6567 0.936 -0.298 0.187 117 102 72 0 0
-0.0314 -0.0534 -0.6597 0.291 -0.312 0.904 114 102 76 0 0
-0.0320 -0.0541 -0.6781 0.758 -0.528 0.383 107 96 75 0 0
-0.0319 -0.0546 -0.6799 0.698 -0.607 0.380 93 83 66 0 0
-0.0319 -0.0548 -0.6819 0.891 -0.447 -0.074 87 78 58 0 0
-0.0389 -0.0439 -0.7072 0.633 -0.380 0.675 41 38 34 0 0
-0.0177 -0.0948 -0.7890 0.503 -0.856 -0.117 171 151 105 0 0
-0.0180 -0.0947 -0.7914 0.567 -0.824 -0.020 175 155 108 0 0
-0.0239 -0.0898 -0.8508 0.831 -0.456 -0.318 73 68 51 0 0
-0.0233 -0.0930 -0.8689 0.789 -0.315 0.528 144 143 140 0 0
0.0717 -0.2797 -0.8676 0.607 -0.426 0.671 213 212 210 0 0
0.0721 -0.2806 -0.8686 0.743 -0.436 0.508 215 214 212 0 0
-0.0054 -0.0498 -0.1498 0.544 -0.833 -0.101 165 149 116 0 0
-0.0054 -0.0499 -0.1512 0.610 -0.793 0.013 197 179 139 0 0
0.0002 -0.0626 -0.1649 0.590 -0.645 0.486 203 186 148 0 0
-0.0402 -0.0122 -0.4175 0.670 -0.337 -0.661 83 71 56 0 0
-0.0419 -0.0093 -0.4206 0.780 -0.336 -0.528 84 73 56 0 0
-0.0503 0.0030 -0.4579 0.385 -0.778 0.498 48 39 30 0 0
-0.0470 -0.0071 -0.4892 0.905 -0.399 -0.147 74 65 45 0 0
-0.0472 -0.0069 -0.4913 0.905 -0.399 -0.147 75 67 46 0 0
-0.0517 -0.0086 -0.5817 0.533 -0.802 -0.270 67 55 43 0 0
-0.0517 -0.0091 -0.5875 0.558 -0.752 0.351 97 87 68 0 0
-0.0476 -0.0195 -0.6079 0.565 -0.647 0.511 90 77 58 0 0
-0.0472 -0.0204 -0.6094 0.519 -0.704 0.484 87 76 58 0 0
-0.0417 -0.0332 -0.6259 0.886 -0.444 0.138 113 101 76 0 0
-0.0335 -0.0552 -0.6779 0.698 -0.607 0.380 103 92 70 0 0
-0.0331 -0.0560 -0.6793 0.704 -0.688 0.177 98 88 69 0 0
-0.0328 -0.0568 -0.6809 0.891 -0.447 -0.074 83 74 55 0 0
-0.0233 -0.0776 -0.6992 0.723 0.349 0.596 88 80 67 0 0
-0.0245 -0.0946 -0.8680 0.789 -0.315 0.528 135 134 131 0 0
-0.0240 -0.0956 -0.8693 0.789 -0.315 0.528 150 149 147 0 0
0.0710 -0.2816 -0.8661 0.852 -0.135 0.506 215 214 212 0 0
0.0712 -0.2820 -0.8677 0.821 -0.354 0.449 215 214 212 0 0
-0.0090 -0.0460 -0.1505 0.408 -0.432 0.804 171 155 123 0 0
-0.0026 -0.0594 -0.1568 0.107 -0.830 0.547 124 113 96 0 0
0.0038 -0.0805 -0.2316 0.673 -0.737 0.061 106 91 61 0 0
0.0039 -0.0808 -0.2331 0.666 -0.731 0.146 108 93 64 0 0
-0.0215 -0.0447 -0.3500 0.221 -0.975 0.015 21 16 14 0 0
-0.0214 -0.0470 -0.3679 0.627 -0.663 0.408 39 31 21 0 0
-0.0515 0.0015 -0.4574 0.631 -0.633 0.449 31 25 18 0 0
-0.0438 -0.0325 -0.6227 0.887 -0.389 0.251 101 90 69 0 0
-0.0435 -0.0334 -0.6242 0.750 -0.595 0.289 103 93 68 0 0
-0.0433 -0.0340 -0.6259 0.750 -0.595 0.289 115 103 78 0 0
-0.0431 -0.0345 -0.6276 0.735 -0.604 0.309 124 110 83 0 0
-0.0428 -0.0353 -0.6291 0.366 -0.714 0.597 129 114 88 0 0
-0.0375 -0.0471 -0.6420 0.699 -0.710 0.091 106 95 70 0 0
-0.0335 -0.0578 -0.6659 0.478 -0.872 0.101 96 83 57 0 0
-0.0339 -0.0584 -0.6781 0.907 -0.419 0.044 111 100 75 0 0
-0.0339 -0.0586 -0.6801 0.893 -0.447 -0.050 93 84 64 0 0
-0.0337 -0.0591 -0.6818 0.944 -0.262 -0.201 93 84 67 0 0
-0.0341 -0.0586 -0.6843 0.944 -0.262 -0.201 86 79 63 0 0
-0.0180 -0.0953 -0.7285 0.741 -0.666 0.084 177 159 115 0 0
-0.0179 -0.0956 -0.7304 0.821 -0.562 0.099 177 160 115 0 0
-0.0284 -0.0915 -0.8717 0.831 -0.374 0.412 126 124 122 0 0
-0.0280 -0.0923 -0.8733 0.831 -0.374 0.412 142 140 138 0 0
-0.0258 -0.0965 -0.8716 0.546 -0.448 0.708 153 152 150 0 0
0.0704 -0.2839 -0.8661 0.719 -0.221 0.659 215 214 212 0 0
-0.0150 -0.0371 -0.1461 0.544 -0.813 0.206 178 178 178 0 0
-0.0041 -0.0595 -0.1569 0.044 -0.839 0.543 178 167 153 0 0
-0.0019 -0.0651 -0.1660 0.559 -0.776 0.293 115 100 77 0 0
-0.0007 -0.0679 -0.1712 0.531 -0.699 0.478 130 115 80 0 0
0.0030 -0.0830 -0.2386 0.856 -0.502 0.125 124 111 76 0 0
0.0014 -0.0831 -0.2660 0.917 -0.369 0.153 113 100 66 0 0
-0.0231 -0.0451 -0.3501 0.221 -0.975 0.015 30 23 21 0 0
-0.0252 -0.0460 -0.3928 0.402 -0.774 -0.490 89 80 57 0 0
-0.0528 0.0003 -0.4571 0.689 -0.432 0.582 32 27 23 0 0
-0.0479 -0.0147 -0.5033 0.609 -0.765 0.210 66 57 40 0 0
-0.0543 -0.0114 -0.5828 0.801 -0.598 0.015 49 40 27 0 0
-0.0543 -0.0119 -0.5866 0.807 -0.450 0.383 70 62 43 0 0
-0.0503 -0.0220 -0.6071 0.697 -0.704 0.136 104 90 70 0 0
-0.0438 -0.0369 -0.6264 0.939 -0.244 0.243 132 118 90 0 0
-0.0433 -0.0381 -0.6278 0.924 -0.259 0.283 141 125 98 0 0
-0.0349 -0.0593 -0.6695 0.397 -0.886 0.240 118 103 77 0 0
-0.0348 -0.0597 -0.6713 0.457 -0.867 0.202 120 105 79 0 0
-0.0347 -0.0601 -0.6731 0.618 -0.728 0.296 129 114 84 0 0
-0.0189 -0.0947 -0.7060 0.808 -0.589 0.015 167 148 110 0 0
-0.0190 -0.0948 -0.7080 0.808 -0.589 0.015 164 147 104 0 0
-0.0191 -0.0987 -0.7434 0.842 -0.530 0.101 151 132 92 0 0
-0.0198 -0.0993 -0.7604 0.598 -0.798 -0.075 152 133 89 0 0
-0.0196 -0.0998 -0.7621 0.805 -0.591 -0.055 150 132 89 0 0
-0.0222 -0.1024 -0.8270 0.889 -0.437 0.138 163 147 102 0 0
-0.0222 -0.1026 -0.8292 0.393 -0.842 0.370 148 134 90 0 0
-0.0268 -0.0959 -0.8493 0.896 -0.374 -0.240 99 93 71 0 0
-0.0273 -0.0975 -0.8713 0.723 -0.410 0.556 149 145 144 0 0
-0.0031 -0.0658 -0.1659 0.428 -0.838 0.340 137 123 95 0 0
-0.0022 -0.0680 -0.1698 0.495 -0.765 0.413 126 113 85 0 0
0.0012 -0.0770 -0.1897 0.936 -0.266 0.229 132 117 83 0 0
0.0013 -0.0805 -0.2184 0.406 -0.826 0.390 115 100 66 0 0
0.0023 -0.0826 -0.2193 0.082 -0.787 0.612 120 104 70 0 0
0.0026 -0.0834 -0.2221 0.379 -0.634 0.674 110 95 62 0 0
0.0021 -0.0845 -0.2383 0.849 -0.518 0.102 104 90 57 0 0
-0.0249 -0.0456 -0.3535 0.517 -0.852 0.085 33 28 25 0 0
-0.0241 -0.0477 -0.3595 0.593 -0.795 0.126 42 38 30 0 0
-0.0239 -0.0483 -0.3610 0.673 -0.637 0.375 22 16 12 0 0
-0.0510 -0.0073 -0.4595 0.703 -0.612 0.362 54 46 34 0 0
-0.0484 -0.0156 -0.4878 0.687 -0.595 0.417 75 63 47 0 0
-0.0525 -0.0120 -0.5246 0.944 -0.316 0.092 63 55 39 0 0
-0.0364 -0.0596 -0.6634 0.700 -0.706 -0.104 97 83 61 0 0
-0.0358 -0.0620 -0.6744 0.844 -0.442 0.302 146 132 98 0 0
-0.0200 -0.0994 -0.7326 0.791 -0.592 0.158 173 155 111 0 0
-0.0202 -0.1003 -0.7426 0.842 -0.530 0.101 158 141 97 0 0
-0.0212 -0.1004 -0.7600 0.598 -0.798 -0.075 157 138 93 0 0
-0.0213 -0.1016 -0.7721 0.797 -0.587 0.141 154 135 93 0 0
-0.0211 -0.1024 -0.7759 0.797 -0.587 0.141 147 128 87 0 0
-0.0211 -0.1028 -0.7778 0.776 -0.607 0.170 159 140 98 0 0
-0.0218 -0.1017 -0.7810 0.742 -0.567 0.359 164 145 101 0 0
-0.0217 -0.1021 -0.7828 0.718 -0.672 0.181 165 144 99 0 0
-0.0216 -0.1029 -0.7888 0.716 -0.693 0.086 159 140 95 0 0
-0.0237 -0.1034 -0.8268 0.823 -0.428 0.375 167 150 104 0 0
-0.0238 -0.1035 -0.8290 0.731 -0.632 0.257 147 133 89 0 0
-0.0286 -0.0989 -0.8706 0.723 -0.410 0.556 140 139 137 0 0
0.0016 -0.0810 -0.1904 0.845 -0.496 0.200 191 177 132 0 0
0.0014 -0.0809 -0.1919 0.794 -0.597 -0.114 194 180 134 0 0
0.0007 -0.0805 -0.2007 0.632 -0.688 0.358 85 71 42 0 0
-0.0011 -0.0784 -0.2130 0.365 -0.908 0.206 100 88 57 0 0
-0.0261 -0.0469 -0.3549 0.558 -0.695 0.453 22 17 14 0 0
-0.0246 -0.0525 -0.3784 0.500 -0.866 -0.004 36 28 24 0 0
-0.0280 -0.0476 -0.3926 0.465 -0.717 -0.519 73 62 44 0 0
-0.0284 -0.0471 -0.3946 0.424 -0.747 -0.512 66 55 34 0 0
-0.0525 -0.0082 -0.4594 0.657 -0.588 0.471 51 43 33 0 0
-0.0545 -0.0158 -0.5566 0.679 -0.733 0.035 88 77 60 0 0
-0.0571 -0.0125 -0.5707 0.699 -0.553 0.453 67 61 47 0 0
-0.0569 -0.0131 -0.5724 0.294 -0.500 0.815 95 87 70 0 0
-0.0526 -0.0250 -0.6040 0.689 -0.139 0.711 133 117 89 0 0
-0.0387 -0.0565 -0.6431 0.574 -0.747 0.337 102 90 63 0 0
-0.0210 -0.0967 -0.6928 0.873 -0.483 0.071 118 103 79 0 0
-0.0213 -0.0982 -0.7106 0.664 -0.746 -0.052 160 140 99 0 0
-0.0215 -0.0982 -0.7148 0.593 -0.805 -0.007 157 138 98 0 0
-0.0217 -0.0982 -0.7170 0.583 -0.813 -0.007 154 135 94 0 0
-0.0213 -0.1008 -0.7320 0.733 -0.661 0.162 174 156 113 0 0
-0.0218 -0.1026 -0.7565 0.764 -0.645 -0.013 162 144 99 0 0
-0.0219 -0.1027 -0.7587 0.688 -0.722 0.074 166 148 102 0 0
-0.0224 -0.1033 -0.7713 0.745 -0.667 0.004 158 139 96 0 0
-0.0224 -0.1036 -0.7733 0.829 -0.517 0.216 146 127 86 0 0
-0.0224 -0.1038 -0.7753 0.821 -0.472 0.323 132 113 73 0 0
-0.0223 -0.1041 -0.7772 0.809 -0.527 0.259 151 132 89 0 0
-0.0231 -0.1030 -0.7804 0.742 -0.567 0.359 157 139 94 0 0
-0.0230 -0.1034 -0.7823 0.734 -0.602 0.314 161 140 95 0 0
-0.0230 -0.1042 -0.7883 0.716 -0.693 0.086 169 149 104 0 0
-0.0230 -0.1044 -0.7903 0.716 -0.693 0.086 161 143 99 0 0
-0.0250 -0.1047 -0.8262 0.831 -0.442 0.337 176 159 113 0 0
-0.0251 -0.1048 -0.8284 0.731 -0.632 0.257 167 152 106 0 0
-0.0249 -0.1054 -0.8302 0.798 -0.603 -0.008 159 144 100 0 0
-0.0254 -0.1048 -0.8330 0.600 -0.786 -0.150 152 138 94 0 0
-0.0304 -0.0978 -0.8559 0.850 -0.468 -0.241 29 29 22 0 0
-0.0319 -0.0965 -0.8690 0.882 -0.410 0.235 86 85 80 0 0
-0.0316 -0.0972 -0.8706 0.810 -0.402 0.427 111 110 106 0 0
-0.0311 -0.0983 -0.8719 0.846 -0.425 0.321 129 128 125 0 0
-0.0308 -0.0992 -0.8735 0.809 -0.408 0.422 147 143 142 0 0
-0.0012 -0.0770 -0.1754 -0.275 -0.496 0.824 217 196 146 0 0
0.0006 -0.0825 -0.1930 0.779 -0.619 0.096 162 147 105 0 0
-0.0025 -0.0788 -0.2115 0.239 -0.928 0.287 75 61 40 0 0
0.0002 -0.0865 -0.2320 0.915 -0.300 0.272 109 94 62 0 0
0.0012 -0.0907 -0.2519 0.329 -0.840 0.432 90 77 43 0 0
-0.0012 -0.0874 -0.2636 0.872 -0.479 -0.097 104 91 59 0 0
-0.0005 -0.0903 -0.2750 0.608 -0.512 0.607 110 95 62 0 0
0.0001 -0.0915 -0.2762 0.819 -0.573 0.042 117 102 69 0 0
-0.0019 -0.0917 -0.3106 0.781 -0.623 -0.044 123 110 75 0 0
-0.0258 -0.0532 -0.3731 0.669 -0.743 -0.011 61 48 33 0 0
-0.0260 -0.0534 -0.3782 0.566 -0.823 0.040 39 33 27 0 0
-0.0295 -0.0482 -0.3925 0.335 -0.834 -0.438 66 55 38 0 0
-0.0303 -0.0470 -0.3948 0.272 -0.818 -0.507 64 53 36 0 0
-0.0519 -0.0187 -0.5061 0.792 -0.607 0.070 83 74 59 0 0
-0.0558 -0.0170 -0.5563 0.679 -0.733 0.035 88 76 59 0 0
-0.0585 -0.0139 -0.5723 0.294 -0.500 0.815 89 81 63 0 0
-0.0502 -0.0348 -0.6146 0.677 -0.380 0.630 102 91 73 0 0
-0.0402 -0.0575 -0.6429 0.574 -0.747 0.337 112 100 72 0 0
-0.0243 -0.1046 -0.7818 0.716 -0.690 0.103 152 131 86 0 0
-0.0243 -0.1049 -0.7838 0.716 -0.690 0.103 156 134 89 0 0
-0.0243 -0.1052 -0.7857 0.716 -0.693 0.086 160 139 94 0 0
-0.0243 -0.1055 -0.7878 0.716 -0.693 0.086 167 146 101 0 0
-0.0243 -0.1057 -0.7898 0.716 -0.693 0.086 169 148 101 0 0
-0.0243 -0.1060 -0.7918 0.716 -0.693 0.086 167 146 99 0 0
-0.0246 -0.1063 -0.8004 0.432 -0.901 0.035 174 157 107 0 0
-0.0243 -0.1071 -0.8019 0.216 -0.909 0.356 177 161 112 0 0
-0.0247 -0.1070 -0.8088 0.341 -0.913 0.225 179 163 115 0 0
-0.0247 -0.1073 -0.8108 0.467 -0.862 0.196 181 165 116 0 0
-0.0261 -0.1069 -0.8294 0.798 -0.603 -0.008 173 156 110 0 0
-0.0334 -0.0977 -0.8709 0.927 -0.355 0.119 97 96 91 0 0
-0.0330 -0.0988 -0.8722 0.904 -0.399 0.151 119 118 114 0 0
-0.0327 -0.0994 -0.8739 0.879 -0.424 0.217 140 136 134 0 0
-0.0032 -0.0764 -0.1756 0.237 -0.443 0.865 207 187 154 0 0
0.0008 -0.0845 -0.1797 -0.205 -0.463 0.862 159 142 96 0 0
0.0008 -0.0851 -0.1839 0.835 -0.512 -0.202 159 146 105 0 0
0.0007 -0.0851 -0.1853 0.652 -0.632 -0.419 172 159 122 0 0
-0.0007 -0.0830 -0.1916 0.383 -0.910 -0.160 165 151 109 0 0
-0.0038 -0.0795 -0.2115 0.581 -0.725 0.370 53 41 28 0 0
-0.0008 -0.0920 -0.2669 0.601 -0.663 0.446 107 94 61 0 0
-0.0006 -0.0929 -0.2728 0.848 -0.517 0.116 118 103 71 0 0
-0.0010 -0.0925 -0.2745 0.751 -0.496 0.436 119 104 72 0 0
-0.0009 -0.0928 -0.2759 0.741 -0.671 0.006 109 94 60 0 0
-0.0028 -0.0908 -0.2890 0.830 -0.527 0.184 116 101 68 0 0
-0.0027 -0.0910 -0.2905 0.761 -0.628 0.163 122 108 73 0 0
-0.0284 -0.0499 -0.3592 0.778 -0.607 0.164 27 22 17 0 0
-0.0271 -0.0540 -0.3730 0.566 -0.823 0.040 58 46 32 0 0
-0.0322 -0.0469 -0.3951 0.165 -0.854 -0.493 53 43 31 0 0
-0.0428 -0.0285 -0.4119 0.550 -0.560 -0.619 97 86 66 0 0
-0.0443 -0.0262 -0.4165 0.646 -0.633 -0.427 89 78 58 0 0
-0.0535 -0.0121 -0.4468 0.904 -0.405 -0.139 66 58 46 0 0
-0.0530 -0.0202 -0.5056 0.665 -0.743 0.075 76 65 53 0 0
-0.0529 -0.0205 -0.5074 0.651 -0.753 0.091 80 70 54 0 0
-0.0563 -0.0245 -0.5948 0.712 -0.663 -0.233 114 99 76 0 0
-0.0515 -0.0356 -0.6104 0.824 -0.561 0.085 104 94 72 0 0
-0.0514 -0.0360 -0.6122 0.826 -0.539 0.162 107 94 74 0 0
-0.0510 -0.0369 -0.6137 0.803 -0.453 0.388 101 89 73 0 0
-0.0414 -0.0579 -0.6327 0.520 -0.851 0.074 99 88 67 0 0
-0.0231 -0.1004 -0.6951 0.867 -0.489 0.094 161 142 105 0 0
-0.0256 -0.1061 -0.7812 0.775 -0.623 0.107 151 130 85 0 0
-0.0257 -0.1071 -0.7914 0.617 -0.785 0.048 165 144 98 0 0
-0.0257 -0.1073 -0.7935 0.617 -0.785 0.048 161 140 94 0 0
-0.0257 -0.1075 -0.7955 0.600 -0.799 0.034 170 149 102 0 0
-0.0259 -0.1079 -0.8019 0.499 -0.796 0.341 178 162 112 0 0
-0.0340 -0.1006 -0.8711 0.904 -0.399 0.151 107 106 102 0 0
-0.0338 -0.1012 -0.8729 0.879 -0.424 0.217 128 126 122 0 0
-0.0286 -0.1110 -0.8702 0.477 -0.279 0.833 167 166 164 0 0
-0.0006 -0.0849 -0.1796 0.174 -0.723 0.668 158 141 96 0 0
-0.0007 -0.0850 -0.1811 0.300 -0.908 0.293 174 158 114 0 0
-0.0012 -0.0896 -0.2269 0.735 -0.586 0.342 94 78 51 0 0
-0.0010 -0.0901 -0.2282 0.735 -0.586 0.342 87 71 44 0 0
-0.0005 -0.0913 -0.2309 0.686 -0.587 0.429 85 69 42 0 0
-0.0007 -0.0915 -0.2353 0.092 -0.864 0.495 92 78 49 0 0
-0.0012 -0.0907 -0.2371 0.423 -0.851 0.312 86 72 41 0 0
-0.0011 -0.0911 -0.2384 0.423 -0.851 0.312 88 73 42 0 0
-0.0025 -0.0913 -0.2626 0.796 -0.595 0.114 97 82 49 0 0
-0.0020 -0.0937 -0.2742 0.751 -0.496 0.436 117 102 69 0 0
-0.0023 -0.0944 -0.2848 0.629 -0.716 0.302 103 89 54 0 0
-0.0029 -0.0936 -0.2882 0.833 -0.542 -0.108 116 101 68 0 0
-0.0038 -0.0923 -0.2902 0.788 -0.574 0.224 120 106 70 0 0
-0.0293 -0.0515 -0.3588 0.382 -0.858 0.343 29 24 19 0 0
-0.0292 -0.0521 -0.3603 0.594 -0.729 0.340 36 31 25 0 0
-0.0282 -0.0540 -0.3612 0.418 -0.596 0.686 28 21 14 0 0
-0.0273 -0.0563 -0.3655 0.883 -0.456 0.108 39 32 21 0 0
-0.0284 -0.0554 -0.3761 0.487 -0.863 -0.135 36 28 17 0 0
-0.0286 -0.0553 -0.3779 0.410 -0.906 -0.109 51 43 33 0 0
-0.0427 -0.0321 -0.4088 0.403 -0.651 -0.643 105 92 73 0 0
-0.0455 -0.0276 -0.4162 0.646 -0.633 -0.427 95 84 64 0 0
-0.0545 -0.0141 -0.4480 0.979 -0.203 0.030 42 37 27 0 0
-0.0531 -0.0203 -0.4771 0.775 -0.615 0.145 65 55 37 0 0
-0.0530 -0.0207 -0.4788 0.775 -0.615 0.145 77 64 48 0 0
-0.0543 -0.0215 -0.5052 0.692 -0.722 -0.009 79 69 59 0 0
-0.0579 -0.0239 -0.5833 0.695 -0.680 0.235 70 60 46 0 0
-0.0573 -0.0253 -0.5846 0.613 -0.510 0.604 102 88 70 0 0
-0.0572 -0.0257 -0.5863 0.680 -0.649 0.340 129 112 89 0 0
-0.0571 -0.0263 -0.5901 0.777 -0.630 0.022 96 83 59 0 0
-0.0260 -0.0942 -0.6588 0.885 0.326 0.333 92 84 64 0 0
-0.0242 -0.0977 -0.6583 0.967 0.007 0.255 67 60 42 0 0
-0.0235 -0.0991 -0.6593 0.996 0.062 -0.071 62 55 39 0 0
-0.0230 -0.1003 -0.6605 0.955 -0.216 -0.202 39 36 22 0 0
-0.0241 -0.1015 -0.6885 0.873 -0.483 0.071 167 148 108 0 0
-0.0238 -0.1102 -0.7561 0.551 -0.835 -0.014 169 151 105 0 0
-0.0239 -0.1102 -0.7583 0.551 -0.835 -0.014 170 152 106 0 0
-0.0241 -0.1103 -0.7604 0.551 -0.835 -0.014 167 149 103 0 0
-0.0275 -0.1084 -0.7998 0.652 -0.752 0.097 179 161 112 0 0
-0.0275 -0.1088 -0.8017 0.499 -0.796 0.341 176 160 110 0 0
-0.0349 -0.1029 -0.8719 0.879 -0.424 0.217 116 115 111 0 0
-0.0348 -0.1035 -0.8737 0.879 -0.424 0.217 135 134 130 0 0
-0.0297 -0.1123 -0.8673 0.666 -0.418 0.619 150 149 145 0 0
-0.0022 -0.0910 -0.2281 0.454 -0.838 0.303 90 75 47 0 0
-0.0025 -0.0905 -0.2297 0.231 -0.934 0.272 91 76 47 0 0
-0.0024 -0.0909 -0.2311 0.147 -0.934 0.325 93 78 49 0 0
-0.0018 -0.0922 -0.2323 0.561 -0.826 0.042 91 77 48 0 0
-0.0020 -0.0920 -0.2338 0.430 -0.903 0.001 91 77 48 0 0
-0.0023 -0.0917 -0.2354 0.092 -0.864 0.495 95 82 51 0 0
-0.0025 -0.0915 -0.2369 0.311 -0.816 0.487 94 80 48 0 0
-0.0016 -0.0939 -0.2423 0.816 -0.398 0.419 92 79 47 0 0
