ply
format ascii 1.0
element vertex 847
property float x
property float y
property float z
property float nx
property float ny
property float nz
property uchar diffuse_red
property uchar diffuse_green
property uchar diffuse_blue
property uchar class
property uchar detection
end_header
-0.1593 -0.0377 -0.6591 -0.904 0.338 -0.260 17 13 12 0 0
-0.1648 -0.0340 -0.6847 -0.472 0.513 0.717 16 12 11 0 0
-0.1659 -0.0334 -0.6858 -0.472 0.513 0.717 17 13 12 0 0
-0.1673 -0.0325 -0.6867 -0.450 0.562 0.694 18 14 13 0 0
-0.1920 -0.0173 -0.7022 -0.733 0.098 0.673 70 63 58 0 0
-0.1932 -0.0166 -0.7032 -0.699 0.106 0.707 67 60 54 0 0
-0.1945 -0.0158 -0.7041 -0.563 0.333 0.757 66 59 52 0 0
-0.1959 -0.0150 -0.7049 -0.430 0.259 0.865 61 54 48 0 0
-0.1970 -0.0143 -0.7059 -0.381 0.390 0.838 60 53 46 0 0
-0.1980 -0.0136 -0.7071 -0.626 0.106 0.773 60 53 46 0 0
-0.2106 -0.0059 -0.7120 -0.896 0.373 0.240 69 55 37 0 0
-0.2160 -0.0025 -0.7332 -0.903 0.357 -0.240 66 54 35 0 0
-0.2071 -0.0076 -0.7557 -0.984 0.123 0.130 85 76 58 0 0
-0.2074 -0.0075 -0.7575 -0.984 0.123 0.130 61 52 37 0 0
-0.2049 -0.0089 -0.7618 -0.766 0.411 -0.494 48 40 28 0 0
-0.2008 -0.0111 -0.7845 -0.865 -0.031 0.501 28 19 13 0 0
-0.2028 -0.0099 -0.7847 -0.931 0.270 0.247 29 20 13 0 0
-0.2037 -0.0094 -0.7881 -0.670 0.652 0.356 33 25 17 0 0
-0.2047 -0.0087 -0.7892 -0.825 0.401 0.398 35 28 18 0 0
-0.2174 -0.0006 -0.8254 -0.859 0.413 0.303 128 110 70 0 0
-0.2170 -0.0009 -0.8302 -0.917 0.348 -0.194 120 105 73 0 0
-0.2162 -0.0013 -0.8353 -0.733 0.645 0.218 83 73 49 0 0
-0.2164 -0.0012 -0.8373 -0.815 0.555 0.167 82 70 47 0 0
-0.2190 0.0006 -0.8497 -0.913 0.372 0.168 117 103 72 0 0
-0.0402 -0.1124 -0.2529 -0.510 0.515 0.689 158 144 118 0 0
-0.0405 -0.1122 -0.2544 -0.657 0.424 0.623 150 133 104 0 0
-0.0426 -0.1108 -0.2620 -0.913 0.141 0.382 91 80 52 0 0
-0.0370 -0.1140 -0.2767 -0.813 -0.291 -0.505 168 168 168 0 0
-0.1307 -0.0562 -0.3775 -0.739 0.588 0.328 89 81 64 0 0
-0.1301 -0.0564 -0.3876 -0.979 0.040 0.198 57 47 35 0 0
-0.1316 -0.0553 -0.4037 -0.878 0.449 0.163 28 19 16 0 0
-0.1310 -0.0553 -0.4363 -0.900 0.280 0.333 69 61 52 0 0
-0.1315 -0.0550 -0.4378 -0.831 0.103 0.547 45 37 29 0 0
-0.1226 -0.0601 -0.4633 0.136 0.978 0.157 10 9 8 0 0
-0.1318 -0.0544 -0.4761 -0.928 0.340 0.150 45 40 36 0 0
-0.1692 -0.0313 -0.5185 -1.000 0.002 -0.012 32 27 22 0 0
-0.1838 -0.0204 -0.6984 -0.576 0.674 0.464 64 56 50 0 0
-0.1929 -0.0149 -0.7027 -0.780 0.033 0.624 77 70 65 0 0
-0.1940 -0.0142 -0.7039 -0.565 0.167 0.808 66 58 53 0 0
-0.1949 -0.0136 -0.7050 -0.496 0.186 0.848 60 53 47 0 0
-0.2135 -0.0022 -0.7227 -0.821 0.258 0.509 67 55 35 0 0
-0.2144 -0.0016 -0.7239 -0.848 0.091 0.522 74 62 42 0 0
-0.2085 -0.0048 -0.7556 -0.840 0.284 0.461 49 41 28 0 0
-0.2032 -0.0080 -0.7626 -0.721 0.439 -0.536 39 33 22 0 0
-0.2008 -0.0094 -0.7670 -0.705 0.422 -0.570 40 32 19 0 0
-0.2167 0.0009 -0.8253 -0.859 0.413 0.303 135 118 75 0 0
-0.2164 0.0008 -0.8298 -0.818 0.570 -0.074 126 110 76 0 0
-0.2151 0.0001 -0.8355 -0.733 0.645 0.218 93 82 55 0 0
-0.2153 0.0002 -0.8375 -0.617 0.690 0.378 83 71 47 0 0
-0.2159 0.0005 -0.8391 -0.617 0.690 0.378 89 75 44 0 0
-0.2203 0.0033 -0.8431 -0.808 0.307 0.503 114 100 69 0 0
-0.2184 0.0023 -0.8626 -0.589 0.742 0.321 80 75 67 0 0
-0.0399 -0.1107 -0.2544 -0.750 0.403 0.525 134 118 87 0 0
-0.1304 -0.0544 -0.3854 -0.882 0.466 -0.061 76 64 47 0 0
-0.1301 -0.0546 -0.3873 -0.945 0.305 0.120 74 62 47 0 0
-0.1302 -0.0545 -0.3889 -0.958 0.227 0.177 62 53 43 0 0
-0.1304 -0.0544 -0.3904 -0.958 0.227 0.177 62 53 45 0 0
-0.1307 -0.0542 -0.3920 -0.958 0.227 0.177 56 47 40 0 0
-0.1293 -0.0546 -0.4247 -0.744 0.667 0.032 21 15 10 0 0
-0.1293 -0.0546 -0.4281 -0.845 0.487 -0.219 35 28 22 0 0
-0.1692 -0.0295 -0.5180 -1.000 0.002 -0.012 34 28 23 0 0
-0.1691 -0.0295 -0.5198 -0.985 0.106 -0.133 45 40 35 0 0
-0.1686 -0.0298 -0.5219 -0.976 -0.108 0.190 45 40 36 0 0
-0.1688 -0.0296 -0.5235 -0.960 -0.144 0.238 42 37 34 0 0
-0.1762 -0.0243 -0.5953 -0.750 -0.478 0.458 39 34 31 0 0
-0.1585 -0.0340 -0.6823 -0.494 0.772 0.400 14 10 9 0 0
-0.1775 -0.0224 -0.6910 -0.522 0.378 0.765 20 17 14 0 0
-0.1819 -0.0197 -0.6953 -0.755 0.529 0.388 36 32 27 0 0
-0.1825 -0.0193 -0.6968 -0.880 0.387 0.274 40 34 30 0 0
-0.1836 -0.0186 -0.6979 -0.894 0.206 0.398 45 38 32 0 0
-0.2080 -0.0032 -0.7512 -0.935 0.232 -0.268 61 52 36 0 0
-0.1997 -0.0081 -0.7672 -0.680 0.461 -0.571 39 32 20 0 0
-0.1925 -0.0123 -0.7804 -0.944 0.112 0.312 58 45 31 0 0
-0.2170 0.0033 -0.8479 -0.717 0.652 0.247 111 98 67 0 0
-0.2173 0.0037 -0.8628 -0.769 0.443 0.461 79 72 63 0 0
-0.2185 0.0044 -0.8638 -0.931 0.240 0.275 109 103 97 0 0
-0.0431 -0.1068 -0.2614 -0.930 0.224 0.290 97 86 58 0 0
-0.0439 -0.1062 -0.2628 -0.792 0.514 0.330 103 90 63 0 0
-0.0448 -0.1057 -0.2658 -0.783 0.256 0.568 83 69 43 0 0
-0.0385 -0.1091 -0.2957 -0.544 -0.327 0.773 70 63 52 0 0
-0.0490 -0.1025 -0.3159 -0.841 0.233 0.488 42 33 22 0 0
-0.1235 -0.0574 -0.3389 -0.409 -0.466 0.784 178 178 180 0 0
-0.1300 -0.0529 -0.3803 -0.882 0.433 0.185 36 28 18 0 0
-0.1303 -0.0527 -0.3818 -0.957 0.290 -0.008 40 31 22 0 0
-0.1290 -0.0530 -0.4210 -0.939 0.088 0.333 21 16 14 0 0
-0.1316 -0.0513 -0.4335 -0.696 0.326 0.640 35 31 24 0 0
-0.1315 -0.0513 -0.4352 -0.674 0.611 0.414 41 36 31 0 0
-0.1321 -0.0510 -0.4366 -0.674 0.611 0.414 28 23 19 0 0
-0.2101 -0.0036 -0.4657 -0.935 -0.227 0.271 121 110 85 0 0
-0.1690 -0.0277 -0.5229 -0.960 -0.144 0.238 20 15 14 0 0
-0.1694 -0.0274 -0.5244 -0.960 -0.144 0.238 16 11 9 0 0
-0.1700 -0.0270 -0.5258 -0.990 -0.134 0.044 25 21 13 0 0
-0.1662 -0.0285 -0.5905 -0.517 -0.069 0.853 20 16 15 0 0
-0.1720 -0.0250 -0.5902 -0.788 0.258 0.558 30 26 22 0 0
-0.1519 -0.0362 -0.6668 -0.758 0.382 -0.529 13 9 8 0 0
-0.1604 -0.0308 -0.6881 -0.607 0.294 0.738 19 15 14 0 0
-0.1627 -0.0294 -0.6883 -0.573 0.489 0.658 22 18 17 0 0
-0.1645 -0.0283 -0.6889 -0.911 0.162 0.380 39 35 34 0 0
-0.1754 -0.0217 -0.6920 -0.642 0.748 0.165 23 23 18 0 0
-0.1799 -0.0189 -0.6963 -0.550 0.289 0.783 35 31 27 0 0
-0.1827 -0.0172 -0.6980 -0.852 0.030 0.523 42 34 28 0 0
-0.1862 -0.0151 -0.7010 -0.839 0.027 0.544 55 48 38 0 0
-0.1911 -0.0121 -0.7028 -0.856 -0.093 0.509 57 49 42 0 0
-0.2105 -0.0003 -0.7119 -0.808 0.270 0.523 51 41 32 0 0
-0.2144 0.0022 -0.7244 -0.664 0.559 0.497 82 70 46 0 0
-0.1987 -0.0067 -0.7674 -0.680 0.461 -0.571 39 32 21 0 0
-0.1947 -0.0089 -0.7837 -0.930 -0.116 0.350 47 38 29 0 0
-0.1955 -0.0084 -0.7851 -0.775 0.612 0.156 55 45 35 0 0
-0.2165 0.0052 -0.8628 -0.769 0.443 0.461 77 70 62 0 0
-0.2180 0.0061 -0.8634 -0.931 0.240 0.275 105 98 92 0 0
-0.0491 -0.1006 -0.3138 -0.907 0.414 -0.082 66 55 39 0 0
-0.1291 -0.0517 -0.3770 -0.805 0.295 0.514 68 62 50 0 0
-0.1283 -0.0517 -0.4176 -0.967 0.212 0.139 36 29 22 0 0
-0.1675 -0.0269 -0.5073 -0.809 0.430 0.400 91 81 71 0 0
-0.1684 -0.0263 -0.5085 -0.851 0.270 0.451 91 81 72 0 0
-0.1583 -0.0301 -0.6872 -0.601 0.224 0.767 20 16 15 0 0
-0.1823 -0.0155 -0.6976 -0.257 0.315 0.914 41 34 27 0 0
-0.1853 -0.0137 -0.6990 -0.466 0.300 0.832 58 51 41 0 0
-0.1902 -0.0107 -0.7009 -0.852 -0.246 0.462 61 53 45 0 0
-0.2118 0.0027 -0.7360 -0.924 0.285 -0.257 77 64 46 0 0
-0.1950 -0.0068 -0.7826 -0.529 0.799 0.286 55 45 35 0 0
-0.1945 -0.0071 -0.7852 -0.775 0.612 0.156 57 47 37 0 0
-0.1980 -0.0049 -0.7903 -0.797 0.334 0.503 60 48 30 0 0
-0.2184 0.0083 -0.8620 -0.893 0.417 0.168 102 96 90 0 0
-0.0362 -0.1068 -0.2824 -0.884 -0.240 -0.402 166 166 161 0 0
-0.1303 -0.0488 -0.4010 -0.973 0.227 0.042 78 68 55 0 0
-0.1284 -0.0497 -0.4222 -0.945 0.209 0.250 40 31 22 0 0
-0.2167 0.0038 -0.4676 -0.829 0.444 0.340 110 102 84 0 0
-0.1531 -0.0315 -0.6665 -0.687 0.601 -0.409 13 9 8 0 0
-0.1702 -0.0209 -0.6909 -0.683 0.173 0.709 38 35 30 0 0
-0.1743 -0.0184 -0.6935 -0.826 0.395 0.402 39 34 30 0 0
-0.1893 -0.0094 -0.7010 -0.863 0.430 0.264 66 58 49 0 0
-0.2116 0.0042 -0.7194 -0.896 0.126 0.426 88 76 56 0 0
-0.1940 -0.0054 -0.7828 -0.764 0.557 0.325 47 39 28 0 0
-0.1935 -0.0057 -0.7854 -0.782 0.536 0.318 52 43 33 0 0
-0.1953 -0.0046 -0.7879 -0.913 0.361 0.191 59 47 32 0 0
-0.2087 0.0037 -0.8001 -0.896 0.288 0.337 57 44 25 0 0
-0.2089 0.0038 -0.8020 -0.892 0.409 0.193 76 63 39 0 0
-0.2095 0.0042 -0.8078 -0.733 0.281 0.619 82 68 43 0 0
-0.2130 0.0068 -0.8385 -0.854 0.364 0.371 86 72 45 0 0
-0.2136 0.0071 -0.8401 -0.839 0.465 0.282 101 91 63 0 0
-0.2146 0.0080 -0.8630 -0.873 0.472 0.125 71 66 57 0 0
-0.0288 -0.1099 -0.2383 -0.565 -0.481 0.670 177 177 177 0 0
-0.0363 -0.1054 -0.2413 -0.787 -0.355 0.504 164 162 153 0 0
-0.0419 -0.1018 -0.2625 -0.910 0.176 0.375 108 90 64 0 0
-0.0387 -0.1034 -0.2815 -0.868 -0.364 -0.337 87 84 75 0 0
-0.1299 -0.0472 -0.4008 -0.952 0.246 0.185 56 46 38 0 0
-0.1297 -0.0474 -0.4026 -0.972 0.209 0.110 54 44 35 0 0
-0.1875 -0.0100 -0.5979 -0.968 0.078 0.239 40 32 28 0 0
-0.1867 -0.0105 -0.6003 -0.967 0.233 0.106 46 39 36 0 0
-0.1859 -0.0109 -0.6028 -0.976 0.129 -0.176 34 29 26 0 0
-0.1586 -0.0259 -0.6875 -0.666 -0.059 0.743 27 23 20 0 0
-0.1593 -0.0255 -0.6890 -0.511 0.405 0.758 26 22 19 0 0
-0.1610 -0.0245 -0.6896 -0.664 0.431 0.611 32 28 25 0 0
-0.1705 -0.0188 -0.6919 -0.903 0.169 0.395 38 35 30 0 0
-0.1895 -0.0073 -0.7001 -0.915 0.245 0.321 69 60 51 0 0
-0.1900 -0.0070 -0.7017 -0.915 0.245 0.321 69 60 51 0 0
-0.2109 0.0058 -0.7293 -0.919 0.373 0.128 75 62 43 0 0
-0.2104 0.0056 -0.7358 -0.880 0.448 -0.160 84 72 48 0 0
-0.1995 -0.0005 -0.7622 -0.818 0.171 -0.549 39 30 20 0 0
-0.1890 -0.0065 -0.7783 -0.954 -0.026 0.298 43 34 25 0 0
-0.1899 -0.0059 -0.7795 -0.666 0.482 0.569 37 28 20 0 0
-0.2088 0.0056 -0.8013 -0.943 0.204 0.263 75 59 35 0 0
-0.2093 0.0059 -0.8030 -0.962 0.196 0.190 91 74 45 0 0
-0.2123 0.0078 -0.8063 -0.637 0.424 0.644 89 73 47 0 0
-0.2140 0.0093 -0.8366 -0.979 0.199 0.033 92 79 52 0 0
-0.2150 0.0100 -0.8441 -0.677 0.097 0.729 110 94 59 0 0
-0.2138 0.0095 -0.8629 -0.873 0.472 0.125 68 63 53 0 0
-0.0420 -0.0999 -0.2606 -0.876 0.229 0.425 77 61 36 0 0
-0.0408 -0.1001 -0.2921 -0.884 0.434 0.172 39 31 18 0 0
-0.1281 -0.0467 -0.3896 -0.880 0.456 0.136 75 63 54 0 0
-0.1285 -0.0464 -0.3927 -0.880 0.474 0.020 66 56 46 0 0
-0.1295 -0.0457 -0.4006 -0.952 0.246 0.185 41 30 23 0 0
-0.2031 -0.0010 -0.4563 -0.848 0.203 0.490 130 116 99 0 0
-0.1568 -0.0251 -0.6883 -0.989 -0.121 0.088 29 25 22 0 0
-0.1570 -0.0249 -0.6901 -1.000 -0.008 -0.013 30 26 23 0 0
-0.1704 -0.0169 -0.6913 -0.767 0.502 0.399 39 36 31 0 0
-0.1737 -0.0149 -0.6946 -0.904 -0.092 0.417 58 53 47 0 0
-0.1876 -0.0066 -0.6990 -0.811 0.330 0.483 78 69 60 0 0
-0.2093 0.0067 -0.7200 -0.548 0.698 0.460 67 56 39 0 0
-0.2110 0.0077 -0.7225 -0.906 0.407 0.115 75 61 40 0 0
-0.2044 0.0043 -0.7548 -0.848 0.111 -0.518 42 32 23 0 0
-0.1998 0.0021 -0.7945 -0.949 0.129 0.288 85 73 45 0 0
-0.2083 0.0073 -0.8010 -0.943 0.204 0.263 77 61 35 0 0
-0.2087 0.0076 -0.8027 -0.943 0.204 0.263 99 80 49 0 0
-0.2118 0.0100 -0.8423 -0.896 -0.039 0.442 87 76 52 0 0
-0.2126 0.0105 -0.8437 -0.775 0.464 0.429 87 71 44 0 0
-0.2135 0.0113 -0.8623 -0.871 0.465 0.156 68 61 51 0 0
-0.0416 -0.0984 -0.2524 -0.991 0.128 0.037 74 59 35 0 0
-0.0462 -0.0949 -0.3019 -0.801 0.397 0.449 54 47 36 0 0
-0.1566 -0.0232 -0.6857 -0.985 -0.146 -0.096 24 23 20 0 0
-0.1576 -0.0226 -0.6869 -0.968 -0.132 -0.211 28 25 22 0 0
-0.1587 -0.0219 -0.6900 -0.641 0.567 0.517 32 28 25 0 0
-0.1870 -0.0050 -0.6988 -0.702 0.595 0.391 85 76 67 0 0
-0.1875 -0.0047 -0.7003 -0.648 0.572 0.503 82 74 64 0 0
-0.2042 0.0054 -0.7118 -0.602 0.072 0.795 99 85 65 0 0
-0.2061 0.0066 -0.7141 -0.545 0.235 0.805 70 55 41 0 0
-0.2089 0.0083 -0.7196 -0.844 0.405 0.351 65 53 38 0 0
-0.2107 0.0095 -0.7280 -0.775 0.526 0.351 71 57 39 0 0
-0.2051 0.0066 -0.7533 -0.760 0.408 -0.506 43 33 24 0 0
-0.2078 0.0090 -0.8006 -0.943 0.204 0.263 78 61 35 0 0
-0.2127 0.0128 -0.8623 -0.871 0.465 0.156 67 59 49 0 0
-0.2128 0.0129 -0.8643 -0.905 0.424 0.037 89 83 74 0 0
-0.3050 0.0676 -0.8599 -0.954 0.289 0.083 206 206 204 0 0
-0.3051 0.0677 -0.8619 -0.982 0.110 0.156 206 206 204 0 0
-0.0354 -0.1004 -0.2376 -0.700 0.148 0.699 159 150 132 0 0
-0.0396 -0.0978 -0.2414 -0.770 0.036 0.637 166 151 119 0 0
-0.0436 -0.0951 -0.2645 -0.959 0.032 0.281 57 45 28 0 0
-0.0420 -0.0955 -0.2962 -0.944 0.305 0.128 148 141 121 0 0
-0.0472 -0.0923 -0.3029 -0.738 0.653 0.168 34 26 21 0 0
-0.1637 -0.0194 -0.5446 -0.982 -0.189 0.017 16 15 13 0 0
-0.1633 -0.0196 -0.5467 -0.968 -0.173 -0.179 16 14 14 0 0
-0.1585 -0.0202 -0.6835 -0.758 0.648 0.072 17 16 14 0 0
-0.1598 -0.0194 -0.6845 -0.687 0.713 0.136 26 23 21 0 0
-0.1907 -0.0009 -0.7009 -0.730 0.152 0.666 69 59 49 0 0
-0.1917 -0.0003 -0.7021 -0.730 0.152 0.666 70 60 51 0 0
-0.1926 0.0003 -0.7032 -0.730 0.152 0.666 75 66 57 0 0
-0.2060 0.0085 -0.7174 -0.744 0.550 0.380 105 93 73 0 0
-0.2066 0.0088 -0.7190 -0.744 0.550 0.380 74 62 49 0 0
-0.2083 0.0099 -0.7194 -0.877 0.314 0.363 60 47 32 0 0
-0.2089 0.0102 -0.7209 -0.877 0.314 0.363 115 99 79 0 0
-0.2097 0.0107 -0.7222 -0.813 0.407 0.416 97 82 59 0 0
-0.2098 0.0108 -0.7240 -0.913 0.371 0.169 78 66 42 0 0
-0.2072 0.0097 -0.7506 -0.731 0.474 -0.491 51 41 30 0 0
-0.1999 0.0060 -0.7885 -0.660 0.544 0.518 131 112 78 0 0
-0.2134 0.0147 -0.8303 -0.951 0.303 0.058 121 107 77 0 0
-0.2120 0.0142 -0.8490 -0.718 0.661 0.216 114 98 60 0 0
-0.0354 -0.0985 -0.2374 -0.840 0.255 0.480 139 125 95 0 0
-0.0386 -0.0966 -0.2398 -0.824 -0.038 0.565 162 148 113 0 0
-0.0397 -0.0959 -0.2411 -0.906 0.239 0.350 136 121 87 0 0
-0.0402 -0.0956 -0.2426 -0.809 0.197 0.554 117 101 66 0 0
-0.0392 -0.0953 -0.2917 -0.910 0.264 0.319 46 40 26 0 0
-0.0420 -0.0937 -0.2959 -0.926 0.305 0.223 162 155 137 0 0
-0.0445 -0.0921 -0.2968 -0.854 0.041 0.519 133 125 107 0 0
-0.1576 -0.0187 -0.6855 -0.134 0.511 0.849 19 15 14 0 0
-0.1594 -0.0177 -0.6861 -0.248 0.333 0.910 21 17 16 0 0
-0.1902 0.0007 -0.7006 -0.730 0.152 0.666 67 57 47 0 0
-0.1915 0.0015 -0.7015 -0.778 0.110 0.619 68 58 48 0 0
-0.2096 0.0128 -0.7375 -0.989 -0.123 0.081 84 72 50 0 0
-0.1989 0.0073 -0.7866 -0.692 0.604 0.396 110 97 65 0 0
-0.1988 0.0073 -0.7888 -0.734 0.563 0.379 111 97 65 0 0
-0.2123 0.0165 -0.8609 -0.860 0.148 0.488 62 55 43 0 0
-0.0401 -0.0939 -0.2408 -0.781 0.539 0.315 138 121 87 0 0
-0.1655 -0.0154 -0.5051 -0.462 0.239 0.854 84 81 72 0 0
-0.1709 -0.0119 -0.5194 -0.990 0.077 0.114 51 43 35 0 0
-0.1576 -0.0172 -0.6650 0.091 -0.061 0.994 9 5 4 0 0
-0.1732 -0.0075 -0.6922 -0.850 0.064 0.523 41 36 30 0 0
-0.1745 -0.0067 -0.6931 -0.881 -0.118 0.458 46 40 34 0 0
-0.1953 0.0058 -0.7074 -0.785 0.295 0.544 58 50 46 0 0
-0.1960 0.0062 -0.7088 -0.709 0.199 0.677 56 51 48 0 0
-0.2100 0.0149 -0.7323 -0.825 0.551 0.125 101 87 61 0 0
-0.2104 0.0151 -0.7360 -0.878 0.479 -0.005 97 85 63 0 0
-0.2096 0.0147 -0.7388 -0.984 0.178 -0.014 94 82 60 0 0
-0.1896 0.0036 -0.7737 -0.613 -0.087 0.785 55 45 34 0 0
-0.1978 0.0087 -0.7890 -0.561 0.744 0.364 77 66 42 0 0
-0.2098 0.0170 -0.8627 -0.964 0.035 0.265 58 51 41 0 0
-0.0395 -0.0923 -0.2439 -0.672 0.487 0.557 98 83 54 0 0
-0.0442 -0.0891 -0.2668 -0.947 0.244 0.209 77 66 48 0 0
-0.0437 -0.0894 -0.2686 -0.842 0.467 0.269 76 63 43 0 0
-0.0384 -0.0921 -0.2881 -0.994 -0.109 0.005 72 64 48 0 0
-0.1408 -0.0315 -0.3216 -0.702 -0.029 0.711 83 68 50 0 0
-0.1695 -0.0111 -0.5110 -0.914 0.287 0.287 56 52 43 0 0
-0.1867 0.0009 -0.6116 -0.912 0.381 0.152 90 81 63 0 0
-0.1525 -0.0180 -0.6802 -0.307 -0.487 0.818 7 6 4 0 0
-0.1559 -0.0159 -0.6815 -0.521 -0.493 0.697 9 8 6 0 0
-0.2093 0.0163 -0.7303 -0.789 0.555 0.264 100 85 63 0 0
-0.2093 0.0163 -0.7323 -0.869 0.484 0.105 97 84 61 0 0
-0.2094 0.0164 -0.7342 -0.824 0.557 0.103 94 85 64 0 0
-0.2096 0.0166 -0.7380 -0.756 0.654 0.034 85 74 55 0 0
-0.1901 0.0059 -0.7745 -0.979 -0.203 -0.013 69 59 41 0 0
-0.1965 0.0099 -0.7894 -0.561 0.744 0.364 43 33 18 0 0
-0.1975 0.0106 -0.7926 -0.784 0.411 0.466 39 27 14 0 0
-0.2096 0.0185 -0.8380 -0.982 0.183 -0.047 124 110 76 0 0
-0.2127 0.0205 -0.8499 -0.775 0.516 0.365 112 98 65 0 0
-0.3019 0.0731 -0.8641 -0.709 0.704 0.031 204 204 203 0 0
-0.3015 0.0729 -0.8688 -0.771 0.637 -0.014 207 207 205 0 0
-0.0379 -0.0914 -0.2440 -0.750 0.468 0.467 70 55 34 0 0
-0.0429 -0.0880 -0.2685 -0.842 0.467 0.269 82 70 48 0 0
-0.1867 0.0027 -0.6110 -0.931 0.320 0.177 86 79 61 0 0
-0.1543 -0.0149 -0.6801 -0.772 -0.411 0.485 7 6 4 0 0
-0.1554 -0.0143 -0.6812 -0.805 -0.398 0.440 9 8 6 0 0
-0.1642 -0.0090 -0.6882 -0.711 -0.283 0.644 31 27 24 0 0
-0.1921 0.0076 -0.7048 -0.929 0.104 0.356 54 45 39 0 0
-0.2087 0.0179 -0.7361 -0.833 0.553 0.012 66 57 39 0 0
-0.2080 0.0176 -0.7387 -0.842 0.494 -0.216 71 62 43 0 0
-0.2098 0.0202 -0.8198 -0.664 0.549 0.507 121 114 79 0 0
-0.2095 0.0203 -0.8350 -0.975 0.191 0.118 121 107 71 0 0
-0.2082 0.0196 -0.8386 -0.735 0.640 0.223 124 110 75 0 0
-0.2085 0.0199 -0.8404 -0.735 0.640 0.223 130 115 81 0 0
-0.2074 0.0194 -0.8502 -0.858 0.269 0.438 119 102 68 0 0
-0.2111 0.0218 -0.8616 -0.868 0.308 0.389 76 69 59 0 0
-0.0358 -0.0909 -0.2347 -0.925 0.378 0.025 87 75 50 0 0
-0.0366 -0.0902 -0.2457 -0.887 0.395 0.238 41 31 17 0 0
-0.0374 -0.0897 -0.2471 -0.771 0.523 0.363 30 21 10 0 0
-0.0379 -0.0894 -0.2486 -0.771 0.523 0.363 31 22 14 0 0
-0.0384 -0.0891 -0.2501 -0.771 0.523 0.363 39 30 21 0 0
-0.0420 -0.0867 -0.2636 -0.833 0.430 0.348 84 71 45 0 0
-0.1271 -0.0363 -0.3057 -0.989 0.132 -0.069 110 95 76 0 0
-0.1561 -0.0119 -0.6800 -0.920 -0.369 0.132 9 8 6 0 0
-0.1565 -0.0117 -0.6817 -0.920 -0.369 0.132 12 11 9 0 0
-0.1619 -0.0085 -0.6834 -0.889 -0.189 0.418 25 21 20 0 0
-0.1652 -0.0065 -0.6867 -0.696 -0.256 0.670 29 25 22 0 0
-0.1836 0.0044 -0.6934 -0.625 -0.193 0.757 69 59 48 0 0
-0.1999 0.0142 -0.7092 -0.684 0.185 0.706 45 35 26 0 0
-0.2029 0.0160 -0.7145 -0.718 0.380 0.583 45 33 20 0 0
-0.2082 0.0195 -0.7318 -0.936 0.135 0.324 80 71 53 0 0
-0.2078 0.0193 -0.7341 -0.833 0.553 0.012 86 78 62 0 0
-0.2080 0.0195 -0.7379 -0.883 0.433 -0.182 66 57 38 0 0
-0.2075 0.0193 -0.7404 -0.885 0.392 -0.250 86 75 56 0 0
-0.1935 0.0120 -0.7886 -0.573 0.600 0.558 54 44 28 0 0
-0.1943 0.0125 -0.7899 -0.573 0.600 0.558 73 61 44 0 0
-0.1959 0.0135 -0.7925 -0.726 0.442 0.527 71 59 40 0 0
-0.2088 0.0216 -0.8221 -0.826 0.545 0.144 113 103 68 0 0
-0.2098 0.0223 -0.8253 -0.747 0.611 0.263 126 113 79 0 0
-0.2084 0.0218 -0.8418 -0.754 0.587 0.295 116 100 68 0 0
-0.0359 -0.0888 -0.2456 -0.887 0.395 0.238 39 30 20 0 0
-0.0370 -0.0881 -0.2486 -0.771 0.523 0.363 36 27 19 0 0
-0.0375 -0.0878 -0.2501 -0.771 0.523 0.363 64 55 45 0 0
-0.1584 -0.0086 -0.6814 -0.870 -0.414 0.268 16 13 12 0 0
-0.1604 -0.0075 -0.6819 -0.851 -0.264 0.455 20 16 15 0 0
-0.1649 -0.0047 -0.6882 -0.696 -0.164 0.698 28 24 21 0 0
-0.1840 0.0064 -0.6884 -0.908 -0.292 0.301 60 51 43 0 0
-0.1839 0.0064 -0.6905 -0.928 -0.132 0.347 65 55 45 0 0
-0.2071 0.0209 -0.7401 -0.793 0.584 -0.174 82 69 49 0 0
-0.2068 0.0207 -0.7423 -0.531 0.834 0.147 64 52 33 0 0
-0.2070 0.0209 -0.7442 -0.955 0.273 0.115 77 65 43 0 0
-0.1878 0.0105 -0.7826 -0.857 0.326 0.398 31 21 14 0 0
-0.1888 0.0111 -0.7838 -0.679 0.364 0.637 34 22 14 0 0
-0.1928 0.0136 -0.7884 -0.706 0.448 0.549 77 63 44 0 0
-0.1935 0.0140 -0.7898 -0.747 0.470 0.471 87 73 52 0 0
-0.1943 0.0145 -0.7911 -0.842 0.426 0.331 97 81 58 0 0
-0.2091 0.0237 -0.8231 -0.692 0.545 0.473 102 93 63 0 0
-0.2081 0.0233 -0.8327 -0.801 0.597 0.037 134 117 79 0 0
-0.2083 0.0235 -0.8346 -0.819 0.570 -0.061 130 114 78 0 0
-0.2082 0.0235 -0.8369 -0.819 0.570 -0.061 121 107 72 0 0
-0.2074 0.0232 -0.8419 -0.754 0.587 0.295 125 109 78 0 0
-0.2086 0.0241 -0.8559 -0.851 0.135 0.507 56 51 31 0 0
-0.2114 0.0258 -0.8595 -0.819 0.418 0.392 71 64 54 0 0
-0.2103 0.0253 -0.8628 -0.772 0.619 -0.147 102 97 88 0 0
-0.0352 -0.0873 -0.2456 -0.887 0.395 0.238 40 27 18 0 0
-0.0358 -0.0869 -0.2470 -0.890 0.288 0.353 45 34 25 0 0
-0.0389 -0.0848 -0.2623 -0.776 0.543 0.321 55 44 27 0 0
-0.0413 -0.0833 -0.2682 -0.928 0.371 0.043 144 131 99 0 0
-0.0414 -0.0832 -0.2714 -0.928 0.371 0.043 79 64 42 0 0
-0.1193 -0.0375 -0.2984 -0.461 -0.327 0.825 141 128 107 0 0
-0.1248 -0.0342 -0.3012 -0.965 0.006 0.261 204 188 162 0 0
-0.1579 -0.0142 -0.3433 -0.980 0.011 0.198 69 58 40 0 0
-0.1569 -0.0136 -0.3962 -0.873 -0.326 0.363 106 94 72 0 0
-0.1578 -0.0130 -0.3974 -0.808 -0.159 0.567 99 84 63 0 0
-0.2081 0.0173 -0.4561 -0.846 0.326 0.422 78 61 39 0 0
-0.2100 0.0184 -0.4567 -0.845 0.437 0.309 88 71 46 0 0
-0.1639 -0.0034 -0.6864 -0.992 0.125 0.009 24 20 18 0 0
-0.1833 0.0078 -0.6864 -0.878 0.031 0.478 49 45 35 0 0
-0.1840 0.0083 -0.6877 -0.878 0.031 0.478 59 52 41 0 0
-0.1844 0.0085 -0.6894 -0.959 -0.038 0.283 65 55 42 0 0
-0.2060 0.0217 -0.7183 -0.798 0.202 0.567 78 65 48 0 0
-0.2064 0.0221 -0.7279 -0.953 0.182 0.241 78 68 47 0 0
-0.2067 0.0224 -0.7356 -0.937 0.306 0.168 68 57 43 0 0
-0.2054 0.0218 -0.7408 -0.823 0.564 -0.064 80 65 46 0 0
-0.2043 0.0212 -0.7439 -0.563 0.749 0.350 63 51 30 0 0
-0.2055 0.0219 -0.7448 -0.733 0.674 0.092 72 65 40 0 0
-0.2076 0.0251 -0.8366 -0.845 0.532 -0.052 127 113 77 0 0
-0.2081 0.0258 -0.8555 -0.851 0.135 0.507 65 58 36 0 0
-0.2100 0.0270 -0.8600 -0.908 0.266 0.324 69 62 52 0 0
-0.0372 -0.0843 -0.2464 -0.941 0.294 0.167 81 70 52 0 0
-0.0426 -0.0805 -0.2789 -0.895 0.445 0.027 77 64 44 0 0
-0.2103 0.0203 -0.4577 -0.544 0.487 0.683 109 94 72 0 0
-0.1873 0.0105 -0.6137 -0.982 0.093 0.164 88 75 52 0 0
-0.1876 0.0107 -0.6154 -0.982 0.093 0.164 83 71 47 0 0
-0.1878 0.0108 -0.6171 -0.714 0.475 0.515 91 77 54 0 0
-0.1886 0.0114 -0.6202 -0.559 0.419 0.715 75 63 44 0 0
-0.1885 0.0113 -0.6222 -0.620 0.669 0.410 66 53 38 0 0
-0.1638 -0.0016 -0.6817 -0.890 -0.197 0.411 27 23 20 0 0
-0.1818 0.0088 -0.6849 -0.880 -0.296 0.372 40 37 28 0 0
-0.1828 0.0094 -0.6861 -0.839 -0.213 0.501 46 42 33 0 0
-0.1833 0.0098 -0.6876 -0.732 -0.489 0.475 61 54 43 0 0
-0.1942 0.0178 -0.7646 -0.771 0.258 -0.582 57 48 31 0 0
-0.1965 0.0198 -0.7958 -0.880 0.249 0.404 63 51 33 0 0
-0.2016 0.0229 -0.8034 -0.804 0.294 0.517 99 82 52 0 0
-0.2018 0.0230 -0.8053 -0.928 0.358 0.103 112 96 62 0 0
-0.2072 0.0272 -0.8556 -0.867 0.460 0.191 82 75 51 0 0
-0.2090 0.0284 -0.8580 -0.837 0.469 0.281 50 46 35 0 0
-0.2095 0.0286 -0.8597 -0.837 0.469 0.281 68 61 51 0 0
-0.2099 0.0289 -0.8615 -0.911 0.319 0.261 96 90 81 0 0
-0.1559 -0.0118 -0.3497 -0.929 0.069 -0.364 78 67 47 0 0
-0.1503 -0.0147 -0.3599 -0.991 0.052 0.124 100 85 60 0 0
-0.1532 -0.0125 -0.3826 -0.934 0.017 0.358 104 90 68 0 0
-0.1558 -0.0111 -0.3830 -0.773 -0.091 0.627 98 86 64 0 0
-0.1567 -0.0105 -0.3842 -0.675 -0.222 0.704 89 78 56 0 0
-0.1575 -0.0100 -0.3855 -0.813 -0.269 0.517 103 92 68 0 0
-0.1751 0.0007 -0.4143 -0.625 -0.050 0.779 120 105 83 0 0
-0.1764 0.0016 -0.4152 -0.619 -0.033 0.785 117 103 80 0 0
-0.2059 0.0192 -0.4451 -0.960 0.054 0.273 151 131 102 0 0
-0.2084 0.0210 -0.4616 -0.895 0.368 0.251 65 55 43 0 0
-0.2165 0.0282 -0.5719 -0.959 0.064 -0.278 97 90 70 0 0
-0.2023 0.0203 -0.5875 -0.798 -0.427 -0.426 74 62 42 0 0
-0.1869 0.0121 -0.6171 -0.928 0.364 0.084 63 49 27 0 0
-0.1879 0.0127 -0.6183 -0.654 0.521 0.549 91 78 56 0 0
-0.1879 0.0128 -0.6220 -0.798 0.260 0.543 69 58 44 0 0
-0.2013 0.0235 -0.7532 -0.874 0.423 -0.241 77 66 45 0 0
-0.1863 0.0153 -0.7754 -0.942 0.215 -0.258 63 53 35 0 0
-0.1958 0.0213 -0.7957 -0.944 -0.003 0.329 57 48 32 0 0
-0.1953 0.0211 -0.7982 -0.894 0.198 0.402 46 37 23 0 0
-0.1990 0.0232 -0.8010 -0.660 0.165 0.733 68 53 34 0 0
-0.2003 0.0240 -0.8018 -0.825 0.320 0.466 78 62 36 0 0
-0.2006 0.0242 -0.8036 -0.664 0.288 0.690 95 78 48 0 0
-0.2079 0.0291 -0.8323 -0.800 0.455 0.391 134 119 83 0 0
-0.2080 0.0297 -0.8560 -0.798 0.127 0.589 58 55 38 0 0
-0.2087 0.0301 -0.8575 -0.846 0.280 0.454 54 50 38 0 0
-0.2090 0.0304 -0.8592 -0.926 0.142 0.350 66 60 49 0 0
-0.0382 -0.0796 -0.2650 -0.697 0.482 0.531 78 65 45 0 0
-0.0398 -0.0786 -0.2678 -0.753 0.384 0.535 161 147 114 0 0
-0.1511 -0.0125 -0.3624 -0.918 -0.333 0.217 96 85 64 0 0
-0.1550 -0.0099 -0.3782 -0.835 0.349 0.424 95 81 56 0 0
-0.1543 -0.0102 -0.3801 -0.845 0.357 0.398 107 93 68 0 0
-0.1552 -0.0097 -0.3813 -0.780 0.234 0.581 107 94 70 0 0
-0.1563 -0.0091 -0.3824 -0.811 0.093 0.577 95 83 59 0 0
-0.1764 0.0033 -0.4148 -0.622 0.062 0.780 106 92 68 0 0
-0.1773 0.0038 -0.4160 -0.715 -0.067 0.696 107 92 69 0 0
-0.1868 0.0096 -0.4339 -0.624 0.322 0.712 113 98 75 0 0
-0.2053 0.0205 -0.4450 -0.903 0.403 0.152 140 119 87 0 0
-0.2169 0.0298 -0.5570 -0.914 0.382 0.136 118 108 83 0 0
-0.2167 0.0297 -0.5589 -0.912 0.361 0.194 135 123 93 0 0
-0.2172 0.0301 -0.5603 -0.890 0.311 0.334 140 125 96 0 0
-0.2175 0.0303 -0.5618 -0.889 0.434 0.146 105 90 58 0 0
-0.1876 0.0142 -0.6123 -0.701 0.706 0.097 104 93 74 0 0
-0.1870 0.0140 -0.6164 -0.983 0.171 0.073 55 39 20 0 0
-0.1883 0.0148 -0.6192 -0.792 0.273 0.546 66 55 39 0 0
-0.1625 0.0013 -0.6755 -0.769 0.604 -0.211 25 24 22 0 0
-0.1960 0.0210 -0.6973 -0.863 0.140 0.485 75 64 45 0 0
-0.2049 0.0269 -0.7290 -0.865 0.425 0.267 83 71 51 0 0
-0.1941 0.0221 -0.7881 -0.753 0.523 0.400 102 87 60 0 0
-0.1947 0.0224 -0.7896 -0.753 0.523 0.400 102 86 59 0 0
-0.1964 0.0235 -0.7921 -0.729 0.122 0.674 71 61 41 0 0
-0.2002 0.0259 -0.8031 -0.701 0.340 0.627 90 73 44 0 0
-0.2067 0.0304 -0.8327 -0.798 0.452 0.400 141 127 89 0 0
-0.2056 0.0302 -0.8533 -0.908 0.334 0.254 118 105 69 0 0
-0.2060 0.0304 -0.8551 -0.908 0.334 0.254 93 85 58 0 0
-0.2084 0.0319 -0.8569 -0.798 0.127 0.589 47 45 33 0 0
-0.2087 0.0321 -0.8587 -0.945 -0.004 0.326 63 58 46 0 0
-0.0349 -0.0800 -0.2479 -0.731 0.559 0.391 137 124 96 0 0
-0.0350 -0.0796 -0.2623 -0.966 0.126 0.224 60 51 33 0 0
-0.0398 -0.0767 -0.2708 -0.893 0.020 0.449 86 74 53 0 0
-0.1583 -0.0071 -0.3419 -0.980 0.164 0.110 74 63 41 0 0
-0.1589 -0.0068 -0.3432 -0.981 0.063 -0.184 78 67 45 0 0
-0.1512 -0.0108 -0.3588 -0.935 -0.335 0.119 78 66 46 0 0
-0.1512 -0.0108 -0.3604 -0.786 -0.376 0.491 87 74 55 0 0
-0.1552 -0.0081 -0.3746 -0.932 0.363 -0.008 102 87 62 0 0
-0.1547 -0.0084 -0.3764 -0.990 -0.142 0.011 92 78 51 0 0
-0.1706 0.0014 -0.4043 -0.979 -0.179 0.095 108 94 68 0 0
-0.1708 0.0015 -0.4059 -0.979 -0.179 0.095 133 118 90 0 0
-0.1710 0.0017 -0.4074 -0.931 -0.045 0.361 144 129 101 0 0
-0.1777 0.0057 -0.4154 -0.793 -0.202 0.575 120 106 80 0 0
-0.1796 0.0069 -0.4177 -0.795 -0.107 0.597 108 93 67 0 0
-0.1811 0.0077 -0.4185 -0.487 0.754 0.441 113 97 73 0 0
-0.1854 0.0104 -0.4260 -0.719 0.627 0.301 124 110 84 0 0
-0.1870 0.0114 -0.4301 -0.873 0.467 0.138 127 112 86 0 0
-0.1984 0.0181 -0.4370 -0.694 -0.144 0.705 131 113 93 0 0
-0.1992 0.0186 -0.4382 -0.880 -0.097 0.465 215 204 181 0 0
-0.2055 0.0223 -0.4444 -0.849 0.353 0.392 148 129 99 0 0
-0.2076 0.0239 -0.4595 -0.886 0.301 0.352 72 61 47 0 0
-0.2081 0.0242 -0.4609 -0.886 0.301 0.352 73 64 52 0 0
-0.2161 0.0311 -0.5570 -0.926 0.321 0.200 109 100 73 0 0
-0.2165 0.0314 -0.5602 -0.893 0.287 0.346 134 120 90 0 0
-0.1649 0.0045 -0.6710 -0.561 0.760 -0.327 29 28 26 0 0
-0.1644 0.0042 -0.6734 -0.362 0.925 -0.114 23 22 20 0 0
-0.1917 0.0204 -0.6942 -0.752 0.216 0.623 84 72 51 0 0
-0.1927 0.0210 -0.6954 -0.705 0.237 0.668 70 58 41 0 0
-0.1959 0.0229 -0.6985 -0.938 0.022 0.345 73 63 49 0 0
-0.1966 0.0233 -0.6999 -0.776 0.407 0.481 47 38 29 0 0
-0.2031 0.0274 -0.7140 -0.989 0.142 0.040 51 41 28 0 0
-0.1862 0.0192 -0.7760 -0.962 0.168 -0.213 47 37 23 0 0
-0.1969 0.0258 -0.7950 -0.810 0.278 0.517 48 36 23 0 0
-0.1962 0.0254 -0.7978 -0.994 0.108 0.035 48 37 21 0 0
-0.2046 0.0309 -0.8254 -0.866 0.458 0.201 135 117 78 0 0
-0.2059 0.0318 -0.8327 -0.798 0.452 0.400 146 132 92 0 0
-0.2059 0.0319 -0.8349 -0.882 0.404 0.242 140 125 86 0 0
-0.2046 0.0315 -0.8491 -0.955 0.278 0.100 106 92 57 0 0
-0.2087 0.0340 -0.8578 -0.498 0.434 0.751 59 54 42 0 0
-0.0394 -0.0754 -0.2561 -0.910 0.375 0.175 73 60 41 0 0
-0.0393 -0.0751 -0.2706 -0.941 0.199 0.275 117 106 88 0 0
-0.1118 -0.0334 -0.2855 -0.492 -0.418 0.764 132 122 103 0 0
-0.1548 -0.0067 -0.3696 -0.927 0.363 -0.094 94 79 54 0 0
-0.1547 -0.0067 -0.3744 -0.932 0.363 -0.008 108 93 65 0 0
-0.1546 -0.0066 -0.3793 -0.872 -0.197 0.447 110 95 65 0 0
-0.1713 0.0035 -0.4036 -0.968 -0.199 0.150 75 62 40 0 0
-0.1713 0.0036 -0.4069 -0.974 -0.054 0.220 133 121 96 0 0
-0.1840 0.0112 -0.4215 -0.745 0.024 0.667 122 107 78 0 0
-0.1861 0.0126 -0.4301 -0.816 0.545 0.191 132 117 87 0 0
-0.1866 0.0130 -0.4331 -0.839 0.493 0.229 134 118 92 0 0
-0.1992 0.0203 -0.4394 -0.982 0.140 0.130 162 144 124 0 0
-0.2043 0.0233 -0.4447 -0.651 0.508 0.564 129 112 84 0 0
-0.2070 0.0251 -0.4512 -0.993 0.028 0.114 118 105 87 0 0
-0.2112 0.0296 -0.5373 -0.953 0.172 0.248 79 68 52 0 0
-0.2138 0.0314 -0.5511 -0.906 0.263 0.332 77 64 41 0 0
-0.2146 0.0318 -0.5523 -0.825 0.552 0.119 90 78 51 0 0
-0.2166 0.0334 -0.5684 -0.936 0.351 -0.030 122 104 72 0 0
-0.1882 0.0183 -0.6143 -0.946 0.267 0.182 102 88 69 0 0
-0.1587 0.0027 -0.6653 -0.881 0.472 -0.033 12 11 9 0 0
-0.1612 0.0042 -0.6693 -0.352 0.935 0.044 13 12 10 0 0
-0.1619 0.0047 -0.6707 -0.681 0.732 0.006 16 15 13 0 0
-0.1890 0.0206 -0.6900 -0.782 0.436 0.445 88 74 50 0 0
-0.1892 0.0208 -0.6917 -0.705 0.237 0.668 115 103 76 0 0
-0.1902 0.0214 -0.6929 -0.705 0.237 0.668 103 91 67 0 0
-0.2012 0.0282 -0.7129 -0.834 0.328 0.443 62 54 39 0 0
-0.2022 0.0289 -0.7180 -0.880 0.459 0.123 58 47 32 0 0
-0.1860 0.0210 -0.7753 -0.962 0.168 -0.213 50 38 24 0 0
-0.1864 0.0213 -0.7770 -0.588 0.092 0.804 50 41 23 0 0
-0.1913 0.0243 -0.7849 -0.813 0.288 0.507 66 51 32 0 0
-0.1920 0.0247 -0.7863 -0.809 0.364 0.462 60 46 29 0 0
-0.1963 0.0274 -0.7948 -0.541 0.735 0.409 56 44 31 0 0
-0.1998 0.0296 -0.8040 -0.909 0.319 0.269 92 75 43 0 0
-0.2039 0.0324 -0.8253 -0.866 0.458 0.201 142 124 84 0 0
-0.2051 0.0334 -0.8348 -0.879 0.402 0.256 141 126 86 0 0
-0.2037 0.0329 -0.8492 -0.909 0.379 0.171 94 80 48 0 0
-0.2044 0.0337 -0.8614 -0.724 0.688 0.053 58 52 39 0 0
-0.0285 -0.0812 -0.1984 -0.974 -0.114 0.197 178 177 175 0 0
-0.0355 -0.0760 -0.2488 -0.794 0.392 0.464 82 70 54 0 0
-0.0361 -0.0756 -0.2503 -0.794 0.392 0.464 93 80 64 0 0
-0.0384 -0.0743 -0.2513 -0.644 0.650 0.403 104 90 73 0 0
-0.0389 -0.0738 -0.2559 -0.580 0.635 0.509 77 64 45 0 0
-0.0371 -0.0747 -0.2645 -0.898 0.280 0.341 34 29 15 0 0
-0.1711 0.0051 -0.4017 -0.971 0.215 0.101 96 82 57 0 0
-0.1711 0.0051 -0.4034 -0.977 0.145 0.156 82 70 45 0 0
-0.1716 0.0054 -0.4063 -0.970 0.127 0.206 114 103 83 0 0
-0.1849 0.0137 -0.4336 -0.826 0.367 0.427 146 126 100 0 0
-0.1856 0.0141 -0.4349 -0.712 0.484 0.509 132 111 84 0 0
-0.2010 0.0231 -0.4412 -0.784 0.552 0.285 177 161 127 0 0
-0.2180 0.0347 -0.5169 -0.982 0.171 -0.077 77 69 59 0 0
-0.2149 0.0339 -0.5585 -0.776 0.426 0.464 175 161 136 0 0
-0.2159 0.0345 -0.5596 -0.851 0.359 0.384 100 84 60 0 0
-0.2158 0.0347 -0.5684 -0.898 0.435 -0.069 105 90 58 0 0
-0.2140 0.0339 -0.5785 -0.994 0.060 0.089 119 102 74 0 0
-0.1679 0.0100 -0.6712 -0.364 -0.784 0.503 23 20 19 0 0
-0.1841 0.0195 -0.6836 -0.883 0.041 0.467 35 29 26 0 0
-0.2010 0.0301 -0.7203 -0.826 0.467 0.316 80 67 48 0 0
-0.1880 0.0240 -0.7706 -0.827 0.276 -0.489 54 42 28 0 0
-0.1937 0.0277 -0.7902 -0.840 0.374 0.392 59 47 31 0 0
-0.1950 0.0286 -0.7953 -0.541 0.735 0.409 93 81 66 0 0
-0.1961 0.0292 -0.7963 -0.380 0.865 0.327 86 75 58 0 0
-0.2044 0.0349 -0.8346 -0.839 0.464 0.283 140 125 87 0 0
-0.2038 0.0352 -0.8590 -0.584 0.757 0.294 42 39 25 0 0
-0.0288 -0.0794 -0.1935 -0.939 0.067 0.337 180 176 174 0 0
-0.0286 -0.0794 -0.1966 -0.994 -0.089 0.069 180 176 174 0 0
-0.0343 -0.0748 -0.2489 -0.819 0.483 0.308 59 49 36 0 0
-0.0350 -0.0744 -0.2503 -0.710 0.539 0.453 83 72 57 0 0
-0.0357 -0.0740 -0.2517 -0.616 0.563 0.551 97 86 68 0 0
-0.0365 -0.0732 -0.2644 -0.899 0.360 0.248 32 22 13 0 0
-0.1438 -0.0109 -0.3202 -0.969 -0.168 0.184 76 64 51 0 0
-0.1598 -0.0014 -0.3341 -0.946 0.279 0.164 76 64 38 0 0
-0.1595 -0.0015 -0.3358 -0.871 0.280 0.405 81 70 45 0 0
-0.1548 -0.0037 -0.3532 -0.845 0.410 0.343 100 87 66 0 0
-0.1552 -0.0035 -0.3546 -0.845 0.410 0.343 78 63 42 0 0
-0.1535 -0.0042 -0.3647 -0.830 0.537 0.154 120 105 75 0 0
-0.1669 0.0041 -0.3921 -0.872 -0.279 0.402 93 81 62 0 0
-0.1706 0.0065 -0.4016 -0.977 0.145 0.156 100 87 56 0 0
-0.1710 0.0068 -0.4046 -0.977 0.145 0.156 87 72 55 0 0
-0.1713 0.0070 -0.4061 -0.982 0.008 0.189 98 85 67 0 0
-0.1727 0.0079 -0.4102 -0.794 0.226 0.565 146 132 96 0 0
-0.1799 0.0120 -0.4115 -0.681 0.100 0.726 146 130 95 0 0
-0.1805 0.0124 -0.4128 -0.655 0.447 0.609 160 146 111 0 0
-0.1812 0.0128 -0.4141 -0.776 0.424 0.466 158 146 110 0 0
-0.1828 0.0138 -0.4149 -0.915 0.074 0.397 158 144 107 0 0
-0.1834 0.0145 -0.4323 -0.877 0.465 0.120 167 155 118 0 0
-0.1837 0.0148 -0.4338 -0.824 0.460 0.331 151 135 104 0 0
-0.1987 0.0234 -0.4388 -0.751 0.622 0.223 178 161 118 0 0
-0.1990 0.0236 -0.4402 -0.832 0.511 0.218 206 190 148 0 0
-0.2055 0.0274 -0.4464 -0.704 0.131 0.698 99 87 62 0 0
-0.2083 0.0294 -0.4594 -0.970 0.196 0.143 138 129 109 0 0
-0.2177 0.0361 -0.5149 -0.773 0.438 0.460 61 54 41 0 0
-0.2178 0.0362 -0.5165 -0.891 0.453 -0.006 55 48 37 0 0
-0.2162 0.0365 -0.5641 -0.930 0.309 0.198 122 109 83 0 0
-0.2139 0.0357 -0.5798 -0.942 0.224 0.248 107 90 64 0 0
-0.1578 0.0060 -0.6647 -0.877 0.420 -0.234 14 13 11 0 0
-0.1851 0.0220 -0.6840 -0.794 0.524 0.307 39 34 28 0 0
-0.2011 0.0321 -0.7235 -0.864 0.395 0.312 76 63 41 0 0
-0.1851 0.0245 -0.7787 -0.779 0.550 0.303 57 45 30 0 0
-0.1894 0.0271 -0.7851 -0.658 0.533 0.531 65 49 34 0 0
-0.1931 0.0293 -0.7900 -0.946 0.174 0.272 93 80 59 0 0
-0.1935 0.0296 -0.7916 -0.946 0.174 0.272 119 104 82 0 0
-0.1944 0.0301 -0.7929 -0.854 0.165 0.493 114 100 77 0 0
-0.1980 0.0324 -0.8041 -0.928 0.307 0.212 104 88 53 0 0
-0.2036 0.0364 -0.8345 -0.879 0.402 0.256 149 133 97 0 0
-0.2034 0.0369 -0.8585 -0.760 0.571 0.309 43 40 25 0 0
-0.0340 -0.0731 -0.2503 -0.710 0.539 0.453 75 67 54 0 0
-0.0347 -0.0727 -0.2517 -0.692 0.483 0.536 78 69 52 0 0
-0.0371 -0.0711 -0.2591 -0.858 0.371 0.354 38 28 18 0 0
-0.1551 -0.0026 -0.3264 -0.736 0.520 0.435 167 153 123 0 0
-0.1590 -0.0001 -0.3356 -0.787 0.515 0.339 76 63 43 0 0
-0.1562 -0.0016 -0.3414 -0.798 0.575 -0.181 45 35 25 0 0
-0.1543 -0.0023 -0.3530 -0.833 0.348 0.429 80 67 51 0 0
-0.1794 0.0137 -0.4226 -0.865 0.315 0.390 159 139 104 0 0
-0.1822 0.0156 -0.4325 -0.961 0.145 0.236 176 162 124 0 0
-0.1829 0.0160 -0.4338 -0.814 0.452 0.365 177 162 128 0 0
-0.1981 0.0247 -0.4387 -0.801 0.286 0.526 191 173 131 0 0
-0.1998 0.0257 -0.4394 -0.873 -0.019 0.488 211 195 154 0 0
-0.2013 0.0266 -0.4418 -0.862 0.326 0.387 130 111 77 0 0
-0.2172 0.0375 -0.5148 -0.937 0.263 0.231 62 54 41 0 0
-0.2172 0.0376 -0.5165 -0.905 0.425 -0.028 72 64 53 0 0
-0.2153 0.0378 -0.5641 -0.894 0.437 0.101 121 106 81 0 0
-0.2147 0.0376 -0.5680 -0.907 0.420 -0.012 131 115 85 0 0
-0.2136 0.0372 -0.5776 -0.850 0.296 0.437 127 110 82 0 0
-0.2142 0.0376 -0.5808 -0.797 0.485 0.360 85 69 43 0 0
-0.1848 0.0236 -0.6816 -0.986 -0.036 0.161 39 33 26 0 0
-0.1850 0.0238 -0.6833 -0.986 -0.036 0.161 41 37 29 0 0
-0.1859 0.0245 -0.6905 -0.748 0.507 0.428 44 36 26 0 0
-0.1976 0.0316 -0.7080 -0.813 0.288 0.506 38 29 20 0 0
-0.1980 0.0327 -0.7436 -0.750 0.580 0.317 84 72 50 0 0
-0.1984 0.0330 -0.7452 -0.750 0.580 0.317 88 76 54 0 0
-0.1948 0.0323 -0.7959 -0.973 0.118 0.200 76 64 47 0 0
-0.1944 0.0322 -0.7984 -0.861 0.507 0.051 60 45 29 0 0
-0.1948 0.0324 -0.8001 -0.719 0.578 0.386 59 43 23 0 0
-0.2037 0.0386 -0.8421 -0.764 0.621 0.172 120 106 73 0 0
-0.0356 -0.0702 -0.2545 -0.689 0.478 0.545 52 43 30 0 0
-0.0359 -0.0699 -0.2592 -0.852 0.413 0.320 35 26 17 0 0
-0.0347 -0.0705 -0.2644 -0.821 0.570 0.020 31 23 14 0 0
-0.1312 -0.0152 -0.2949 -0.910 0.027 0.413 129 114 82 0 0
-0.1430 -0.0082 -0.3077 -0.762 0.162 0.627 140 130 118 0 0
-0.1438 -0.0077 -0.3089 -0.790 0.120 0.601 121 111 99 0 0
-0.1446 -0.0072 -0.3101 -0.818 0.192 0.542 128 119 104 0 0
-0.1465 -0.0060 -0.3155 -0.948 -0.004 0.318 52 40 27 0 0
-0.1548 -0.0011 -0.3247 -0.839 0.400 0.368 122 106 80 0 0
-0.1553 -0.0008 -0.3260 -0.898 0.328 0.293 111 98 70 0 0
-0.1579 0.0007 -0.3281 -0.884 0.256 0.390 161 146 114 0 0
-0.1535 -0.0011 -0.3515 -0.939 0.307 0.154 80 68 53 0 0
-0.1793 0.0153 -0.4207 -0.429 0.825 0.369 173 155 114 0 0
-0.1789 0.0151 -0.4225 -0.816 0.294 0.498 186 168 131 0 0
-0.1794 0.0155 -0.4238 -0.865 0.247 0.438 198 180 140 0 0
-0.1798 0.0157 -0.4252 -0.939 0.117 0.324 197 182 139 0 0
-0.2014 0.0284 -0.4429 -0.777 0.376 0.505 97 81 50 0 0
-0.2153 0.0378 -0.5021 -0.948 0.307 0.079 94 85 72 0 0
-0.2094 0.0355 -0.5398 -0.938 0.268 0.219 111 100 80 0 0
-0.2149 0.0393 -0.5639 -0.831 0.549 0.095 93 78 53 0 0
-0.2150 0.0394 -0.5655 -0.831 0.549 0.095 101 85 56 0 0
-0.1863 0.0245 -0.6152 -0.987 0.156 0.049 97 86 70 0 0
-0.1916 0.0298 -0.6987 -0.915 0.378 0.139 54 46 33 0 0
-0.1992 0.0352 -0.7397 -0.762 0.266 0.590 96 84 63 0 0
-0.1992 0.0353 -0.7437 -0.478 0.663 0.576 84 72 51 0 0
-0.1938 0.0338 -0.8002 -0.719 0.578 0.386 66 50 28 0 0
-0.2013 0.0389 -0.8330 -0.875 0.427 0.229 158 142 101 0 0
-0.2002 0.0390 -0.8601 -0.934 0.357 0.032 50 45 27 0 0
-0.1334 -0.0122 -0.2970 -0.906 0.293 0.307 222 208 171 0 0
-0.1340 -0.0117 -0.3013 -0.968 0.185 0.169 73 64 46 0 0
-0.1422 -0.0070 -0.3076 -0.688 -0.071 0.722 130 121 110 0 0
-0.1451 -0.0051 -0.3158 -0.926 0.334 0.177 58 46 34 0 0
-0.1544 0.0003 -0.3245 -0.926 0.241 0.291 101 86 60 0 0
-0.1572 0.0020 -0.3265 -0.885 0.227 0.405 80 68 43 0 0
-0.1569 0.0021 -0.3358 -0.569 0.783 0.249 90 75 51 0 0
-0.1568 0.0021 -0.3374 -0.529 0.816 0.233 100 84 63 0 0
-0.1558 0.0021 -0.3580 -0.996 -0.073 0.044 95 79 54 0 0
-0.1756 0.0151 -0.4254 -0.569 0.821 -0.039 207 190 149 0 0
-0.1780 0.0166 -0.4322 -0.576 0.752 0.321 227 213 171 0 0
-0.1789 0.0171 -0.4334 -0.782 0.621 0.046 214 200 157 0 0
-0.1790 0.0173 -0.4350 -0.982 0.122 0.141 206 191 143 0 0
-0.1782 0.0169 -0.4370 -0.874 0.169 0.455 201 183 139 0 0
-0.2087 0.0346 -0.4578 -0.846 0.176 0.504 94 82 62 0 0
-0.2130 0.0380 -0.4947 -0.834 0.423 0.353 113 99 77 0 0
-0.2134 0.0383 -0.4961 -0.834 0.423 0.353 72 59 41 0 0
-0.2138 0.0386 -0.4975 -0.834 0.423 0.353 52 42 28 0 0
-0.2139 0.0387 -0.4991 -0.862 0.354 0.363 99 89 78 0 0
-0.2141 0.0407 -0.5656 -0.886 0.463 -0.034 106 90 65 0 0
-0.1853 0.0258 -0.6153 -0.922 0.253 0.292 94 85 67 0 0
-0.1858 0.0261 -0.6168 -0.922 0.253 0.292 88 78 60 0 0
-0.1836 0.0262 -0.6638 -0.975 0.090 0.201 44 34 24 0 0
-0.1954 0.0341 -0.7085 -0.797 0.462 0.390 76 68 57 0 0
-0.1963 0.0346 -0.7096 -0.846 0.334 0.415 70 60 49 0 0
-0.1981 0.0360 -0.7239 -0.778 0.545 0.313 123 116 96 0 0
-0.1975 0.0362 -0.7425 -0.877 -0.083 0.474 89 78 57 0 0
-0.1982 0.0366 -0.7439 -0.843 0.025 0.538 77 65 44 0 0
-0.1955 0.0354 -0.7524 -0.887 0.330 -0.323 78 69 46 0 0
-0.1845 0.0299 -0.7790 -0.789 0.209 0.578 71 58 40 0 0
-0.1916 0.0342 -0.7890 -0.936 0.262 0.235 119 104 77 0 0
-0.1963 0.0373 -0.8054 -0.897 0.258 0.360 107 90 57 0 0
-0.2005 0.0404 -0.8330 -0.937 0.316 0.148 157 139 99 0 0
-0.2022 0.0416 -0.8420 -0.975 0.219 0.028 129 115 80 0 0
-0.0272 -0.0734 -0.1807 -0.881 -0.346 0.323 134 123 95 0 0
-0.0321 -0.0703 -0.1905 -0.730 0.220 0.646 127 112 77 0 0
-0.0343 -0.0691 -0.1931 -0.699 0.444 0.561 148 132 89 0 0
-0.0317 -0.0689 -0.2502 -0.736 0.525 0.428 27 20 14 0 0
-0.1329 -0.0108 -0.2969 -0.906 0.293 0.307 202 188 150 0 0
-0.1428 -0.0049 -0.3086 -0.714 0.216 0.666 130 118 103 0 0
-0.1498 -0.0007 -0.3183 -0.917 -0.133 0.377 147 134 107 0 0
-0.1524 0.0008 -0.3219 -0.936 0.084 0.343 162 144 101 0 0
-0.1547 0.0023 -0.3256 -0.895 0.422 0.141 104 92 73 0 0
-0.1622 0.0091 -0.4186 -0.795 0.596 0.115 226 215 173 0 0
-0.1621 0.0091 -0.4203 -0.853 0.518 0.053 224 210 171 0 0
-0.1789 0.0189 -0.4346 -0.963 -0.132 0.236 220 204 155 0 0
-0.2087 0.0362 -0.4542 -0.804 0.377 0.460 67 55 44 0 0
-0.2087 0.0363 -0.4607 -0.976 0.142 -0.163 74 62 41 0 0
-0.2140 0.0404 -0.4986 -0.873 0.239 0.425 41 30 21 0 0
-0.2164 0.0421 -0.5121 -0.865 0.111 0.490 102 91 77 0 0
-0.2093 0.0389 -0.5371 -0.856 0.192 0.480 80 64 39 0 0
-0.2134 0.0420 -0.5655 -0.886 0.463 -0.034 102 86 61 0 0
-0.1818 0.0259 -0.6247 -0.901 0.432 0.018 47 40 28 0 0
-0.1784 0.0249 -0.6538 -0.968 -0.139 0.207 13 12 11 0 0
-0.1942 0.0352 -0.7069 -0.814 0.445 0.375 88 77 68 0 0
-0.1987 0.0384 -0.7287 -0.928 0.317 0.194 128 115 95 0 0
-0.1921 0.0357 -0.7629 -0.845 0.290 -0.450 86 74 53 0 0
-0.1837 0.0314 -0.7790 -0.718 0.308 0.625 69 56 37 0 0
-0.1886 0.0343 -0.7848 -0.503 0.245 0.829 72 57 34 0 0
-0.1891 0.0346 -0.7864 -0.621 0.352 0.701 89 75 49 0 0
-0.1889 0.0346 -0.7887 -0.672 0.594 0.443 111 96 68 0 0
-0.1900 0.0353 -0.7896 -0.652 0.735 0.185 114 99 70 0 0
-0.1906 0.0356 -0.7912 -0.788 0.591 0.170 100 84 58 0 0
-0.1908 0.0358 -0.7931 -0.788 0.591 0.170 77 64 39 0 0
-0.1914 0.0362 -0.7946 -0.559 0.660 0.503 61 47 26 0 0
-0.1953 0.0386 -0.8034 -0.913 0.373 0.164 79 62 34 0 0
-0.1951 0.0386 -0.8057 -0.702 0.437 0.563 105 89 54 0 0
-0.1959 0.0390 -0.8070 -0.702 0.437 0.563 119 101 60 0 0
-0.2007 0.0427 -0.8405 -0.942 0.326 0.085 138 124 89 0 0
-0.2009 0.0428 -0.8425 -0.955 0.286 0.080 132 118 83 0 0
-0.2019 0.0440 -0.8630 -0.815 0.457 0.355 99 93 87 0 0
-0.0292 -0.0703 -0.1862 -0.856 0.086 0.509 188 168 122 0 0
-0.0301 -0.0698 -0.1876 -0.922 0.153 0.356 169 151 102 0 0
-0.0338 -0.0675 -0.1930 -0.884 0.290 0.366 153 137 97 0 0
-0.0371 -0.0656 -0.1970 -0.863 0.323 0.389 100 86 51 0 0
-0.0356 -0.0655 -0.2283 -0.773 -0.214 0.597 119 100 69 0 0
-0.0357 -0.0654 -0.2299 -0.939 -0.284 0.195 112 91 62 0 0
-0.1096 -0.0227 -0.2766 -0.772 -0.283 0.569 72 59 43 0 0
-0.1257 -0.0134 -0.2868 -0.689 0.061 0.723 163 147 112 0 0
-0.1533 0.0031 -0.3243 -0.940 0.237 0.244 54 41 24 0 0
-0.1537 0.0033 -0.3257 -0.848 0.301 0.435 47 34 21 0 0
-0.1552 0.0042 -0.3266 -0.755 0.412 0.510 42 29 17 0 0
-0.1537 0.0037 -0.3364 -0.666 0.743 0.071 77 65 45 0 0
-0.1536 0.0037 -0.3380 -0.826 0.504 0.252 110 99 78 0 0
-0.1539 0.0039 -0.3394 -0.826 0.504 0.252 80 70 51 0 0
-0.1628 0.0111 -0.4179 -0.705 0.246 0.665 218 205 163 0 0
-0.1636 0.0116 -0.4192 -0.835 0.059 0.547 228 214 173 0 0
-0.1726 0.0166 -0.4196 -0.463 0.020 0.886 227 211 171 0 0
-0.1797 0.0210 -0.4322 -0.862 0.479 -0.165 212 197 152 0 0
-0.1808 0.0216 -0.4332 -0.956 0.132 0.260 199 183 134 0 0
-0.2070 0.0368 -0.4514 -0.862 0.326 0.387 66 53 41 0 0
-0.2143 0.0423 -0.4996 -0.852 0.154 0.501 26 16 9 0 0
-0.2106 0.0412 -0.5323 -0.900 0.200 -0.388 95 85 63 0 0
-0.2139 0.0435 -0.5507 -0.983 -0.097 0.153 133 121 93 0 0
-0.2132 0.0436 -0.5651 -0.934 0.334 -0.129 119 104 77 0 0
-0.1827 0.0281 -0.6179 -0.961 0.159 -0.225 72 63 47 0 0
-0.1737 0.0237 -0.6416 -0.824 0.123 -0.554 13 9 9 0 0
-0.1778 0.0263 -0.6517 -0.926 -0.123 0.357 11 10 8 0 0
-0.1956 0.0380 -0.7108 -0.693 0.603 0.394 109 94 73 0 0
-0.1959 0.0383 -0.7145 -0.901 0.412 0.138 64 51 35 0 0
-0.1876 0.0357 -0.7870 -0.577 0.421 0.700 86 71 47 0 0
-0.1880 0.0360 -0.7887 -0.785 0.468 0.407 95 79 53 0 0
-0.1900 0.0373 -0.7952 -0.754 0.635 0.167 55 40 19 0 0
-0.1907 0.0377 -0.7966 -0.569 0.646 0.509 50 35 15 0 0
-0.1937 0.0395 -0.7999 -0.900 0.096 0.424 66 48 27 0 0
-0.1942 0.0401 -0.8099 -0.837 0.361 0.411 131 114 69 0 0
-0.1948 0.0405 -0.8115 -0.751 0.314 0.581 139 124 82 0 0
-0.1998 0.0435 -0.8192 -0.878 0.103 0.468 102 85 53 0 0
-0.1991 0.0432 -0.8220 -0.761 0.273 0.589 106 90 56 0 0
-0.2010 0.0454 -0.8631 -0.898 0.275 0.343 95 90 84 0 0
-0.0359 -0.0635 -0.2280 -0.830 -0.199 0.521 120 103 71 0 0
-0.0363 -0.0633 -0.2295 -0.939 -0.284 0.195 108 91 65 0 0
-0.0310 -0.0655 -0.2530 -0.835 0.355 0.421 48 39 31 0 0
-0.1000 -0.0267 -0.2655 -0.600 -0.362 0.714 160 146 125 0 0
-0.1097 -0.0210 -0.2748 -0.737 -0.268 0.620 73 60 44 0 0
-0.1119 -0.0197 -0.2771 -0.616 -0.115 0.779 50 39 23 0 0
-0.1126 -0.0193 -0.2785 -0.914 -0.071 0.399 68 56 42 0 0
-0.1179 -0.0163 -0.2799 -0.620 0.474 0.626 183 170 153 0 0
-0.1256 -0.0118 -0.2865 -0.715 0.173 0.678 133 118 86 0 0
-0.1299 -0.0093 -0.2912 -0.819 0.384 0.427 188 166 126 0 0
-0.1481 0.0016 -0.3153 -0.797 0.204 0.569 86 72 58 0 0
-0.1490 0.0021 -0.3165 -0.766 0.198 0.611 113 100 81 0 0
-0.1538 0.0050 -0.3238 -0.840 0.463 0.284 54 41 29 0 0
-0.1546 0.0056 -0.3266 -0.784 0.476 0.398 36 25 16 0 0
-0.1551 0.0059 -0.3279 -0.712 0.596 0.372 53 41 28 0 0
-0.1555 0.0061 -0.3293 -0.717 0.636 0.285 56 42 27 0 0
-0.1550 0.0060 -0.3341 -0.868 0.495 0.029 28 15 5 0 0
-0.1556 0.0070 -0.3571 -0.993 0.087 0.077 102 87 63 0 0
-0.1662 0.0137 -0.3823 -0.748 -0.002 0.664 82 69 44 0 0
-0.1641 0.0136 -0.4169 -0.814 -0.086 0.575 200 187 143 0 0
-0.1668 0.0151 -0.4172 -0.085 0.176 0.981 227 216 175 0 0
-0.1810 0.0234 -0.4311 -0.959 0.271 -0.083 191 175 125 0 0
-0.1954 0.0314 -0.4316 -0.452 0.365 0.814 151 134 96 0 0
-0.1959 0.0317 -0.4330 -0.394 0.470 0.790 120 106 70 0 0
-0.2125 0.0425 -0.4837 -0.818 0.442 0.368 140 124 97 0 0
-0.2134 0.0431 -0.4864 -0.773 0.492 0.401 93 74 45 0 0
-0.2140 0.0434 -0.4877 -0.699 0.413 0.584 129 114 83 0 0
-0.2145 0.0437 -0.4890 -0.889 0.432 0.154 121 104 71 0 0
-0.2147 0.0439 -0.4905 -0.983 0.175 -0.049 102 85 54 0 0
-0.2140 0.0438 -0.4992 -0.923 0.081 0.376 27 18 10 0 0
-0.2124 0.0437 -0.5238 -0.883 0.465 0.067 52 42 31 0 0
-0.2135 0.0451 -0.5522 -0.806 0.262 0.531 89 80 59 0 0
-0.1825 0.0298 -0.6174 -0.961 0.159 -0.225 76 67 52 0 0
-0.1821 0.0296 -0.6196 -0.961 0.159 -0.225 63 55 41 0 0
-0.1797 0.0285 -0.6270 -0.750 0.612 0.253 38 28 18 0 0
-0.1692 0.0235 -0.6558 -0.900 -0.166 0.403 8 7 5 0 0
-0.1790 0.0289 -0.6540 -0.906 -0.127 0.404 16 15 13 0 0
-0.1859 0.0333 -0.6715 -0.912 0.045 0.408 79 66 50 0 0
-0.1925 0.0380 -0.7068 -0.801 0.403 0.443 74 65 50 0 0
-0.1982 0.0421 -0.7376 -0.869 0.459 0.184 95 85 62 0 0
-0.1935 0.0416 -0.8098 -0.837 0.361 0.411 124 107 64 0 0
-0.0312 -0.0656 -0.1870 -0.813 0.015 0.582 104 90 63 0 0
-0.0329 -0.0646 -0.1897 -0.915 0.076 0.397 88 72 46 0 0
-0.0336 -0.0640 -0.1942 -0.849 0.398 0.347 158 145 105 0 0
-0.0870 -0.0322 -0.2628 -0.145 0.048 0.988 95 80 68 0 0
-0.1106 -0.0188 -0.2758 -0.686 -0.265 0.678 53 40 23 0 0
-0.1122 -0.0179 -0.2768 -0.630 -0.162 0.759 52 39 20 0 0
-0.1275 -0.0089 -0.2902 -0.846 0.338 0.414 97 80 51 0 0
-0.1343 -0.0046 -0.3062 -0.894 0.338 0.293 67 58 46 0 0
-0.1529 0.0062 -0.3254 -0.842 0.347 0.414 29 21 15 0 0
-0.1536 0.0067 -0.3266 -0.793 0.269 0.546 26 17 9 0 0
-0.1543 0.0071 -0.3279 -0.793 0.269 0.546 80 70 54 0 0
-0.1543 0.0071 -0.3294 -0.865 0.128 0.485 115 104 83 0 0
-0.1545 0.0073 -0.3309 -0.844 0.329 0.424 63 49 33 0 0
-0.1552 0.0088 -0.3679 -0.917 0.300 0.263 110 94 63 0 0
-0.1616 0.0137 -0.4096 -0.731 0.676 -0.095 202 185 140 0 0
-0.1767 0.0223 -0.4183 -0.820 0.572 0.009 193 176 129 0 0
-0.1804 0.0248 -0.4310 -0.936 0.343 0.081 181 167 120 0 0
-0.2141 0.0452 -0.4888 -0.953 -0.006 0.303 118 102 72 0 0
-0.2137 0.0453 -0.4973 -0.969 0.025 0.246 70 57 43 0 0
-0.2138 0.0454 -0.4989 -0.939 0.054 0.339 42 29 21 0 0
-0.2148 0.0462 -0.5083 -0.919 0.393 0.022 47 39 27 0 0
-0.2088 0.0437 -0.5342 -0.974 0.069 0.218 88 80 61 0 0
-0.2132 0.0466 -0.5519 -0.781 0.494 0.382 74 63 49 0 0
-0.1688 0.0252 -0.6574 -0.622 -0.010 0.783 7 7 5 0 0
-0.1790 0.0307 -0.6533 -0.906 -0.127 0.404 13 12 7 0 0
-0.1906 0.0386 -0.7000 -0.850 0.375 0.370 56 48 37 0 0
-0.1951 0.0417 -0.7217 -0.883 0.136 0.450 66 52 38 0 0
-0.1979 0.0436 -0.7311 -0.918 0.270 0.291 80 73 53 0 0
-0.1983 0.0438 -0.7328 -0.933 0.270 0.239 94 84 63 0 0
-0.1973 0.0434 -0.7357 -0.918 0.346 0.195 93 81 58 0 0
-0.1976 0.0436 -0.7374 -0.918 0.346 0.195 97 86 63 0 0
-0.1826 0.0366 -0.7817 -0.826 0.234 0.512 40 28 13 0 0
-0.1834 0.0371 -0.7831 -0.826 0.234 0.512 36 25 11 0 0
-0.1848 0.0379 -0.7838 -0.663 0.364 0.655 34 24 12 0 0
-0.1857 0.0384 -0.7851 -0.681 0.455 0.574 36 26 12 0 0
-0.1863 0.0389 -0.7866 -0.752 0.534 0.386 43 30 14 0 0
-0.1881 0.0402 -0.7995 -0.524 0.708 0.474 80 66 45 0 0
-0.1927 0.0431 -0.8097 -0.802 0.337 0.493 110 92 54 0 0
-0.0294 -0.0651 -0.1780 -0.580 0.808 0.104 144 133 114 0 0
-0.0299 -0.0646 -0.1825 -0.964 0.157 0.216 82 68 36 0 0
-0.0306 -0.0642 -0.1839 -0.947 0.237 0.218 80 66 37 0 0
-0.0365 -0.0604 -0.2011 -0.769 0.307 0.562 96 80 52 0 0
-0.0366 -0.0602 -0.2041 -0.747 0.604 0.278 90 76 48 0 0
-0.0332 -0.0616 -0.2219 -0.995 0.093 -0.023 98 87 60 0 0
-0.0329 -0.0617 -0.2236 -0.840 0.080 0.537 138 126 93 0 0
-0.0382 -0.0584 -0.2333 -0.838 0.546 0.024 115 98 70 0 0
-0.1232 -0.0098 -0.2837 -0.589 0.289 0.755 169 154 117 0 0
-0.1270 -0.0074 -0.2931 -0.570 0.605 0.556 231 219 186 0 0
-0.1282 -0.0067 -0.2942 -0.620 0.499 0.606 221 210 174 0 0
-0.1310 -0.0051 -0.2963 -0.910 0.273 0.312 78 62 38 0 0
-0.1537 0.0084 -0.3278 -0.887 0.199 0.417 69 57 38 0 0
-0.1543 0.0091 -0.3383 -0.894 0.446 0.040 48 40 29 0 0
-0.1544 0.0092 -0.3398 -0.986 -0.086 0.141 51 43 31 0 0
-0.1539 0.0102 -0.3791 -0.888 0.453 0.079 188 169 123 0 0
-0.1762 0.0237 -0.4182 -0.799 0.513 -0.314 168 152 111 0 0
