ply
format ascii 1.0
element vertex 858
property float x
property float y
property float z
property float nx
property float ny
property float nz
property uchar diffuse_red
property uchar diffuse_green
property uchar diffuse_blue
property uchar class
property uchar detection
end_header
-0.1267 0.1618 -0.5206 -0.044 0.845 0.532 138 121 83 0 0
-0.1262 0.1625 -0.5220 0.182 0.891 0.416 132 116 81 0 0
-0.1261 0.1627 -0.5237 0.508 0.861 0.012 118 104 72 0 0
-0.1264 0.1624 -0.5257 0.647 0.731 -0.218 126 113 86 0 0
-0.1266 0.1621 -0.5277 0.651 0.682 -0.332 130 119 98 0 0
-0.1271 0.1615 -0.5299 0.651 0.682 -0.332 146 137 123 0 0
-0.1273 0.1613 -0.5318 0.927 0.334 -0.172 152 146 134 0 0
-0.1274 0.1613 -0.5336 0.977 0.174 -0.122 154 152 142 0 0
-0.1600 0.1276 -0.8226 -0.593 0.495 0.635 189 189 189 0 0
-0.1573 0.1313 -0.8214 -0.358 0.565 0.743 189 189 187 0 0
-0.1561 0.1329 -0.8221 -0.378 0.580 0.722 189 189 187 0 0
-0.1429 0.1526 -0.8617 -0.244 0.598 0.763 116 109 90 0 0
-0.1250 0.1774 -0.8700 -0.299 0.736 0.608 194 194 194 0 0
-0.1248 0.1778 -0.8718 -0.300 0.819 0.490 196 196 196 0 0
-0.1231 0.1800 -0.8717 -0.305 0.708 0.637 197 197 197 0 0
-0.2026 0.0526 -0.4631 0.386 0.888 0.249 184 184 177 0 0
-0.2024 0.0529 -0.4649 0.091 0.992 0.082 183 179 170 0 0
-0.1246 0.1610 -0.4974 0.509 0.647 0.568 99 86 53 0 0
-0.1252 0.1611 -0.5187 -0.244 0.724 0.645 148 128 85 0 0
-0.1248 0.1616 -0.5202 -0.059 0.873 0.484 153 133 87 0 0
-0.1244 0.1622 -0.5216 -0.050 0.992 0.114 133 115 71 0 0
-0.1249 0.1616 -0.5238 0.520 0.853 0.051 142 121 80 0 0
-0.1251 0.1614 -0.5257 0.448 0.870 -0.206 145 124 85 0 0
-0.1250 0.1616 -0.5274 0.242 0.908 -0.342 139 120 85 0 0
-0.1256 0.1609 -0.5297 0.242 0.908 -0.342 117 99 69 0 0
-0.1261 0.1602 -0.5319 0.302 0.887 -0.349 139 123 95 0 0
-0.1268 0.1594 -0.5343 0.560 0.781 -0.276 129 114 87 0 0
-0.1272 0.1589 -0.5364 0.560 0.781 -0.276 120 107 81 0 0
-0.1578 0.1276 -0.8217 -0.594 0.583 0.555 172 168 161 0 0
-0.1562 0.1298 -0.8219 -0.501 0.604 0.620 169 164 155 0 0
-0.1551 0.1313 -0.8227 -0.496 0.649 0.577 155 151 141 0 0
-0.1534 0.1336 -0.8228 -0.429 0.736 0.524 150 146 136 0 0
-0.1526 0.1348 -0.8239 -0.429 0.736 0.524 147 144 133 0 0
-0.1517 0.1361 -0.8249 -0.488 0.651 0.582 148 143 131 0 0
-0.1508 0.1373 -0.8260 -0.484 0.749 0.451 149 144 129 0 0
-0.1238 0.1761 -0.8704 -0.348 0.880 0.323 192 192 194 0 0
-0.1167 0.1859 -0.8712 0.020 -0.017 1.000 198 198 198 0 0
-0.1233 0.1601 -0.4974 0.509 0.647 0.568 93 80 46 0 0
-0.1262 0.1577 -0.5385 0.488 0.862 -0.138 134 117 79 0 0
-0.1264 0.1575 -0.5404 0.488 0.862 -0.138 140 125 94 0 0
-0.1588 0.1229 -0.8163 -0.515 0.771 0.375 176 171 159 0 0
-0.1174 0.1818 -0.8678 0.071 -0.012 0.997 195 195 195 0 0
-0.1192 0.1796 -0.8747 0.085 0.349 0.933 196 196 196 0 0
-0.1201 0.1626 -0.5185 0.184 0.974 -0.133 148 129 85 0 0
-0.1507 0.1271 -0.7091 0.975 0.026 0.220 197 196 191 0 0
-0.1589 0.1194 -0.8096 -0.554 0.550 0.625 189 191 186 0 0
-0.1121 0.1859 -0.8624 -0.337 0.615 0.713 192 192 193 0 0
-0.1281 0.1470 -0.4653 0.256 0.588 0.767 148 134 104 0 0
-0.1273 0.1482 -0.4664 0.328 0.643 0.692 172 158 119 0 0
-0.1269 0.1488 -0.4678 0.318 0.861 0.397 168 151 108 0 0
-0.1233 0.1542 -0.4787 0.065 0.817 0.574 103 93 73 0 0
-0.1336 0.1520 -0.8268 0.377 0.730 0.570 140 124 89 0 0
-0.1282 0.1595 -0.8305 0.392 0.646 0.656 167 153 115 0 0
-0.1187 0.1739 -0.8675 -0.177 0.778 0.603 173 173 174 0 0
-0.1096 0.1864 -0.8609 -0.449 0.473 0.758 190 190 192 0 0
-0.1723 0.0827 -0.4575 0.204 0.976 0.079 108 95 65 0 0
-0.1721 0.0830 -0.4592 0.190 0.967 0.169 99 85 57 0 0
-0.1177 0.1597 -0.4926 0.583 0.716 0.384 79 59 35 0 0
-0.1172 0.1605 -0.4939 0.570 0.718 0.399 85 65 40 0 0
-0.1153 0.1637 -0.5097 0.376 0.873 0.312 109 93 58 0 0
-0.1167 0.1621 -0.5249 0.143 0.949 0.282 152 133 89 0 0
-0.1167 0.1737 -0.8667 -0.163 0.904 0.395 161 161 158 0 0
-0.1710 0.0817 -0.4575 0.028 0.988 0.150 128 115 82 0 0
-0.1223 0.1499 -0.4714 0.346 0.813 0.468 98 85 64 0 0
-0.1159 0.1600 -0.5078 0.217 0.885 0.411 82 65 35 0 0
-0.1156 0.1605 -0.5093 0.348 0.826 0.444 92 76 43 0 0
-0.1135 0.1634 -0.5111 0.305 0.938 0.164 104 86 51 0 0
-0.1148 0.1621 -0.5244 0.227 0.894 0.386 152 133 89 0 0
-0.1176 0.1586 -0.5374 0.203 0.950 -0.236 167 148 102 0 0
-0.1239 0.1564 -0.7344 0.398 0.793 -0.462 185 183 175 0 0
-0.1281 0.1535 -0.8279 0.485 0.854 0.187 150 134 94 0 0
-0.1136 0.1750 -0.8666 -0.186 0.895 0.406 167 167 165 0 0
-0.1107 0.1791 -0.8690 0.039 0.476 0.879 188 188 189 0 0
-0.1774 0.0696 -0.4502 0.009 0.538 0.843 66 56 45 0 0
-0.1694 0.0809 -0.4538 0.253 0.809 0.530 45 37 21 0 0
-0.1250 0.1432 -0.4642 0.539 0.491 0.684 79 64 41 0 0
-0.1182 0.1533 -0.4796 0.189 0.774 0.605 121 103 65 0 0
-0.1176 0.1541 -0.4808 0.189 0.774 0.605 97 79 47 0 0
-0.1165 0.1557 -0.4834 0.506 0.791 0.344 65 49 26 0 0
-0.1162 0.1562 -0.4849 0.506 0.791 0.344 57 40 24 0 0
-0.1139 0.1602 -0.5090 0.379 0.876 0.299 87 70 40 0 0
-0.1127 0.1622 -0.5220 0.556 0.821 0.131 148 128 85 0 0
-0.1128 0.1621 -0.5238 0.395 0.861 0.321 151 132 89 0 0
-0.1403 0.1284 -0.6680 0.563 0.540 0.625 213 215 215 0 0
-0.1398 0.1290 -0.6695 0.233 0.798 0.556 209 211 208 0 0
-0.1246 0.1556 -0.8339 0.634 0.223 0.740 156 139 95 0 0
-0.1188 0.1644 -0.8542 0.206 0.913 0.351 150 137 102 0 0
-0.1185 0.1648 -0.8560 0.089 0.995 0.054 152 140 108 0 0
-0.1099 0.1773 -0.8700 0.166 0.391 0.905 186 186 188 0 0
-0.1086 0.1790 -0.8704 0.209 0.229 0.951 189 189 190 0 0
-0.1925 0.0449 -0.4284 0.953 0.300 -0.030 177 175 173 0 0
-0.1934 0.0437 -0.4307 0.132 0.465 0.875 152 148 141 0 0
-0.1709 0.0758 -0.4504 0.082 0.759 0.646 125 116 101 0 0
-0.1656 0.0834 -0.4576 0.594 0.661 0.458 51 42 30 0 0
-0.1163 0.1532 -0.4791 0.616 0.461 0.639 147 128 88 0 0
-0.1130 0.1588 -0.5093 0.509 0.826 0.241 91 73 43 0 0
-0.1384 0.1280 -0.6676 0.199 0.613 0.765 184 183 178 0 0
-0.1382 0.1284 -0.6693 0.233 0.798 0.556 171 169 160 0 0
-0.1324 0.1405 -0.7987 -0.020 0.584 0.812 136 122 83 0 0
-0.1314 0.1420 -0.7996 0.247 0.609 0.753 137 121 84 0 0
-0.1302 0.1436 -0.8002 0.654 0.465 0.597 167 151 113 0 0
-0.1271 0.1483 -0.8068 -0.433 0.793 0.428 120 106 73 0 0
-0.1238 0.1533 -0.8219 -0.083 0.993 0.088 150 133 93 0 0
-0.1109 0.1726 -0.8627 -0.048 0.980 0.191 69 66 54 0 0
-0.1073 0.1779 -0.8707 0.070 0.431 0.900 187 187 188 0 0
-0.1920 0.0427 -0.4289 0.910 0.374 0.179 127 120 110 0 0
-0.1665 0.0792 -0.4519 0.195 0.774 0.602 98 91 76 0 0
-0.1114 0.1581 -0.5074 0.515 0.809 0.283 89 68 41 0 0
-0.1092 0.1614 -0.5107 0.632 0.775 0.013 101 82 49 0 0
-0.1098 0.1609 -0.5235 0.575 0.583 0.574 136 114 73 0 0
-0.1239 0.1463 -0.6971 -0.378 0.922 0.090 100 83 63 0 0
-0.1245 0.1459 -0.7098 0.088 0.733 0.674 95 83 62 0 0
-0.1236 0.1471 -0.7109 0.177 0.511 0.841 124 111 85 0 0
-0.1320 0.1380 -0.7980 -0.229 0.587 0.777 136 123 82 0 0
-0.1305 0.1402 -0.7982 0.630 0.363 0.687 152 137 91 0 0
-0.1297 0.1413 -0.7993 0.657 0.337 0.674 177 160 117 0 0
-0.1290 0.1424 -0.8006 0.657 0.337 0.674 179 165 119 0 0
-0.1280 0.1438 -0.8014 0.321 0.390 0.863 180 168 126 0 0
-0.1225 0.1521 -0.8200 -0.100 0.860 0.501 127 113 78 0 0
-0.1219 0.1529 -0.8213 0.085 0.944 0.318 156 141 100 0 0
-0.1209 0.1543 -0.8222 0.081 0.991 0.103 182 166 122 0 0
-0.1086 0.1728 -0.8615 0.026 0.922 0.387 56 51 37 0 0
-0.1082 0.1734 -0.8631 -0.009 0.887 0.461 88 85 71 0 0
-0.1068 0.1753 -0.8634 0.047 0.536 0.843 121 118 107 0 0
-0.1068 0.1754 -0.8655 -0.134 0.751 0.646 151 149 143 0 0
-0.1046 0.1785 -0.8689 -0.079 0.681 0.728 184 184 184 0 0
-0.1631 0.0815 -0.4667 0.441 0.890 0.118 57 45 31 0 0
-0.1226 0.1384 -0.4619 0.591 0.674 0.442 87 69 45 0 0
-0.1123 0.1535 -0.4867 0.734 0.656 0.174 83 66 37 0 0
-0.1105 0.1567 -0.5060 0.608 0.765 0.212 89 68 44 0 0
-0.1103 0.1570 -0.5076 0.608 0.765 0.212 90 70 41 0 0
-0.1080 0.1603 -0.5091 0.632 0.775 0.013 93 73 44 0 0
-0.1085 0.1601 -0.5235 0.632 0.584 0.509 139 117 77 0 0
-0.1084 0.1601 -0.5253 0.554 0.752 0.356 132 110 69 0 0
-0.1308 0.1327 -0.6646 -0.430 0.749 0.503 120 108 84 0 0
-0.1432 0.1191 -0.7970 -0.255 0.605 0.754 156 142 115 0 0
-0.1312 0.1360 -0.7968 -0.102 0.469 0.877 156 142 105 0 0
-0.1299 0.1379 -0.7973 0.102 0.690 0.717 213 197 156 0 0
-0.1288 0.1394 -0.7980 0.318 0.631 0.707 209 192 151 0 0
-0.1281 0.1405 -0.7993 0.318 0.631 0.707 182 169 130 0 0
-0.1274 0.1415 -0.8005 0.318 0.631 0.707 150 138 100 0 0
-0.1187 0.1542 -0.8191 0.035 0.989 -0.145 177 164 123 0 0
-0.1189 0.1541 -0.8215 0.221 0.971 0.094 212 198 156 0 0
-0.1186 0.1547 -0.8254 -0.013 0.969 0.245 187 174 129 0 0
-0.1069 0.1722 -0.8612 0.088 0.677 0.731 55 48 31 0 0
-0.1051 0.1747 -0.8631 0.047 0.536 0.843 105 101 87 0 0
-0.1048 0.1752 -0.8648 0.019 0.686 0.727 136 133 123 0 0
-0.1738 0.0624 -0.4301 -0.134 0.669 0.731 108 92 68 0 0
-0.1712 0.0663 -0.4355 -0.116 0.950 0.289 118 103 74 0 0
-0.1631 0.0782 -0.4551 0.565 0.708 0.423 41 35 23 0 0
-0.1624 0.0794 -0.4600 0.605 0.790 0.100 54 44 35 0 0
-0.1170 0.1439 -0.4724 0.564 0.771 0.295 76 58 33 0 0
-0.1073 0.1590 -0.5219 0.670 0.721 0.177 129 109 70 0 0
-0.1073 0.1591 -0.5272 0.690 0.713 0.120 136 114 73 0 0
-0.1152 0.1533 -0.7145 0.191 0.573 0.797 130 115 89 0 0
-0.1061 0.1664 -0.7257 0.283 0.959 -0.022 121 109 77 0 0
-0.1407 0.1195 -0.7958 -0.275 0.708 0.650 124 112 87 0 0
-0.1289 0.1362 -0.7958 0.022 0.530 0.848 196 183 140 0 0
-0.1268 0.1392 -0.7974 -0.076 0.637 0.767 182 167 132 0 0
-0.1166 0.1542 -0.8205 -0.158 0.963 0.217 169 157 115 0 0
-0.1155 0.1559 -0.8233 -0.307 0.778 0.548 176 164 117 0 0
-0.1036 0.1738 -0.8631 0.088 0.677 0.731 89 87 72 0 0
-0.1030 0.1747 -0.8644 0.019 0.686 0.727 122 118 107 0 0
-0.1915 0.0343 -0.4222 -0.438 0.687 0.580 166 166 161 0 0
-0.1693 0.0662 -0.4387 0.049 0.972 0.230 100 87 63 0 0
-0.1689 0.0667 -0.4403 0.026 0.933 0.358 71 56 37 0 0
-0.1693 0.0662 -0.4423 -0.137 0.990 0.043 93 80 63 0 0
-0.1093 0.1527 -0.4950 0.655 0.722 0.225 60 43 25 0 0
-0.1055 0.1588 -0.5268 0.686 0.669 0.286 134 112 71 0 0
-0.1214 0.1412 -0.7032 0.627 0.608 0.487 74 63 46 0 0
-0.1115 0.1556 -0.7138 0.268 0.426 0.864 126 109 82 0 0
-0.1063 0.1629 -0.7137 0.234 0.657 0.717 120 108 82 0 0
-0.1389 0.1189 -0.7932 -0.482 0.757 0.442 132 119 94 0 0
-0.1271 0.1356 -0.7955 0.022 0.530 0.848 197 183 141 0 0
-0.1261 0.1371 -0.7963 -0.031 0.631 0.775 180 166 131 0 0
-0.1126 0.1570 -0.8235 -0.127 0.562 0.817 178 164 119 0 0
-0.1038 0.1702 -0.8568 -0.158 0.858 0.489 129 113 78 0 0
-0.1002 0.1756 -0.8646 -0.064 0.713 0.698 140 136 127 0 0
-0.1899 0.0336 -0.4203 -0.515 0.600 0.612 163 161 156 0 0
-0.1802 0.0473 -0.4197 -0.489 0.655 0.575 128 115 95 0 0
-0.1666 0.0671 -0.4379 0.070 0.981 0.182 95 81 55 0 0
-0.1671 0.0664 -0.4400 -0.006 0.845 0.534 57 43 23 0 0
-0.1592 0.0783 -0.4651 0.519 0.778 0.354 107 97 75 0 0
-0.1588 0.0788 -0.4666 0.519 0.778 0.354 144 134 110 0 0
-0.1589 0.0790 -0.4721 0.252 0.953 -0.166 82 75 57 0 0
-0.1594 0.0783 -0.4743 0.888 0.134 0.440 83 74 65 0 0
-0.1086 0.1508 -0.4938 0.258 0.727 0.636 72 55 25 0 0
-0.1082 0.1515 -0.4952 0.426 0.783 0.454 65 47 23 0 0
-0.1080 0.1518 -0.4967 0.553 0.726 0.410 59 41 18 0 0
-0.1042 0.1579 -0.5251 0.328 0.929 0.170 145 123 82 0 0
-0.1070 0.1545 -0.5453 0.093 0.975 -0.200 175 155 112 0 0
-0.1844 0.0482 -0.6818 0.647 0.379 0.661 164 165 161 0 0
-0.1834 0.0497 -0.6828 0.417 0.844 0.338 185 186 183 0 0
-0.1830 0.0503 -0.6846 0.324 0.877 0.353 213 213 210 0 0
-0.1824 0.0511 -0.6861 0.869 0.329 0.370 215 216 212 0 0
-0.1184 0.1427 -0.7095 0.552 0.469 0.689 91 83 66 0 0
-0.1126 0.1507 -0.7068 0.336 0.700 0.630 67 56 36 0 0
-0.1106 0.1537 -0.7085 0.242 0.656 0.715 131 118 92 0 0
-0.1043 0.1627 -0.7130 -0.001 0.761 0.648 109 97 72 0 0
-0.1273 0.1321 -0.7934 -0.293 0.347 0.891 175 159 125 0 0
-0.1266 0.1332 -0.7946 -0.397 0.469 0.789 182 164 129 0 0
-0.1251 0.1354 -0.7948 -0.259 0.733 0.629 194 177 144 0 0
-0.1234 0.1379 -0.7969 -0.034 0.526 0.850 73 62 39 0 0
-0.0973 0.1767 -0.8648 -0.010 0.609 0.793 149 149 144 0 0
-0.1803 0.0441 -0.4171 -0.356 0.742 0.569 133 120 101 0 0
-0.1574 0.0779 -0.4666 0.519 0.778 0.354 160 149 124 0 0
-0.1752 0.0533 -0.4942 0.588 0.545 0.598 29 24 18 0 0
-0.1751 0.0536 -0.4959 0.578 0.813 0.072 41 31 24 0 0
-0.1070 0.1505 -0.4953 0.490 0.554 0.673 91 75 46 0 0
-0.1066 0.1510 -0.4967 0.360 0.798 0.484 74 57 30 0 0
-0.1065 0.1513 -0.5001 0.472 0.871 0.140 83 67 35 0 0
-0.1063 0.1517 -0.5034 0.412 0.911 -0.030 63 43 23 0 0
-0.1048 0.1546 -0.5392 0.436 0.900 -0.014 162 146 101 0 0
-0.1835 0.0460 -0.6719 0.265 0.960 -0.090 213 215 213 0 0
-0.1829 0.0471 -0.6818 0.103 0.629 0.770 112 110 99 0 0
-0.1109 0.1503 -0.7065 0.062 0.839 0.541 92 82 64 0 0
-0.1103 0.1512 -0.7077 0.009 0.532 0.847 78 68 47 0 0
-0.1082 0.1567 -0.8087 0.125 0.992 0.032 122 110 76 0 0
-0.0968 0.1743 -0.8641 -0.053 0.872 0.486 109 105 93 0 0
-0.0964 0.1750 -0.8656 0.001 0.934 0.357 136 135 129 0 0
-0.1797 0.0419 -0.4140 -0.424 0.730 0.536 132 126 111 0 0
-0.1620 0.0679 -0.4420 0.013 0.869 0.494 88 75 60 0 0
-0.1737 0.0526 -0.4960 0.578 0.813 0.072 44 35 28 0 0
-0.1049 0.1507 -0.4999 0.354 0.929 0.105 86 70 37 0 0
-0.1049 0.1510 -0.5086 0.631 0.651 0.423 54 36 18 0 0
-0.1021 0.1553 -0.5185 0.554 0.739 0.384 103 87 56 0 0
-0.1016 0.1562 -0.5251 0.409 0.912 0.030 140 121 78 0 0
-0.1024 0.1552 -0.5329 0.687 0.721 0.088 148 128 85 0 0
-0.1019 0.1559 -0.5342 0.622 0.704 0.344 150 133 89 0 0
-0.1016 0.1564 -0.5357 0.685 0.678 0.268 161 144 99 0 0
-0.1020 0.1560 -0.5396 0.393 0.915 0.093 158 139 95 0 0
-0.1839 0.0421 -0.6654 -0.227 0.703 0.674 139 137 131 0 0
-0.1813 0.0459 -0.6712 -0.205 0.977 -0.065 138 134 125 0 0
-0.1826 0.0442 -0.6747 0.439 0.849 -0.295 148 144 135 0 0
-0.1052 0.1547 -0.6757 0.167 0.890 0.425 106 91 63 0 0
-0.1098 0.1511 -0.8001 0.014 0.755 0.655 137 121 86 0 0
-0.1090 0.1523 -0.8011 0.219 0.683 0.697 144 127 84 0 0
-0.1053 0.1577 -0.8069 0.159 0.629 0.761 112 105 73 0 0
-0.0982 0.1687 -0.8378 -0.271 0.848 0.456 105 94 59 0 0
-0.0949 0.1734 -0.8440 0.430 0.900 0.071 148 129 87 0 0
-0.0944 0.1747 -0.8649 0.001 0.934 0.357 126 122 115 0 0
-0.0939 0.1754 -0.8664 0.024 0.824 0.567 152 149 146 0 0
-0.1680 0.0558 -0.4201 0.101 0.915 0.391 123 108 79 0 0
-0.1656 0.0593 -0.4204 -0.174 0.747 0.642 127 112 81 0 0
-0.1611 0.0658 -0.4228 -0.047 0.804 0.593 115 100 69 0 0
-0.1566 0.0725 -0.4358 0.392 0.733 0.556 98 84 59 0 0
-0.1565 0.0727 -0.4375 0.435 0.696 0.572 64 50 31 0 0
-0.1554 0.0743 -0.4403 0.506 0.860 0.064 142 131 109 0 0
-0.1613 0.0669 -0.4805 0.275 0.600 -0.751 41 34 30 0 0
-0.1630 0.0645 -0.4836 0.360 0.544 -0.759 53 46 39 0 0
-0.1706 0.0543 -0.5117 0.943 -0.280 -0.182 72 59 38 0 0
-0.1135 0.1352 -0.4801 0.934 0.231 0.273 96 80 54 0 0
-0.1133 0.1356 -0.4816 0.917 0.394 -0.055 95 79 52 0 0
-0.1132 0.1358 -0.4833 0.888 0.440 0.136 100 84 56 0 0
-0.1127 0.1365 -0.4846 0.761 0.545 0.351 103 86 59 0 0
-0.1123 0.1371 -0.4860 0.672 0.563 0.481 107 91 62 0 0
-0.1121 0.1374 -0.4877 0.454 0.613 0.647 105 89 59 0 0
-0.1116 0.1381 -0.4890 0.808 0.375 0.454 113 96 65 0 0
-0.1038 0.1496 -0.4965 0.347 0.894 0.285 84 67 37 0 0
-0.1037 0.1497 -0.4982 0.323 0.945 0.049 83 66 36 0 0
-0.1031 0.1507 -0.5030 -0.013 0.992 0.129 81 62 34 0 0
-0.1024 0.1520 -0.5164 0.645 0.612 0.457 64 45 25 0 0
-0.1012 0.1541 -0.5330 0.549 0.832 0.085 141 121 78 0 0
-0.1007 0.1549 -0.5343 0.622 0.704 0.344 153 135 91 0 0
-0.1006 0.1550 -0.5379 0.515 0.854 0.071 152 133 92 0 0
-0.1004 0.1554 -0.5394 0.493 0.828 0.268 153 136 95 0 0
-0.1750 0.0519 -0.6791 0.164 0.874 0.457 97 88 71 0 0
-0.1084 0.1467 -0.6555 0.659 0.715 0.231 227 209 171 0 0
-0.1047 0.1529 -0.6967 0.116 0.908 -0.402 38 29 20 0 0
-0.1062 0.1510 -0.7064 0.119 0.778 0.617 81 72 56 0 0
-0.1047 0.1532 -0.7086 0.344 0.410 0.845 90 75 54 0 0
-0.1018 0.1596 -0.8063 0.236 0.872 0.430 84 70 44 0 0
-0.1020 0.1601 -0.8344 0.470 0.870 0.148 97 86 54 0 0
-0.1629 0.0602 -0.4195 0.866 0.499 0.014 129 114 82 0 0
-0.1579 0.0675 -0.4234 -0.308 0.769 0.560 119 103 73 0 0
-0.1573 0.0683 -0.4248 -0.282 0.747 0.602 114 97 70 0 0
-0.1548 0.0723 -0.4373 0.455 0.769 0.449 101 87 64 0 0
-0.1595 0.0665 -0.4803 0.310 0.604 -0.734 32 25 20 0 0
-0.1710 0.0509 -0.5188 0.353 -0.421 0.835 64 48 28 0 0
-0.1126 0.1337 -0.4804 0.928 -0.056 0.369 86 70 49 0 0
-0.1123 0.1343 -0.4836 0.943 0.327 0.056 90 73 50 0 0
-0.1113 0.1358 -0.4846 0.886 0.203 0.417 95 79 54 0 0
-0.1109 0.1364 -0.4860 0.735 0.307 0.604 100 84 59 0 0
-0.1109 0.1365 -0.4877 0.541 0.643 0.542 101 85 60 0 0
-0.1102 0.1374 -0.4889 0.743 0.640 0.194 98 81 55 0 0
-0.1103 0.1373 -0.4908 0.842 0.519 0.147 110 93 59 0 0
-0.1097 0.1382 -0.4920 0.749 0.663 0.008 121 104 62 0 0
-0.1097 0.1383 -0.4938 0.749 0.663 0.008 115 97 60 0 0
-0.1092 0.1390 -0.4951 0.734 0.528 0.426 107 89 56 0 0
-0.1016 0.1500 -0.4976 0.184 0.676 0.714 95 77 47 0 0
-0.1017 0.1499 -0.4994 0.116 0.958 0.261 83 65 35 0 0
-0.0991 0.1541 -0.5217 0.606 0.779 0.161 93 73 42 0 0
-0.0991 0.1542 -0.5235 0.438 0.889 0.131 112 92 59 0 0
-0.0990 0.1545 -0.5341 0.658 0.727 0.199 150 132 89 0 0
-0.0991 0.1544 -0.5377 0.773 0.623 0.119 117 97 63 0 0
-0.0991 0.1545 -0.5395 0.705 0.628 0.328 98 80 49 0 0
-0.0989 0.1548 -0.5411 0.682 0.725 0.099 108 92 58 0 0
-0.0991 0.1545 -0.5431 0.707 0.707 -0.026 138 123 85 0 0
-0.1816 0.0387 -0.6579 -0.198 0.553 0.809 152 152 147 0 0
-0.1242 0.1209 -0.6466 -0.127 0.023 0.992 119 105 85 0 0
-0.1134 0.1366 -0.6507 0.246 0.542 0.804 189 173 137 0 0
-0.1124 0.1379 -0.6517 0.265 0.686 0.678 168 152 118 0 0
-0.1118 0.1388 -0.6530 0.637 0.620 0.458 203 186 148 0 0
-0.1076 0.1449 -0.6562 0.562 0.827 -0.032 218 196 157 0 0
-0.0947 0.1648 -0.7143 0.416 0.414 0.810 150 132 102 0 0
-0.0931 0.1671 -0.7163 0.688 0.608 0.397 180 162 132 0 0
-0.0908 0.1732 -0.8423 0.163 0.772 0.614 146 127 85 0 0
-0.1747 0.0401 -0.4081 -0.434 0.846 0.310 129 122 107 0 0
-0.1738 0.0414 -0.4094 -0.456 0.761 0.462 131 120 101 0 0
-0.1549 0.0689 -0.4224 -0.201 0.979 -0.039 129 112 77 0 0
-0.1550 0.0688 -0.4242 -0.173 0.985 0.008 127 110 78 0 0
-0.1541 0.0701 -0.4254 0.129 0.820 0.557 129 113 83 0 0
-0.1527 0.0721 -0.4262 0.510 0.615 0.601 116 101 71 0 0
-0.1531 0.0717 -0.4282 0.226 0.916 0.331 118 101 70 0 0
-0.1116 0.1325 -0.4841 0.947 -0.030 0.320 84 70 50 0 0
-0.1101 0.1348 -0.4881 0.881 0.257 0.398 89 75 54 0 0
-0.1094 0.1358 -0.4894 0.950 0.190 0.249 86 71 50 0 0
-0.1086 0.1370 -0.4922 0.976 0.184 0.117 107 92 55 0 0
-0.1033 0.1449 -0.5018 0.846 0.319 0.427 87 70 40 0 0
-0.1028 0.1456 -0.5032 0.846 0.319 0.427 86 69 39 0 0
-0.0999 0.1499 -0.5059 0.527 0.676 0.515 75 57 27 0 0
-0.1000 0.1498 -0.5078 0.605 0.792 0.086 79 60 30 0 0
-0.1001 0.1498 -0.5167 0.645 0.612 0.457 60 43 22 0 0
-0.0993 0.1510 -0.5195 0.743 0.588 0.320 51 33 17 0 0
-0.0989 0.1517 -0.5245 0.618 0.716 0.325 95 76 47 0 0
-0.0980 0.1530 -0.5254 0.498 0.827 0.262 97 77 45 0 0
-0.0977 0.1536 -0.5341 0.609 0.755 0.243 153 134 91 0 0
-0.0980 0.1532 -0.5379 0.597 0.775 0.208 94 75 43 0 0
-0.0978 0.1535 -0.5395 0.597 0.775 0.208 101 85 59 0 0
-0.0977 0.1537 -0.5412 0.683 0.724 0.097 78 63 35 0 0
-0.1813 0.0359 -0.6570 0.288 0.316 0.904 115 116 110 0 0
-0.1132 0.1338 -0.6482 0.322 0.501 0.803 161 146 112 0 0
-0.1121 0.1353 -0.6490 0.496 0.504 0.708 184 167 133 0 0
-0.1109 0.1371 -0.6516 0.666 0.465 0.583 184 166 131 0 0
-0.0951 0.1612 -0.7126 0.265 0.484 0.834 133 116 89 0 0
-0.0918 0.1660 -0.7166 0.639 0.484 0.598 163 147 116 0 0
-0.0917 0.1662 -0.7185 0.610 0.778 0.150 153 140 115 0 0
-0.1114 0.1395 -0.7911 -0.068 0.907 0.417 184 169 130 0 0
-0.1111 0.1399 -0.7950 0.358 0.820 0.446 64 52 33 0 0
-0.1001 0.1565 -0.8230 -0.320 0.893 0.318 113 95 51 0 0
-0.0993 0.1576 -0.8240 -0.057 0.889 0.454 160 138 92 0 0
-0.0889 0.1730 -0.8438 0.052 0.894 0.444 156 137 94 0 0
-0.0886 0.1734 -0.8456 0.197 0.964 0.179 151 133 90 0 0
-0.0891 0.1730 -0.8638 -0.020 1.000 -0.013 84 80 70 0 0
-0.1527 0.0692 -0.4254 -0.020 0.937 0.348 125 110 73 0 0
-0.1513 0.0712 -0.4262 0.552 0.702 0.449 115 100 67 0 0
-0.1509 0.0719 -0.4277 0.531 0.628 0.568 126 110 80 0 0
-0.1512 0.0717 -0.4403 0.472 0.745 0.471 72 57 34 0 0
-0.1509 0.0721 -0.4419 0.509 0.782 0.359 87 72 49 0 0
-0.1497 0.0743 -0.4607 0.220 0.911 0.349 83 74 59 0 0
-0.1525 0.0705 -0.4735 0.993 -0.071 0.091 54 46 36 0 0
-0.1013 0.1451 -0.5065 0.836 0.291 0.465 77 61 30 0 0
-0.1014 0.1450 -0.5083 0.837 0.520 0.168 77 61 30 0 0
-0.1001 0.1470 -0.5161 0.481 0.877 -0.000 75 58 31 0 0
-0.0991 0.1484 -0.5170 0.726 0.402 0.558 66 49 25 0 0
-0.0976 0.1508 -0.5263 0.530 0.839 0.125 79 57 31 0 0
-0.0965 0.1526 -0.5342 0.609 0.755 0.243 151 132 89 0 0
-0.0966 0.1525 -0.5378 0.689 0.722 0.062 111 94 61 0 0
-0.0964 0.1528 -0.5394 0.569 0.789 0.233 95 77 49 0 0
-0.1104 0.1349 -0.6486 -0.146 0.727 0.671 182 162 132 0 0
-0.1091 0.1368 -0.6512 0.113 0.768 0.630 206 187 153 0 0
-0.1086 0.1375 -0.6526 0.393 0.827 0.402 207 189 150 0 0
-0.1047 0.1433 -0.6561 0.664 0.446 0.600 229 215 170 0 0
-0.1040 0.1443 -0.6573 0.540 0.476 0.695 216 198 154 0 0
-0.1000 0.1512 -0.7081 0.194 0.668 0.718 104 93 76 0 0
-0.0955 0.1577 -0.7107 0.044 0.289 0.956 105 90 65 0 0
-0.0895 0.1665 -0.7195 0.485 0.859 0.162 107 99 79 0 0
-0.1104 0.1378 -0.7896 0.252 0.431 0.866 180 166 131 0 0
-0.1103 0.1380 -0.7916 0.715 0.680 0.163 126 112 83 0 0
-0.1099 0.1386 -0.7932 0.579 0.756 0.306 55 46 25 0 0
-0.0974 0.1571 -0.8214 -0.246 0.760 0.601 113 96 59 0 0
-0.0974 0.1572 -0.8235 0.505 0.332 0.796 167 147 105 0 0
-0.0954 0.1601 -0.8250 -0.226 0.695 0.682 90 82 56 0 0
-0.0877 0.1717 -0.8420 0.156 0.940 0.304 149 133 89 0 0
-0.0872 0.1726 -0.8588 0.171 0.966 0.192 87 84 64 0 0
-0.0870 0.1730 -0.8607 0.171 0.966 0.192 50 46 36 0 0
-0.0871 0.1729 -0.8630 0.193 0.978 0.080 71 66 56 0 0
-0.0867 0.1735 -0.8668 -0.079 0.922 0.379 137 134 129 0 0
-0.1555 0.0620 -0.4122 -0.383 0.803 0.456 123 108 77 0 0
-0.1492 0.0713 -0.4257 0.006 0.967 0.253 135 121 86 0 0
-0.1484 0.0732 -0.4589 0.349 0.916 0.196 72 63 49 0 0
-0.1484 0.0732 -0.4608 0.369 0.787 0.495 40 30 18 0 0
-0.1481 0.0737 -0.4623 0.451 0.802 0.391 35 27 16 0 0
-0.1478 0.0742 -0.4639 0.358 0.858 0.367 34 25 16 0 0
-0.1532 0.0665 -0.4732 0.701 0.367 -0.611 45 37 26 0 0
-0.0988 0.1461 -0.5143 0.509 0.793 0.335 88 71 42 0 0
-0.0989 0.1459 -0.5162 0.437 0.891 0.122 84 66 37 0 0
-0.0987 0.1462 -0.5196 0.346 0.668 0.659 68 51 27 0 0
-0.0969 0.1489 -0.5198 0.683 0.622 0.384 73 54 30 0 0
-0.0953 0.1515 -0.5343 0.376 0.925 0.055 148 129 89 0 0
-0.0952 0.1517 -0.5396 0.432 0.882 0.187 97 74 41 0 0
-0.0958 0.1510 -0.5419 0.647 0.739 0.189 126 105 72 0 0
-0.1085 0.1347 -0.6481 -0.119 0.692 0.712 151 131 103 0 0
-0.1072 0.1366 -0.6506 0.219 0.810 0.544 204 184 152 0 0
-0.1063 0.1379 -0.6516 0.167 0.887 0.431 193 174 137 0 0
-0.1042 0.1410 -0.6551 0.455 0.542 0.706 228 214 174 0 0
-0.0986 0.1500 -0.7062 0.130 0.950 0.284 74 66 49 0 0
-0.0977 0.1515 -0.7091 0.291 0.639 0.713 95 81 66 0 0
-0.0964 0.1534 -0.7095 0.176 0.420 0.890 93 80 60 0 0
-0.0908 0.1616 -0.7128 0.520 0.598 0.609 161 147 114 0 0
-0.0892 0.1639 -0.7148 0.408 0.540 0.736 139 120 88 0 0
-0.0881 0.1655 -0.7175 0.334 0.609 0.720 159 145 119 0 0
-0.0876 0.1662 -0.7189 0.189 0.867 0.461 116 106 84 0 0
-0.0884 0.1652 -0.7218 0.388 0.920 -0.048 75 65 46 0 0
-0.1093 0.1363 -0.7901 0.554 0.372 0.745 116 101 74 0 0
-0.1084 0.1375 -0.7911 0.369 0.638 0.676 56 45 23 0 0
-0.0859 0.1715 -0.8590 0.252 0.913 0.321 78 75 53 0 0
-0.0856 0.1720 -0.8607 0.252 0.913 0.321 44 40 30 0 0
-0.1558 0.0585 -0.4062 -0.459 0.702 0.545 121 104 77 0 0
-0.1545 0.0605 -0.4071 -0.341 0.857 0.386 122 106 75 0 0
-0.1537 0.0617 -0.4101 -0.230 0.972 0.041 109 92 66 0 0
-0.1537 0.0616 -0.4119 -0.443 0.850 0.285 111 94 65 0 0
-0.1525 0.0634 -0.4129 -0.455 0.704 0.545 125 109 76 0 0
-0.1479 0.0704 -0.4310 0.554 0.669 0.495 96 81 53 0 0
-0.1475 0.0711 -0.4325 0.587 0.648 0.486 106 90 65 0 0
-0.0992 0.1425 -0.5088 0.728 0.646 0.228 90 74 48 0 0
-0.0973 0.1454 -0.5142 0.520 0.718 0.462 87 72 44 0 0
-0.0973 0.1454 -0.5160 0.560 0.785 0.265 89 74 44 0 0
-0.0971 0.1458 -0.5175 0.678 0.635 0.370 90 75 44 0 0
-0.0960 0.1474 -0.5202 0.513 0.718 0.470 71 52 28 0 0
-0.0957 0.1478 -0.5217 0.607 0.711 0.355 68 51 27 0 0
-0.0949 0.1491 -0.5227 0.409 0.849 0.334 70 54 32 0 0
-0.0951 0.1487 -0.5247 0.506 0.825 0.252 85 68 46 0 0
-0.0950 0.1490 -0.5299 0.580 0.783 0.224 89 69 42 0 0
-0.0940 0.1506 -0.5344 0.647 0.721 0.247 137 119 81 0 0
-0.0947 0.1528 -0.7093 -0.065 0.521 0.851 90 80 60 0 0
-0.0904 0.1591 -0.7120 -0.079 0.582 0.809 133 119 84 0 0
-0.0887 0.1617 -0.7139 -0.038 0.771 0.636 135 121 86 0 0
-0.0881 0.1625 -0.7152 0.012 0.724 0.690 139 117 87 0 0
-0.0868 0.1646 -0.7216 0.388 0.920 -0.048 99 88 69 0 0
-0.1083 0.1345 -0.7887 0.210 0.657 0.724 104 88 62 0 0
-0.1007 0.1457 -0.7935 0.091 0.819 0.567 163 146 112 0 0
-0.1001 0.1466 -0.7970 0.190 0.881 0.434 90 78 49 0 0
-0.0935 0.1564 -0.8093 0.294 0.956 -0.009 84 71 55 0 0
-0.0817 0.1745 -0.8660 0.062 0.977 0.202 147 143 140 0 0
-0.1472 0.0683 -0.4139 0.593 0.697 0.402 129 112 76 0 0
-0.1464 0.0695 -0.4239 0.369 0.929 -0.012 110 95 63 0 0
-0.1464 0.0696 -0.4257 0.463 0.884 -0.058 98 83 53 0 0
-0.1462 0.0701 -0.4308 0.568 0.745 0.350 90 75 46 0 0
-0.1472 0.0687 -0.4386 0.522 0.790 0.321 107 91 65 0 0
-0.1466 0.0696 -0.4417 0.558 0.813 0.168 90 74 48 0 0
-0.1454 0.0715 -0.4462 0.509 0.802 0.312 102 87 56 0 0
-0.1451 0.0719 -0.4478 0.509 0.802 0.312 95 79 53 0 0
-0.0964 0.1439 -0.5128 0.641 0.703 0.309 87 72 46 0 0
-0.0936 0.1483 -0.5352 0.692 0.677 0.250 121 103 67 0 0
-0.0922 0.1505 -0.5393 0.341 0.928 -0.148 148 129 84 0 0
-0.1709 0.0380 -0.6508 -0.055 0.909 0.413 53 49 47 0 0
-0.1274 0.1012 -0.6496 0.083 -0.114 0.990 91 82 69 0 0
-0.1057 0.1328 -0.6482 0.310 0.372 0.875 132 115 88 0 0
-0.1026 0.1373 -0.6507 0.760 0.574 0.305 163 143 105 0 0
-0.0996 0.1417 -0.6552 0.164 0.677 0.718 228 210 171 0 0
-0.0929 0.1524 -0.7089 0.010 0.580 0.815 86 76 56 0 0
-0.0863 0.1621 -0.7148 0.012 0.730 0.683 130 111 85 0 0
-0.0999 0.1438 -0.7922 0.350 0.821 0.452 161 144 109 0 0
-0.0995 0.1443 -0.7939 0.124 0.860 0.495 126 109 81 0 0
-0.1561 0.0522 -0.3993 -0.539 0.759 0.366 122 106 79 0 0
-0.1530 0.0567 -0.4009 -0.385 0.694 0.608 118 101 72 0 0
-0.1447 0.0692 -0.4237 0.660 0.722 -0.206 93 77 47 0 0
-0.1447 0.0693 -0.4307 0.442 0.816 0.373 101 86 57 0 0
-0.1444 0.0697 -0.4323 0.388 0.658 0.645 100 85 56 0 0
-0.1451 0.0692 -0.4614 0.677 0.736 0.010 58 46 30 0 0
-0.1452 0.0691 -0.4632 0.666 0.746 -0.027 55 45 30 0 0
-0.0914 0.1489 -0.5470 0.445 0.887 0.119 150 132 90 0 0
-0.0929 0.1469 -0.5538 0.292 0.953 0.082 135 117 83 0 0
-0.0930 0.1468 -0.5557 0.523 0.724 0.450 130 115 82 0 0
-0.1053 0.1304 -0.6473 -0.063 0.396 0.916 110 94 70 0 0
-0.1027 0.1342 -0.6484 0.508 0.671 0.540 130 114 82 0 0
-0.0983 0.1407 -0.6553 0.376 0.709 0.597 227 211 171 0 0
-0.0974 0.1420 -0.6563 -0.087 0.732 0.676 219 206 161 0 0
-0.0933 0.1482 -0.6653 0.158 0.821 0.549 160 142 102 0 0
-0.0912 0.1519 -0.7085 -0.133 0.859 0.494 93 83 65 0 0
-0.0989 0.1422 -0.7929 -0.015 0.697 0.717 89 75 47 0 0
-0.0747 0.1787 -0.8642 0.403 0.596 0.695 167 167 166 0 0
-0.0747 0.1786 -0.8665 0.495 0.204 0.845 177 175 176 0 0
-0.1529 0.0537 -0.3930 -0.557 0.617 0.557 120 104 78 0 0
-0.1532 0.0533 -0.3966 -0.436 0.713 0.549 120 104 76 0 0
-0.1506 0.0571 -0.3986 -0.198 0.918 0.345 144 127 99 0 0
-0.1426 0.0695 -0.4302 0.421 0.885 0.200 98 82 53 0 0
-0.1428 0.0692 -0.4321 0.076 0.804 0.590 96 80 52 0 0
-0.1425 0.0698 -0.4462 0.340 0.688 0.641 114 99 69 0 0
-0.1444 0.0674 -0.4655 0.591 0.805 -0.057 48 39 27 0 0
-0.1006 0.1321 -0.5045 0.614 0.763 0.202 74 66 54 0 0
-0.0939 0.1421 -0.5218 0.664 0.392 0.637 90 74 46 0 0
-0.0934 0.1428 -0.5232 0.641 0.559 0.526 82 67 38 0 0
-0.0924 0.1443 -0.5241 0.361 0.780 0.511 79 63 36 0 0
-0.0914 0.1463 -0.5536 0.348 0.921 0.178 145 126 89 0 0
-0.0911 0.1467 -0.5552 0.167 0.930 0.327 132 114 82 0 0
-0.1011 0.1336 -0.6482 0.202 0.629 0.751 129 113 86 0 0
-0.0892 0.1518 -0.7079 -0.133 0.859 0.494 103 91 75 0 0
-0.0850 0.1582 -0.7147 0.268 0.702 0.660 105 92 71 0 0
-0.0821 0.1623 -0.7151 0.196 0.852 0.485 168 150 116 0 0
-0.0810 0.1640 -0.7157 0.051 0.798 0.601 157 140 109 0 0
-0.0971 0.1417 -0.7926 0.351 0.696 0.626 41 29 12 0 0
-0.0957 0.1437 -0.7928 0.372 0.523 0.767 71 60 43 0 0
-0.0951 0.1445 -0.7942 0.410 0.534 0.739 92 82 61 0 0
-0.0771 0.1717 -0.8395 0.341 0.887 0.311 139 124 85 0 0
-0.0776 0.1713 -0.8621 -0.007 0.971 0.240 44 39 28 0 0
-0.0744 0.1760 -0.8638 0.228 0.688 0.689 143 143 138 0 0
-0.0723 0.1791 -0.8650 0.299 0.276 0.914 173 172 173 0 0
-0.1562 0.0459 -0.3888 -0.652 0.677 0.342 112 101 82 0 0
-0.1516 0.0527 -0.3930 -0.556 0.594 0.581 124 108 82 0 0
-0.1486 0.0572 -0.3981 -0.103 0.937 0.333 150 136 112 0 0
-0.1414 0.0681 -0.4234 0.678 0.549 0.490 84 68 41 0 0
-0.1408 0.0692 -0.4299 0.173 0.924 0.340 93 76 48 0 0
-0.1416 0.0681 -0.4430 0.447 0.779 0.440 100 84 57 0 0
-0.1403 0.0702 -0.4509 0.613 0.739 0.280 82 67 38 0 0
-0.1428 0.0666 -0.4636 0.432 0.880 -0.197 39 30 17 0 0
-0.0911 0.1433 -0.5241 0.792 0.373 0.482 96 81 52 0 0
-0.0911 0.1434 -0.5259 0.825 0.462 0.325 89 74 47 0 0
-0.0917 0.1427 -0.5353 0.687 0.719 0.104 67 47 23 0 0
-0.1549 0.0519 -0.6602 0.308 0.796 0.522 93 85 70 0 0
-0.0999 0.1323 -0.6465 0.787 0.551 0.277 129 116 87 0 0
-0.0982 0.1349 -0.6486 0.674 0.631 0.385 154 135 104 0 0
-0.0870 0.1521 -0.7089 0.115 0.765 0.633 72 57 37 0 0
-0.0954 0.1410 -0.7923 0.487 0.650 0.584 69 57 39 0 0
-0.0946 0.1423 -0.7933 0.443 0.440 0.782 94 82 60 0 0
-0.0878 0.1523 -0.8011 0.410 0.888 0.209 96 82 56 0 0
-0.0876 0.1527 -0.8030 0.384 0.858 0.340 73 63 35 0 0
-0.0755 0.1709 -0.8394 0.368 0.810 0.456 125 111 73 0 0
-0.1615 0.0350 -0.3839 0.751 0.564 -0.343 126 121 112 0 0
-0.1476 0.0557 -0.3931 -0.272 0.899 0.343 102 86 60 0 0
-0.1400 0.0671 -0.4058 0.082 0.939 0.334 124 106 69 0 0
-0.1400 0.0672 -0.4215 0.606 0.679 0.415 89 74 45 0 0
-0.1385 0.0698 -0.4488 0.497 0.859 0.125 99 84 55 0 0
-0.1407 0.0667 -0.4576 0.396 0.902 -0.174 50 37 21 0 0
-0.1538 0.0477 -0.4799 -0.538 0.750 -0.385 66 62 55 0 0
-0.0936 0.1368 -0.5186 0.798 0.496 0.341 97 87 68 0 0
-0.0908 0.1410 -0.5250 0.808 0.549 0.214 102 87 58 0 0
-0.0901 0.1421 -0.5297 0.869 0.493 0.046 89 70 41 0 0
-0.0904 0.1418 -0.5354 0.394 0.908 0.141 63 45 22 0 0
-0.1182 0.1024 -0.6481 -0.342 0.109 0.933 107 97 85 0 0
-0.0973 0.1331 -0.6473 0.495 0.753 0.434 158 144 109 0 0
-0.0966 0.1342 -0.6484 0.233 0.752 0.617 159 142 105 0 0
-0.0856 0.1507 -0.6751 0.166 0.934 0.316 97 80 51 0 0
-0.0861 0.1503 -0.6955 0.382 0.872 -0.307 62 50 32 0 0
-0.0864 0.1500 -0.7079 0.246 0.663 0.707 67 54 39 0 0
-0.0938 0.1402 -0.7922 0.091 0.715 0.693 75 61 41 0 0
-0.0864 0.1513 -0.8012 0.475 0.818 0.324 79 67 44 0 0
-0.0727 0.1723 -0.8658 0.045 0.925 0.377 126 124 118 0 0
-0.1649 0.0265 -0.3414 -0.566 0.802 0.190 178 179 181 0 0
-0.1645 0.0271 -0.3428 -0.566 0.802 0.190 178 179 181 0 0
-0.1645 0.0271 -0.3446 -0.563 0.826 0.031 178 179 181 0 0
-0.1644 0.0273 -0.3462 -0.551 0.834 0.002 179 180 182 0 0
-0.1388 0.0661 -0.4252 0.313 0.819 0.482 85 69 43 0 0
-0.1383 0.0668 -0.4266 0.065 0.815 0.576 102 86 60 0 0
-0.1401 0.0646 -0.4636 0.469 0.820 -0.327 70 63 49 0 0
-0.1416 0.0625 -0.4665 0.408 0.687 -0.601 63 57 44 0 0
-0.1499 0.0504 -0.4781 -0.032 0.688 -0.725 66 61 54 0 0
-0.1569 0.0402 -0.4870 -0.184 0.743 -0.644 60 53 41 0 0
-0.0863 0.1449 -0.5346 0.686 0.709 0.167 65 45 21 0 0
-0.1095 0.1121 -0.6443 0.019 0.195 0.981 102 92 80 0 0
-0.1078 0.1146 -0.6445 -0.035 0.521 0.853 92 83 70 0 0
-0.0836 0.1508 -0.6764 0.375 0.890 0.260 106 89 61 0 0
-0.0748 0.1642 -0.7173 0.168 0.967 0.190 158 147 120 0 0
-0.0846 0.1508 -0.8029 0.537 0.786 0.307 93 80 61 0 0
-0.0712 0.1714 -0.8614 -0.120 0.885 0.450 50 46 37 0 0
-0.0710 0.1716 -0.8634 -0.060 0.967 0.248 79 75 65 0 0
-0.0710 0.1717 -0.8656 0.097 0.952 0.292 113 110 104 0 0
-0.1652 0.0230 -0.3302 -0.548 0.769 0.328 178 179 180 0 0
-0.1645 0.0241 -0.3315 -0.548 0.769 0.328 178 179 180 0 0
-0.1638 0.0251 -0.3329 -0.514 0.803 0.302 179 180 180 0 0
-0.1628 0.0266 -0.3341 -0.468 0.847 0.254 178 179 181 0 0
-0.1623 0.0273 -0.3356 -0.468 0.847 0.254 177 179 182 0 0
-0.1619 0.0280 -0.3371 -0.468 0.847 0.254 177 179 181 0 0
-0.1608 0.0296 -0.3434 -0.563 0.826 0.031 178 180 183 0 0
-0.1608 0.0297 -0.3451 -0.551 0.834 0.002 179 180 182 0 0
-0.1603 0.0304 -0.3465 -0.490 0.872 0.013 179 179 181 0 0
-0.1603 0.0304 -0.3483 -0.490 0.872 0.013 179 180 182 0 0
-0.1401 0.0610 -0.4006 -0.140 0.569 0.810 126 110 82 0 0
-0.1370 0.0658 -0.4214 0.443 0.889 0.113 90 75 46 0 0
-0.1371 0.0656 -0.4250 0.387 0.697 0.604 94 79 50 0 0
-0.1382 0.0645 -0.4614 0.588 0.753 -0.296 46 38 24 0 0
-0.1406 0.0610 -0.4668 0.466 0.645 -0.605 40 33 23 0 0
-0.0853 0.1436 -0.5404 0.594 0.773 0.225 82 67 43 0 0
-0.0861 0.1427 -0.5537 0.540 0.815 -0.211 94 74 45 0 0
-0.1074 0.1122 -0.6436 0.229 0.357 0.906 97 89 77 0 0
-0.1029 0.1189 -0.6466 -0.054 0.777 0.627 109 96 78 0 0
-0.1014 0.1210 -0.6470 0.136 0.391 0.910 84 71 51 0 0
-0.1006 0.1223 -0.6480 0.110 0.499 0.860 92 80 59 0 0
-0.0946 0.1312 -0.6474 0.168 0.891 0.423 110 95 68 0 0
-0.0840 0.1470 -0.6608 0.243 0.868 0.433 202 178 141 0 0
-0.0739 0.1625 -0.7200 0.451 0.744 0.493 87 75 48 0 0
-0.0942 0.1334 -0.7882 0.184 0.658 0.730 93 81 59 0 0
-0.0786 0.1567 -0.8138 0.183 0.885 0.427 84 71 46 0 0
-0.0782 0.1574 -0.8153 0.183 0.885 0.427 69 56 34 0 0
-0.0730 0.1651 -0.8272 0.631 0.729 0.267 83 71 47 0 0
-0.0732 0.1649 -0.8296 0.241 0.838 0.490 91 77 56 0 0
-0.0711 0.1681 -0.8395 0.596 0.636 0.490 127 113 75 0 0
-0.0698 0.1703 -0.8549 0.077 0.984 0.159 107 96 71 0 0
-0.1649 0.0204 -0.3256 -0.595 0.720 0.356 178 179 181 0 0
-0.1631 0.0231 -0.3281 -0.595 0.720 0.356 179 180 182 0 0
-0.1571 0.0322 -0.3456 -0.490 0.872 0.013 178 179 177 0 0
-0.1566 0.0330 -0.3470 -0.365 0.931 -0.023 179 180 181 0 0
-0.1566 0.0330 -0.3487 -0.298 0.954 -0.012 179 180 182 0 0
-0.1578 0.0312 -0.3511 -0.415 0.885 -0.209 180 179 183 0 0
-0.1373 0.0621 -0.4015 -0.073 0.519 0.852 123 107 81 0 0
-0.1357 0.0647 -0.4144 0.673 0.598 0.436 91 76 47 0 0
-0.1357 0.0648 -0.4249 0.542 0.721 0.431 94 79 50 0 0
-0.1406 0.0580 -0.4678 0.608 0.482 -0.631 38 31 22 0 0
-0.1354 0.0661 -0.5081 -0.188 0.934 0.305 90 84 74 0 0
-0.0866 0.1388 -0.5356 0.448 0.707 0.548 104 80 42 0 0
-0.0844 0.1420 -0.5390 0.532 0.820 0.210 66 50 25 0 0
-0.0843 0.1423 -0.5406 0.561 0.789 0.252 65 48 26 0 0
-0.0837 0.1432 -0.5419 0.532 0.827 0.181 104 88 56 0 0
-0.1058 0.1114 -0.6435 0.300 0.329 0.895 91 83 71 0 0
-0.0990 0.1217 -0.6478 0.110 0.499 0.860 100 88 69 0 0
-0.0980 0.1231 -0.6488 0.110 0.499 0.860 79 66 46 0 0
-0.0931 0.1304 -0.6472 0.292 0.840 0.458 100 86 59 0 0
-0.0826 0.1460 -0.6590 0.404 0.839 0.364 194 176 135 0 0
-0.0823 0.1465 -0.6605 0.404 0.839 0.364 215 195 155 0 0
-0.0929 0.1321 -0.7863 0.242 0.906 0.348 114 102 77 0 0
-0.0916 0.1341 -0.7888 0.052 0.381 0.923 120 106 77 0 0
-0.0669 0.1715 -0.8616 0.122 0.868 0.481 61 57 44 0 0
-0.0672 0.1711 -0.8643 0.236 0.948 0.215 95 90 82 0 0
-0.0669 0.1716 -0.8659 0.261 0.943 0.204 130 127 124 0 0
-0.1633 0.0198 -0.3220 -0.580 0.713 0.395 178 178 179 0 0
-0.1623 0.0213 -0.3232 -0.580 0.713 0.395 179 179 180 0 0
-0.1526 0.0360 -0.3473 0.833 0.145 0.533 174 174 171 0 0
-0.1385 0.0573 -0.3840 0.096 0.715 0.692 110 92 61 0 0
-0.1363 0.0605 -0.3896 0.281 0.960 0.007 83 64 39 0 0
-0.1333 0.0652 -0.4120 0.274 0.855 0.440 86 71 42 0 0
-0.1327 0.0661 -0.4133 0.436 0.691 0.577 89 74 45 0 0
-0.1318 0.0676 -0.4215 0.182 0.875 0.449 95 80 51 0 0
-0.1314 0.0683 -0.4229 0.374 0.845 0.381 90 75 46 0 0
-0.1390 0.0573 -0.4677 0.730 0.256 -0.634 33 26 18 0 0
-0.1409 0.0546 -0.4709 0.730 0.256 -0.634 31 24 16 0 0
-0.1438 0.0503 -0.4749 0.534 0.425 -0.731 38 30 22 0 0
-0.1360 0.0622 -0.5078 0.970 -0.218 0.109 107 96 81 0 0
-0.1325 0.0674 -0.5069 0.472 0.881 0.035 120 108 92 0 0
-0.0831 0.1411 -0.5391 0.494 0.828 0.268 85 68 40 0 0
-0.0829 0.1415 -0.5406 0.494 0.828 0.268 68 50 27 0 0
-0.0827 0.1418 -0.5422 0.396 0.863 0.313 83 66 38 0 0
-0.1446 0.0507 -0.6451 0.121 0.984 -0.132 69 63 54 0 0
-0.1114 0.1001 -0.6450 -0.328 0.238 0.914 99 91 78 0 0
-0.0883 0.1345 -0.6533 0.317 0.524 0.791 128 109 81 0 0
-0.0806 0.1460 -0.6602 0.226 0.783 0.580 199 182 143 0 0
-0.0802 0.1467 -0.6617 0.273 0.784 0.558 114 95 64 0 0
-0.0788 0.1490 -0.6916 0.458 0.887 -0.063 113 97 70 0 0
-0.0713 0.1604 -0.7183 0.058 0.649 0.759 120 107 83 0 0
-0.0700 0.1624 -0.7206 0.352 0.822 0.447 147 133 91 0 0
-0.0695 0.1632 -0.7220 0.507 0.840 0.192 156 138 97 0 0
-0.0909 0.1319 -0.7749 0.496 0.829 -0.259 46 38 30 0 0
-0.0919 0.1304 -0.7805 0.437 0.851 0.290 72 63 47 0 0
-0.0911 0.1316 -0.7859 0.436 0.848 0.301 120 105 77 0 0
-0.0700 0.1633 -0.8163 0.136 0.750 0.648 63 51 30 0 0
-0.0698 0.1638 -0.8289 0.392 0.788 0.475 87 76 50 0 0
-0.0672 0.1678 -0.8445 0.504 0.749 0.430 142 128 88 0 0
-0.0657 0.1701 -0.8599 0.147 0.952 0.267 44 39 27 0 0
-0.0655 0.1705 -0.8639 0.236 0.948 0.215 86 81 71 0 0
-0.1597 0.0222 -0.3209 -0.547 0.724 0.421 179 179 179 0 0
-0.1515 0.0346 -0.3457 -0.180 0.958 -0.224 103 97 85 0 0
-0.1519 0.0341 -0.3477 0.017 0.888 -0.459 109 106 98 0 0
-0.1560 0.0281 -0.3724 -0.563 0.633 0.532 102 96 86 0 0
-0.1365 0.0574 -0.3819 -0.151 0.712 0.685 99 83 60 0 0
-0.1302 0.0669 -0.4021 -0.102 0.752 0.651 103 87 61 0 0
-0.1297 0.0678 -0.4227 0.362 0.932 -0.005 90 76 46 0 0
-0.1299 0.0675 -0.4246 0.534 0.779 0.328 88 73 46 0 0
-0.1298 0.0676 -0.4263 0.509 0.858 0.069 86 70 44 0 0
-0.1298 0.0677 -0.4281 0.544 0.835 0.084 87 71 45 0 0
-0.1297 0.0678 -0.4298 0.481 0.874 0.063 92 76 50 0 0
-0.1312 0.0658 -0.4450 0.522 0.843 -0.130 64 48 31 0 0
-0.1389 0.0545 -0.4686 0.799 0.494 -0.343 33 25 19 0 0
-0.1407 0.0518 -0.4718 0.466 0.482 -0.742 32 25 19 0 0
-0.1429 0.0486 -0.4753 0.466 0.482 -0.742 35 26 20 0 0
-0.1469 0.0426 -0.4801 -0.186 0.974 -0.127 36 27 18 0 0
-0.1310 0.0666 -0.5068 0.472 0.881 0.035 112 99 82 0 0
-0.1275 0.0718 -0.5114 0.252 0.873 0.416 74 67 57 0 0
-0.0842 0.1365 -0.5323 0.450 0.364 0.815 140 122 92 0 0
-0.0844 0.1364 -0.5342 0.420 0.682 0.599 119 100 69 0 0
-0.1425 0.0507 -0.6528 0.267 0.963 0.030 57 52 46 0 0
-0.1405 0.0536 -0.6549 0.215 0.886 0.411 54 49 42 0 0
-0.1010 0.1125 -0.6434 -0.277 0.596 0.754 84 75 62 0 0
-0.0877 0.1324 -0.6523 0.355 0.606 0.712 178 159 127 0 0
-0.0871 0.1333 -0.6536 0.458 0.618 0.639 124 105 77 0 0
-0.0773 0.1485 -0.7115 0.261 0.430 0.864 113 102 78 0 0
-0.0680 0.1624 -0.7220 0.512 0.785 0.348 157 138 99 0 0
-0.0903 0.1296 -0.7804 0.437 0.851 0.290 50 41 28 0 0
-0.0902 0.1298 -0.7824 0.435 0.873 0.222 67 55 38 0 0
-0.0900 0.1302 -0.7842 0.435 0.873 0.222 78 66 43 0 0
-0.0897 0.1306 -0.7860 0.210 0.881 0.424 109 94 66 0 0
-0.0680 0.1633 -0.8155 0.105 0.975 0.197 71 59 36 0 0
-0.0677 0.1638 -0.8302 0.410 0.860 0.304 102 88 64 0 0
-0.0639 0.1697 -0.8593 0.285 0.938 0.195 60 55 39 0 0
-0.0637 0.1701 -0.8612 0.285 0.938 0.195 47 43 31 0 0
-0.0640 0.1696 -0.8639 0.295 0.955 0.020 78 74 63 0 0
-0.0634 0.1704 -0.8652 0.397 0.909 0.125 110 108 100 0 0
-0.1589 0.0203 -0.3178 -0.561 0.651 0.512 177 179 179 0 0
-0.1332 0.0593 -0.3841 -0.073 0.909 0.411 105 84 54 0 0
-0.1283 0.0668 -0.4018 0.056 0.756 0.652 88 72 46 0 0
-0.1283 0.0669 -0.4245 0.170 0.938 0.303 87 72 44 0 0
-0.1282 0.0671 -0.4262 0.308 0.948 0.075 93 77 51 0 0
-0.1282 0.0670 -0.4297 0.405 0.908 0.109 93 77 51 0 0
-0.1283 0.0669 -0.4315 0.365 0.878 0.309 96 80 54 0 0
-0.1281 0.0674 -0.4331 0.365 0.878 0.309 96 80 54 0 0
-0.1301 0.0643 -0.4434 0.562 0.806 -0.186 56 43 27 0 0
-0.1381 0.0526 -0.4673 0.368 0.630 -0.684 49 41 32 0 0
-0.1392 0.0509 -0.4699 0.099 0.764 -0.638 37 30 21 0 0
-0.1409 0.0485 -0.4730 0.143 0.648 -0.748 30 25 18 0 0
-0.1422 0.0466 -0.4758 0.642 0.557 -0.527 29 22 15 0 0
-0.1282 0.0678 -0.5057 -0.323 0.633 0.704 112 102 90 0 0
-0.1254 0.0718 -0.5072 -0.433 0.819 0.376 71 64 54 0 0
-0.1251 0.0723 -0.5088 -0.446 0.832 0.329 74 67 57 0 0
-0.1253 0.0721 -0.5108 -0.077 0.957 0.280 74 67 57 0 0
-0.1250 0.0725 -0.5124 -0.062 0.975 0.215 69 61 50 0 0
-0.1251 0.0724 -0.5162 -0.314 0.886 0.342 70 62 51 0 0
-0.0832 0.1353 -0.5326 0.454 0.315 0.833 110 94 72 0 0
-0.0810 0.1386 -0.5396 0.319 0.829 0.459 89 71 38 0 0
-0.0802 0.1397 -0.5425 0.317 0.845 0.430 59 39 15 0 0
-0.0796 0.1406 -0.5455 0.485 0.841 0.240 126 110 75 0 0
-0.1394 0.0520 -0.6533 0.261 0.947 0.186 63 58 52 0 0
-0.0991 0.1123 -0.6428 -0.117 0.624 0.773 84 74 63 0 0
-0.0873 0.1300 -0.6515 0.120 0.711 0.692 137 118 83 0 0
-0.0866 0.1310 -0.6527 0.120 0.711 0.692 149 133 101 0 0
-0.0863 0.1314 -0.6543 0.066 0.921 0.384 134 117 88 0 0
-0.0860 0.1320 -0.6559 0.040 0.853 0.520 130 115 86 0 0
-0.0664 0.1617 -0.7218 0.402 0.864 0.303 138 120 83 0 0
-0.0661 0.1622 -0.7233 0.557 0.820 0.135 160 142 100 0 0
-0.0705 0.1558 -0.7351 0.424 0.748 -0.511 105 88 61 0 0
-0.0885 0.1292 -0.7778 0.390 0.920 0.041 30 24 14 0 0
-0.0890 0.1284 -0.7807 0.388 0.704 0.595 34 26 15 0 0
-0.0672 0.1614 -0.8273 0.279 0.828 0.486 94 82 56 0 0
-0.0667 0.1621 -0.8288 0.279 0.828 0.486 67 54 30 0 0
-0.0662 0.1629 -0.8301 0.417 0.903 0.109 92 77 52 0 0
-0.0620 0.1695 -0.8609 0.285 0.938 0.195 52 48 37 0 0
-0.0618 0.1697 -0.8651 0.397 0.909 0.125 102 98 90 0 0
-0.1312 0.0593 -0.3838 -0.143 0.919 0.367 131 110 74 0 0
-0.1268 0.0660 -0.4000 0.046 0.819 0.573 119 103 70 0 0
-0.1266 0.0666 -0.4313 0.109 0.934 0.340 94 78 52 0 0
-0.1262 0.0671 -0.4328 0.090 0.909 0.407 92 78 50 0 0
-0.1286 0.0636 -0.4433 0.400 0.883 -0.246 50 42 31 0 0
-0.1290 0.0630 -0.4454 0.506 0.851 -0.139 47 39 30 0 0
-0.1377 0.0501 -0.4680 0.194 0.769 -0.609 40 34 29 0 0
-0.1410 0.0453 -0.4760 0.471 0.645 -0.602 62 54 45 0 0
-0.1228 0.0728 -0.5062 -0.433 0.819 0.376 72 65 55 0 0
-0.1222 0.0736 -0.5150 0.108 0.952 0.287 64 55 46 0 0
-0.1220 0.0741 -0.5166 0.100 0.938 0.333 57 48 39 0 0
-0.1216 0.0746 -0.5182 0.097 0.916 0.389 48 39 30 0 0
-0.1212 0.0752 -0.5197 -0.072 0.875 0.479 52 44 36 0 0
-0.0993 0.1082 -0.5266 -0.013 0.073 0.997 82 79 73 0 0
-0.0795 0.1379 -0.5394 0.319 0.829 0.459 101 80 48 0 0
-0.0783 0.1398 -0.5455 0.480 0.837 0.262 94 77 48 0 0
-0.0785 0.1395 -0.5567 0.320 0.889 -0.327 151 131 95 0 0
-0.1382 0.0506 -0.6474 0.264 0.897 0.354 72 65 58 0 0
-0.1378 0.0512 -0.6490 0.020 0.935 0.354 66 61 55 0 0
-0.1378 0.0511 -0.6511 0.261 0.947 0.186 68 63 57 0 0
-0.0849 0.1305 -0.6524 0.066 0.921 0.384 104 90 55 0 0
-0.0845 0.1311 -0.6539 0.066 0.921 0.384 87 73 44 0 0
-0.0840 0.1319 -0.6553 0.133 0.870 0.475 99 86 64 0 0
-0.0866 0.1288 -0.7795 0.223 0.957 0.185 33 24 16 0 0
-0.0776 0.1425 -0.7949 0.353 0.903 0.246 41 32 16 0 0
-0.0659 0.1602 -0.8254 0.355 0.838 0.414 134 118 87 0 0
-0.0656 0.1607 -0.8271 0.360 0.805 0.471 109 97 70 0 0
-0.0652 0.1613 -0.8287 0.303 0.887 0.348 66 55 28 0 0
-0.0650 0.1617 -0.8305 0.572 0.796 0.200 101 86 61 0 0
-0.0612 0.1673 -0.8335 0.488 0.795 0.361 113 99 69 0 0
-0.0612 0.1674 -0.8357 0.635 0.654 0.410 108 89 55 0 0
-0.0605 0.1685 -0.8610 0.295 0.955 0.020 63 58 45 0 0
-0.0605 0.1685 -0.8631 0.295 0.955 0.020 55 51 42 0 0
-0.0602 0.1690 -0.8649 0.397 0.909 0.125 91 84 75 0 0
-0.1558 0.0190 -0.3143 -0.578 0.541 0.611 176 178 178 0 0
-0.1539 0.0219 -0.3150 -0.578 0.541 0.611 171 171 170 0 0
-0.1495 0.0285 -0.3146 -0.257 0.871 0.419 150 147 142 0 0
-0.1242 0.0671 -0.4183 0.200 0.976 -0.088 87 71 45 0 0
-0.1240 0.0675 -0.4304 0.188 0.958 0.214 96 81 52 0 0
-0.1275 0.0623 -0.4453 0.340 0.934 -0.114 27 21 18 0 0
-0.1263 0.0641 -0.4463 0.359 0.907 -0.220 25 21 17 0 0
-0.1262 0.0643 -0.4480 0.443 0.832 -0.336 28 25 21 0 0
-0.1304 0.0583 -0.5061 -0.450 0.079 0.889 98 90 77 0 0
-0.1215 0.0716 -0.5044 -0.419 0.748 0.515 70 62 54 0 0
-0.1207 0.0729 -0.5056 -0.419 0.748 0.515 62 55 45 0 0
-0.0895 0.1198 -0.5282 0.140 0.464 0.875 92 85 79 0 0
-0.0884 0.1215 -0.5290 0.364 0.489 0.793 93 86 80 0 0
-0.0779 0.1374 -0.5374 0.202 0.855 0.478 124 107 73 0 0
-0.0769 0.1389 -0.5419 0.398 0.867 0.298 106 88 55 0 0
-0.0767 0.1393 -0.5471 0.491 0.835 0.249 97 80 53 0 0
-0.0795 0.1352 -0.5626 0.442 0.763 -0.472 110 96 60 0 0
-0.0811 0.1332 -0.6575 0.228 0.736 0.637 70 60 48 0 0
-0.0674 0.1541 -0.7146 0.025 0.564 0.826 119 103 80 0 0
-0.0662 0.1566 -0.8107 0.231 0.879 0.418 67 54 33 0 0
-0.0643 0.1595 -0.8252 0.268 0.910 0.316 105 92 62 0 0
-0.0641 0.1598 -0.8272 0.227 0.828 0.513 113 101 75 0 0
-0.0636 0.1606 -0.8285 0.303 0.887 0.348 84 71 42 0 0
-0.0596 0.1666 -0.8311 0.680 0.693 0.239 95 83 54 0 0
-0.0600 0.1660 -0.8339 0.702 0.670 0.243 102 88 59 0 0
-0.0594 0.1668 -0.8353 0.595 0.574 0.563 107 91 60 0 0
-0.0583 0.1687 -0.8642 0.295 0.939 0.177 85 77 66 0 0
-0.1485 0.0269 -0.3114 -0.175 0.810 0.559 169 169 167 0 0
-0.1478 0.0281 -0.3127 -0.245 0.861 0.446 135 131 124 0 0
-0.1472 0.0290 -0.3141 -0.264 0.863 0.430 116 110 97 0 0
-0.1357 0.0463 -0.3352 -0.542 0.798 0.263 69 59 46 0 0
-0.1241 0.0642 -0.3948 0.311 0.900 0.306 96 80 55 0 0
-0.1225 0.0668 -0.4286 0.188 0.958 0.214 93 78 48 0 0
-0.1222 0.0671 -0.4302 0.188 0.958 0.214 91 77 46 0 0
-0.1338 0.0499 -0.4654 0.521 0.465 -0.716 18 16 15 0 0
-0.1382 0.0434 -0.5003 -0.638 0.510 0.577 53 48 44 0 0
-0.1365 0.0459 -0.5009 -0.677 0.543 0.497 42 37 33 0 0
-0.1287 0.0578 -0.5021 -0.407 0.089 0.909 97 91 85 0 0
-0.0892 0.1175 -0.5273 0.329 0.120 0.937 92 86 79 0 0
-0.0879 0.1194 -0.5280 0.547 0.089 0.833 95 89 81 0 0
-0.0791 0.1327 -0.5343 0.351 0.461 0.815 157 141 111 0 0
-0.0762 0.1371 -0.5389 0.278 0.795 0.540 147 132 92 0 0
-0.0757 0.1378 -0.5402 0.357 0.901 0.247 154 138 97 0 0
-0.0751 0.1388 -0.5450 0.497 0.786 0.368 62 44 19 0 0
-0.0762 0.1372 -0.5588 0.179 0.972 -0.150 127 109 69 0 0
-0.1309 0.0550 -0.6348 0.102 0.950 0.295 70 62 49 0 0
-0.0956 0.1084 -0.6437 -0.135 0.578 0.805 75 67 54 0 0
-0.0946 0.1099 -0.6446 -0.037 0.640 0.767 69 61 49 0 0
-0.0830 0.1274 -0.6514 0.391 0.751 0.532 136 118 86 0 0
-0.0807 0.1309 -0.6547 0.128 0.850 0.511 95 80 56 0 0
-0.0720 0.1441 -0.6740 0.524 0.845 0.108 39 27 14 0 0
-0.0718 0.1443 -0.6759 0.524 0.845 0.108 33 23 14 0 0
-0.0714 0.1450 -0.6833 0.524 0.845 0.108 97 84 58 0 0
-0.0625 0.1591 -0.8269 0.227 0.828 0.513 97 84 58 0 0
-0.0617 0.1603 -0.8278 0.321 0.872 0.369 100 85 55 0 0
-0.0581 0.1657 -0.8355 0.595 0.574 0.563 106 91 61 0 0
-0.1470 0.0263 -0.3097 -0.328 0.740 0.588 173 173 169 0 0
-0.1463 0.0274 -0.3110 -0.354 0.791 0.499 141 137 129 0 0
-0.1452 0.0291 -0.3121 -0.464 0.782 0.415 128 121 106 0 0
-0.1231 0.0628 -0.3898 -0.081 0.895 0.439 112 97 66 0 0
-0.1228 0.0632 -0.3914 0.033 0.936 0.349 102 86 58 0 0
-0.1225 0.0636 -0.3946 0.311 0.900 0.306 97 82 53 0 0
-0.1236 0.0621 -0.4481 -0.090 0.996 -0.016 8 5 6 0 0
-0.1316 0.0502 -0.5000 -0.549 0.568 0.613 57 52 49 0 0
-0.1297 0.0532 -0.5003 -0.535 0.641 0.551 56 49 47 0 0
-0.1270 0.0573 -0.5000 -0.559 0.344 0.755 79 71 69 0 0
-0.1241 0.0616 -0.4996 -0.543 0.336 0.769 96 89 84 0 0
-0.1170 0.0724 -0.4993 -0.245 0.925 0.289 89 80 71 0 0
-0.1159 0.0740 -0.5151 -0.172 0.972 0.163 69 61 52 0 0
-0.1157 0.0743 -0.5168 -0.040 0.959 0.282 56 49 40 0 0
-0.1153 0.0750 -0.5183 -0.090 0.994 0.070 46 41 32 0 0
-0.0881 0.1162 -0.5275 0.329 0.120 0.937 85 76 71 0 0
-0.0771 0.1328 -0.5338 0.014 0.876 0.482 209 195 161 0 0
-0.0737 0.1380 -0.5450 0.497 0.786 0.368 82 63 39 0 0
-0.0731 0.1390 -0.5516 0.280 0.946 0.165 133 113 80 0 0
-0.0738 0.1379 -0.5560 0.453 0.889 0.061 162 142 103 0 0
-0.1109 0.0819 -0.6041 0.067 0.601 -0.796 58 45 27 0 0
-0.1285 0.0554 -0.6339 0.148 0.975 0.166 60 52 40 0 0
-0.1284 0.0556 -0.6358 0.271 0.956 -0.113 51 44 34 0 0
-0.0705 0.1432 -0.6760 0.461 0.886 0.054 55 44 29 0 0
-0.0679 0.1473 -0.7128 0.027 0.494 0.869 116 100 74 0 0
-0.0746 0.1375 -0.7884 0.477 0.795 0.375 102 90 66 0 0
-0.0609 0.1584 -0.8180 0.505 0.768 0.394 175 161 133 0 0
-0.0597 0.1603 -0.8292 0.449 0.675 0.585 98 81 53 0 0
-0.0592 0.1610 -0.8306 0.442 0.648 0.620 121 104 79 0 0
-0.1297 0.0497 -0.3655 0.128 0.862 0.490 107 91 66 0 0
-0.1208 0.0632 -0.3910 0.330 0.920 0.210 94 78 52 0 0
-0.1195 0.0653 -0.4231 0.228 0.946 0.229 69 52 29 0 0
-0.1220 0.0615 -0.4444 0.056 0.998 0.013 5 5 5 0 0
-0.1220 0.0615 -0.4462 0.056 0.998 0.013 5 5 5 0 0
-0.1251 0.0569 -0.4502 0.664 0.627 -0.407 6 5 5 0 0
-0.1356 0.0411 -0.4948 -0.654 0.590 0.473 64 59 55 0 0
-0.1163 0.0703 -0.4981 -0.512 0.650 0.562 99 91 80 0 0
-0.1147 0.0728 -0.4986 -0.359 0.915 0.184 75 68 60 0 0
-0.1141 0.0737 -0.4999 -0.302 0.950 0.084 63 56 52 0 0
-0.1136 0.0745 -0.5050 -0.231 0.955 0.188 42 38 34 0 0
-0.1134 0.0747 -0.5086 -0.204 0.967 0.151 40 38 31 0 0
-0.1132 0.0751 -0.5103 -0.258 0.952 0.164 58 52 42 0 0
-0.1133 0.0749 -0.5141 -0.098 0.995 -0.034 60 55 46 0 0
