ply
format ascii 1.0
element vertex 830
property float x
property float y
property float z
property float nx
property float ny
property float nz
property uchar diffuse_red
property uchar diffuse_green
property uchar diffuse_blue
property uchar class
property uchar detection
end_header
-0.1161 -0.0856 -0.5913 0.607 -0.293 0.739 60 55 49 0 0
-0.1272 -0.1111 -0.6160 -0.176 -0.984 0.026 72 60 39 0 0
-0.1203 -0.0808 -0.6774 -0.092 -0.958 -0.270 9 8 6 0 0
-0.1352 -0.1158 -0.7070 -0.056 -0.817 0.574 79 72 56 0 0
-0.1415 -0.1173 -0.7892 -0.387 -0.811 0.438 71 58 32 0 0
-0.1417 -0.1176 -0.7911 -0.482 -0.850 0.212 93 77 50 0 0
-0.1420 -0.1179 -0.7928 -0.447 -0.769 0.457 104 85 55 0 0
-0.1423 -0.1185 -0.7944 -0.395 -0.704 0.591 103 83 54 0 0
-0.1449 -0.1241 -0.8021 -0.346 -0.766 0.542 93 79 53 0 0
-0.1461 -0.1267 -0.8061 -0.304 -0.758 0.577 103 87 57 0 0
-0.1472 -0.1286 -0.8107 -0.531 -0.779 0.333 84 61 32 0 0
-0.1565 -0.1452 -0.8570 -0.422 -0.853 0.309 84 76 56 0 0
-0.1627 -0.1607 -0.8633 -0.040 -0.876 0.481 186 184 183 0 0
-0.0870 -0.0541 -0.3152 -0.292 -0.886 0.361 84 73 55 0 0
-0.0873 -0.0546 -0.3167 -0.292 -0.886 0.361 58 46 29 0 0
-0.0905 -0.0592 -0.3390 -0.087 -0.971 0.221 12 8 4 0 0
-0.0932 -0.0645 -0.3500 -0.410 -0.881 0.237 92 85 69 0 0
-0.0928 -0.0607 -0.3643 -0.508 -0.852 -0.128 26 19 13 0 0
-0.0968 -0.0689 -0.3775 -0.091 -0.161 0.983 108 101 92 0 0
-0.1143 -0.1023 -0.4523 -0.377 -0.851 0.364 51 38 18 0 0
-0.1146 -0.0967 -0.4857 0.600 -0.794 0.095 93 82 66 0 0
-0.1229 -0.1098 -0.5363 0.698 -0.681 -0.221 88 80 68 0 0
-0.1216 -0.0780 -0.6848 0.002 -0.992 -0.125 8 7 5 0 0
-0.1292 -0.0945 -0.7067 -0.100 -0.442 0.891 26 22 19 0 0
-0.1331 -0.1055 -0.7044 -0.573 -0.438 0.693 39 35 31 0 0
-0.1435 -0.1316 -0.7158 -0.179 -0.612 0.770 169 155 114 0 0
-0.1381 -0.1058 -0.7754 -0.413 -0.911 0.011 94 85 54 0 0
-0.1401 -0.1097 -0.7825 -0.248 -0.908 0.337 61 48 29 0 0
-0.1428 -0.1156 -0.7900 -0.217 -0.851 0.479 70 58 35 0 0
-0.1471 -0.1250 -0.8028 -0.137 -0.843 0.520 86 73 45 0 0
-0.1623 -0.1548 -0.8641 0.138 -0.980 0.142 176 174 177 0 0
-0.1626 -0.1552 -0.8658 0.126 -0.974 0.187 181 179 182 0 0
-0.1642 -0.1594 -0.8660 0.144 -0.973 0.182 186 185 183 0 0
-0.0729 -0.0243 -0.2470 -0.319 -0.816 0.482 143 123 97 0 0
-0.1137 -0.1016 -0.4240 -0.296 -0.949 0.105 98 84 62 0 0
-0.1157 -0.1016 -0.4522 -0.377 -0.851 0.364 67 53 33 0 0
-0.1160 -0.1021 -0.4536 -0.377 -0.851 0.364 60 44 23 0 0
-0.1167 -0.0983 -0.4845 0.462 -0.847 0.262 97 86 68 0 0
-0.1246 -0.1121 -0.5239 0.342 -0.920 -0.194 70 56 34 0 0
-0.1246 -0.1117 -0.5259 0.342 -0.920 -0.194 68 54 33 0 0
-0.1247 -0.1119 -0.5276 0.420 -0.900 -0.114 69 55 35 0 0
-0.1221 -0.0931 -0.5876 0.544 -0.342 0.767 56 50 45 0 0
-0.1356 -0.1071 -0.7066 -0.529 -0.428 0.733 48 44 36 0 0
-0.1384 -0.1147 -0.7067 -0.103 -0.761 0.640 72 63 51 0 0
-0.1457 -0.1319 -0.7210 -0.347 -0.880 0.325 126 109 77 0 0
-0.1444 -0.1247 -0.7408 -0.453 -0.805 -0.383 109 96 62 0 0
-0.1433 -0.1196 -0.7509 -0.249 -0.866 -0.433 116 100 72 0 0
-0.1428 -0.1175 -0.7547 -0.279 -0.841 -0.463 102 86 60 0 0
-0.1407 -0.1070 -0.7800 -0.443 -0.846 0.297 68 55 36 0 0
-0.1410 -0.1074 -0.7817 -0.391 -0.874 0.288 68 55 36 0 0
-0.1644 -0.1553 -0.8650 0.126 -0.974 0.187 180 179 180 0 0
-0.0713 -0.0176 -0.2361 0.006 -0.862 0.506 198 189 159 0 0
-0.0743 -0.0237 -0.2469 -0.319 -0.816 0.482 111 93 70 0 0
-0.0953 -0.0623 -0.3438 -0.310 -0.906 0.290 77 69 59 0 0
-0.0969 -0.0649 -0.3524 -0.440 -0.887 0.141 41 32 23 0 0
-0.0972 -0.0651 -0.3556 -0.478 -0.878 -0.004 22 15 10 0 0
-0.0970 -0.0643 -0.3575 -0.259 -0.916 -0.306 39 32 22 0 0
-0.1147 -0.1006 -0.4208 -0.396 -0.918 -0.022 101 88 67 0 0
-0.1151 -0.1011 -0.4238 -0.324 -0.940 0.104 104 89 68 0 0
-0.1146 -0.0985 -0.4300 0.030 -0.988 0.150 68 53 31 0 0
-0.1156 -0.0984 -0.4450 -0.206 -0.958 0.202 75 60 39 0 0
-0.1159 -0.0989 -0.4464 -0.370 -0.875 0.311 70 55 36 0 0
-0.1161 -0.0992 -0.4480 -0.350 -0.823 0.448 88 73 53 0 0
-0.1165 -0.1001 -0.4493 -0.146 -0.926 0.349 61 46 25 0 0
-0.1168 -0.1005 -0.4507 -0.377 -0.851 0.364 71 55 34 0 0
-0.1171 -0.1010 -0.4522 -0.377 -0.851 0.364 79 62 41 0 0
-0.1232 -0.0917 -0.5861 0.544 -0.342 0.767 56 51 45 0 0
-0.1288 -0.1055 -0.5941 -0.099 -0.887 0.452 77 65 50 0 0
-0.1327 -0.1108 -0.6223 -0.054 -0.990 0.131 81 70 52 0 0
-0.1321 -0.1065 -0.6346 -0.559 -0.804 -0.204 58 50 37 0 0
-0.1261 -0.0825 -0.6746 -0.150 -0.987 0.058 16 13 12 0 0
-0.1258 -0.0810 -0.6776 0.272 -0.933 0.236 11 10 8 0 0
-0.1254 -0.0793 -0.6808 0.091 -0.988 0.127 10 9 7 0 0
-0.1257 -0.0780 -0.6917 -0.230 -0.912 0.339 9 8 6 0 0
-0.1270 -0.0800 -0.7003 -0.524 -0.749 0.404 13 9 8 0 0
-0.1279 -0.0815 -0.7052 -0.153 -0.590 0.793 20 15 14 0 0
-0.1359 -0.1034 -0.7048 -0.220 -0.425 0.878 42 37 33 0 0
-0.1371 -0.1065 -0.7064 -0.340 -0.510 0.790 46 43 34 0 0
-0.1458 -0.1289 -0.7129 -0.257 -0.895 0.364 220 202 158 0 0
-0.1461 -0.1245 -0.7403 -0.200 -0.878 -0.435 110 96 62 0 0
-0.1457 -0.1141 -0.7879 -0.358 -0.662 0.658 75 63 39 0 0
-0.1530 -0.1291 -0.8146 -0.365 -0.743 0.561 86 71 41 0 0
-0.1576 -0.1379 -0.8341 -0.146 -0.899 0.413 104 87 55 0 0
-0.1610 -0.1430 -0.8548 -0.482 -0.837 0.259 112 99 72 0 0
-0.1613 -0.1437 -0.8563 -0.456 -0.885 0.098 89 82 60 0 0
-0.0752 -0.0221 -0.2440 -0.396 -0.853 0.341 152 135 102 0 0
-0.0757 -0.0230 -0.2469 -0.307 -0.834 0.458 65 51 36 0 0
-0.0967 -0.0617 -0.3437 -0.310 -0.906 0.290 68 58 49 0 0
-0.0974 -0.0632 -0.3464 -0.432 -0.779 0.455 66 58 44 0 0
-0.0984 -0.0632 -0.3592 -0.369 -0.929 0.033 50 41 34 0 0
-0.0985 -0.0632 -0.3608 -0.369 -0.929 0.033 34 26 19 0 0
-0.0984 -0.0627 -0.3627 0.003 -0.997 -0.080 22 15 9 0 0
-0.1161 -0.0999 -0.4207 -0.539 -0.841 0.040 97 85 63 0 0
-0.1160 -0.0977 -0.4300 -0.226 -0.965 0.136 94 79 56 0 0
-0.1176 -0.0988 -0.4478 -0.422 -0.867 0.266 78 63 45 0 0
-0.1179 -0.0994 -0.4492 -0.312 -0.744 0.590 56 40 23 0 0
-0.1201 -0.0991 -0.4816 -0.056 -0.902 0.429 151 139 111 0 0
-0.1208 -0.1004 -0.4844 -0.019 -0.808 0.589 105 96 67 0 0
-0.1327 -0.1091 -0.6061 -0.005 -0.986 0.164 68 57 38 0 0
-0.1343 -0.1104 -0.6220 0.056 -0.996 0.068 76 65 47 0 0
-0.1335 -0.1060 -0.6325 -0.577 -0.789 -0.214 64 55 40 0 0
-0.1273 -0.0795 -0.6801 -0.108 -0.994 0.020 11 10 8 0 0
-0.1289 -0.0792 -0.7044 -0.196 -0.843 0.502 19 13 13 0 0
-0.1367 -0.1008 -0.7042 0.206 -0.636 0.743 35 29 28 0 0
-0.1373 -0.1023 -0.7051 0.167 -0.725 0.669 40 35 31 0 0
-0.1379 -0.1037 -0.7060 -0.027 -0.715 0.699 46 41 37 0 0
-0.1386 -0.1056 -0.7066 0.056 -0.419 0.906 46 44 34 0 0
-0.1480 -0.1297 -0.7156 -0.281 -0.794 0.539 156 140 99 0 0
-0.1483 -0.1301 -0.7173 -0.246 -0.870 0.428 116 104 74 0 0
-0.1491 -0.1315 -0.7221 -0.472 -0.805 0.358 125 105 70 0 0
-0.1442 -0.1063 -0.7814 -0.380 -0.824 0.420 69 56 37 0 0
-0.1473 -0.1136 -0.7877 0.116 -0.773 0.623 72 60 38 0 0
-0.1478 -0.1146 -0.7889 0.101 -0.872 0.479 71 56 34 0 0
-0.1527 -0.1250 -0.8049 -0.370 -0.881 0.295 91 77 51 0 0
-0.1575 -0.1349 -0.8213 -0.185 -0.907 0.379 94 77 49 0 0
-0.1591 -0.1364 -0.8369 -0.202 -0.924 0.324 108 93 59 0 0
-0.1625 -0.1422 -0.8548 -0.616 -0.754 0.226 109 96 69 0 0
-0.1629 -0.1429 -0.8563 -0.456 -0.885 0.098 83 75 53 0 0
-0.1632 -0.1435 -0.8579 -0.559 -0.825 0.086 68 62 48 0 0
-0.0847 -0.0372 -0.2770 0.031 -0.898 0.439 69 56 42 0 0
-0.0875 -0.0416 -0.2945 -0.114 -0.927 0.358 22 15 10 0 0
-0.0881 -0.0429 -0.2957 -0.049 -0.959 0.278 72 64 55 0 0
-0.0960 -0.0579 -0.3303 -0.262 -0.849 0.459 44 34 22 0 0
-0.0966 -0.0590 -0.3332 -0.263 -0.924 0.276 89 81 67 0 0
-0.0997 -0.0626 -0.3575 -0.369 -0.929 0.033 40 32 22 0 0
-0.0998 -0.0626 -0.3591 -0.369 -0.929 0.033 35 26 19 0 0
-0.0999 -0.0626 -0.3608 -0.369 -0.929 0.033 32 23 17 0 0
-0.0998 -0.0620 -0.3626 -0.278 -0.955 -0.104 35 28 22 0 0
-0.1083 -0.0832 -0.3738 0.097 -0.109 0.989 106 96 85 0 0
-0.1179 -0.1066 -0.3899 -0.279 -0.950 -0.139 95 82 62 0 0
-0.1168 -0.0977 -0.4198 -0.236 -0.969 -0.070 72 59 36 0 0
-0.1169 -0.0976 -0.4215 -0.270 -0.962 -0.043 101 89 66 0 0
-0.1171 -0.0974 -0.4248 -0.327 -0.944 -0.037 105 90 69 0 0
-0.1206 -0.1002 -0.4585 -0.230 -0.838 0.495 93 77 52 0 0
-0.1289 -0.1137 -0.5061 -0.299 -0.877 0.375 66 52 33 0 0
-0.1291 -0.1141 -0.5077 -0.223 -0.871 0.438 60 48 27 0 0
-0.1296 -0.1151 -0.5088 -0.311 -0.940 0.138 69 57 33 0 0
-0.1309 -0.1174 -0.5162 -0.411 -0.774 0.482 61 47 25 0 0
-0.1279 -0.1000 -0.5618 0.375 -0.772 -0.514 45 40 32 0 0
-0.1360 -0.1119 -0.6149 -0.036 -0.991 -0.133 90 78 58 0 0
-0.1362 -0.1119 -0.6168 -0.046 -0.997 0.056 62 49 30 0 0
-0.1352 -0.1056 -0.6342 -0.417 -0.840 -0.348 43 34 22 0 0
-0.1289 -0.0800 -0.6752 -0.202 -0.932 0.301 19 16 14 0 0
-0.1290 -0.0793 -0.6797 -0.108 -0.994 0.020 14 13 11 0 0
-0.1285 -0.0745 -0.6971 -0.297 -0.641 0.707 14 10 9 0 0
-0.1386 -0.1014 -0.7032 -0.204 -0.544 0.814 34 29 27 0 0
-0.1392 -0.1028 -0.7041 -0.315 -0.523 0.792 38 33 29 0 0
-0.1396 -0.1035 -0.7056 -0.170 -0.774 0.610 47 42 37 0 0
-0.1405 -0.1060 -0.7057 -0.071 -0.365 0.928 48 45 36 0 0
-0.1506 -0.1307 -0.7222 -0.472 -0.805 0.358 134 115 80 0 0
-0.1491 -0.1138 -0.7869 -0.773 -0.580 0.258 61 48 30 0 0
-0.1534 -0.1229 -0.7999 -0.263 -0.751 0.605 73 59 34 0 0
-0.1589 -0.1340 -0.8214 -0.298 -0.863 0.409 93 74 46 0 0
-0.1607 -0.1358 -0.8368 -0.312 -0.899 0.306 111 94 60 0 0
-0.1690 -0.1537 -0.8623 -0.401 -0.664 0.631 174 174 174 0 0
-0.0811 -0.0276 -0.2530 -0.175 -0.671 0.721 209 191 152 0 0
-0.0850 -0.0344 -0.2729 -0.020 -0.791 0.611 150 133 107 0 0
-0.0889 -0.0410 -0.2944 -0.400 -0.836 0.375 25 17 11 0 0
-0.0897 -0.0428 -0.2954 -0.037 -0.858 0.513 59 50 41 0 0
-0.0981 -0.0586 -0.3330 -0.250 -0.915 0.318 69 60 43 0 0
-0.0983 -0.0589 -0.3345 -0.344 -0.813 0.471 83 75 61 0 0
-0.0987 -0.0596 -0.3359 -0.228 -0.817 0.530 29 20 11 0 0
-0.1011 -0.0616 -0.3592 -0.360 -0.926 -0.118 43 36 28 0 0
-0.1014 -0.0621 -0.3607 -0.159 -0.982 -0.103 26 18 13 0 0
-0.1011 -0.0596 -0.3698 -0.100 -0.942 0.321 30 23 14 0 0
-0.1193 -0.1066 -0.3864 -0.231 -0.968 -0.093 87 74 58 0 0
-0.1193 -0.1063 -0.3881 -0.296 -0.949 -0.106 79 67 51 0 0
-0.1193 -0.1061 -0.3898 -0.296 -0.949 -0.106 86 75 55 0 0
-0.1226 -0.1006 -0.4614 -0.367 -0.911 0.187 64 48 31 0 0
-0.1228 -0.1009 -0.4629 -0.367 -0.911 0.187 59 45 28 0 0
-0.1225 -0.0971 -0.4784 -0.381 -0.567 0.730 68 56 36 0 0
-0.1243 -0.1011 -0.4833 -0.346 -0.757 0.555 118 104 80 0 0
-0.1303 -0.1130 -0.5061 -0.223 -0.871 0.438 69 54 32 0 0
-0.1307 -0.1140 -0.5073 0.088 -0.934 0.346 57 42 21 0 0
-0.1334 -0.1158 -0.5359 0.430 -0.902 -0.045 66 55 38 0 0
-0.1300 -0.1008 -0.5627 0.293 -0.718 -0.632 50 45 36 0 0
-0.1320 -0.1025 -0.5817 0.040 -0.852 0.522 67 57 46 0 0
-0.1372 -0.1118 -0.6070 -0.074 -0.990 0.121 96 85 64 0 0
-0.1374 -0.1121 -0.6087 -0.108 -0.973 0.203 84 72 48 0 0
-0.1375 -0.1118 -0.6108 -0.286 -0.958 -0.012 88 73 51 0 0
-0.1364 -0.1042 -0.6346 -0.137 -0.903 -0.408 34 27 16 0 0
-0.1362 -0.1029 -0.6375 -0.358 -0.842 -0.404 35 29 16 0 0
-0.1301 -0.0793 -0.6712 -0.443 -0.831 0.338 18 14 13 0 0
-0.1302 -0.0791 -0.6733 -0.202 -0.932 0.301 29 25 24 0 0
-0.1305 -0.0796 -0.6750 -0.202 -0.932 0.301 39 33 33 0 0
-0.1308 -0.0801 -0.6766 0.067 -0.940 0.334 31 26 25 0 0
-0.1307 -0.0791 -0.6793 -0.108 -0.994 0.020 18 16 14 0 0
-0.1300 -0.0737 -0.6971 -0.358 -0.711 0.605 13 10 8 0 0
-0.1412 -0.1031 -0.7053 -0.233 -0.369 0.900 50 47 38 0 0
-0.1468 -0.1060 -0.7679 -0.365 -0.821 -0.438 84 70 43 0 0
-0.1613 -0.1339 -0.8293 -0.368 -0.894 0.255 99 83 50 0 0
-0.1622 -0.1348 -0.8369 -0.320 -0.848 0.422 112 97 57 0 0
-0.1667 -0.1418 -0.8646 -0.620 -0.758 0.202 96 92 82 0 0
-0.1673 -0.1427 -0.8681 -0.208 -0.725 0.657 152 150 149 0 0
-0.1675 -0.1428 -0.8701 -0.214 -0.967 0.136 165 164 165 0 0
-0.0888 -0.0393 -0.2790 -0.361 -0.875 0.324 91 79 57 0 0
-0.0901 -0.0406 -0.2896 -0.352 -0.882 0.313 90 79 67 0 0
-0.0990 -0.0568 -0.3318 -0.172 -0.928 0.330 56 47 32 0 0
-0.0997 -0.0584 -0.3344 -0.228 -0.817 0.530 108 97 75 0 0
-0.1001 -0.0591 -0.3358 -0.228 -0.817 0.530 94 81 64 0 0
-0.1015 -0.0611 -0.3446 -0.286 -0.913 0.290 39 31 20 0 0
-0.1017 -0.0614 -0.3461 -0.149 -0.920 0.363 105 97 82 0 0
-0.1026 -0.0592 -0.3696 -0.368 -0.791 0.489 31 24 14 0 0
-0.1206 -0.1056 -0.3882 -0.409 -0.911 -0.050 79 66 50 0 0
-0.1207 -0.1056 -0.3897 -0.351 -0.936 -0.029 80 68 49 0 0
-0.1202 -0.1025 -0.3975 -0.322 -0.942 -0.097 85 70 47 0 0
-0.1244 -0.1005 -0.4644 -0.367 -0.903 0.223 80 68 51 0 0
-0.1311 -0.1120 -0.4994 -0.216 -0.814 0.539 73 60 41 0 0
-0.1314 -0.1128 -0.5007 -0.216 -0.814 0.539 64 51 32 0 0
-0.1351 -0.1196 -0.5176 -0.466 -0.768 0.439 54 41 26 0 0
-0.1352 -0.1145 -0.5433 0.445 -0.895 -0.036 60 52 34 0 0
-0.1332 -0.1018 -0.5780 0.289 -0.885 0.365 61 52 44 0 0
-0.1339 -0.1038 -0.5786 -0.135 -0.983 0.124 68 58 49 0 0
-0.1340 -0.1035 -0.5806 0.011 -0.993 0.116 68 58 46 0 0
-0.1389 -0.1121 -0.6064 0.093 -0.993 0.072 98 87 65 0 0
-0.1391 -0.1121 -0.6082 0.022 -0.996 0.090 84 72 47 0 0
-0.1393 -0.1123 -0.6099 -0.073 -0.994 -0.083 94 80 56 0 0
-0.1377 -0.1023 -0.6373 -0.341 -0.816 -0.468 42 36 23 0 0
-0.1319 -0.0793 -0.6707 -0.728 -0.683 0.054 27 23 22 0 0
-0.1321 -0.0793 -0.6727 -0.728 -0.683 0.054 39 35 34 0 0
-0.1326 -0.0796 -0.6784 0.092 -0.982 0.165 14 12 10 0 0
-0.1377 -0.0884 -0.7058 -0.459 -0.696 0.552 22 18 14 0 0
-0.1411 -0.0979 -0.7047 -0.160 -0.842 0.516 34 28 24 0 0
-0.1515 -0.1253 -0.7134 -0.167 -0.492 0.855 154 135 93 0 0
-0.1521 -0.1267 -0.7143 -0.334 -0.591 0.735 152 134 95 0 0
-0.1538 -0.1289 -0.7264 -0.103 -0.992 -0.077 126 106 72 0 0
-0.1487 -0.1065 -0.7669 -0.349 -0.862 -0.367 85 71 44 0 0
-0.1485 -0.1053 -0.7699 -0.315 -0.883 -0.347 88 74 47 0 0
-0.1569 -0.1224 -0.8011 -0.421 -0.811 0.405 119 106 73 0 0
-0.1576 -0.1231 -0.8067 -0.288 -0.943 0.168 109 95 65 0 0
-0.1638 -0.1342 -0.8368 -0.320 -0.848 0.422 112 97 61 0 0
-0.1686 -0.1422 -0.8635 -0.127 -0.920 0.371 98 94 83 0 0
-0.0790 -0.0153 -0.2402 -0.482 -0.513 0.710 136 116 83 0 0
-0.1013 -0.0582 -0.3342 0.042 -0.912 0.409 68 56 35 0 0
-0.1039 -0.0602 -0.3592 -0.491 -0.870 0.048 24 16 13 0 0
-0.1040 -0.0585 -0.3696 -0.368 -0.791 0.489 43 35 23 0 0
-0.1213 -0.1055 -0.3767 -0.557 -0.622 0.550 111 94 71 0 0
-0.1221 -0.1050 -0.3897 -0.531 -0.846 -0.045 93 81 62 0 0
-0.1216 -0.1017 -0.3991 -0.513 -0.851 -0.116 100 85 64 0 0
-0.1216 -0.1013 -0.4009 -0.416 -0.887 -0.201 95 80 59 0 0
-0.1373 -0.1152 -0.5460 0.373 -0.905 -0.207 56 48 30 0 0
-0.1349 -0.1021 -0.5774 0.278 -0.897 0.344 62 51 43 0 0
-0.1354 -0.1031 -0.5786 -0.241 -0.908 0.342 69 58 47 0 0
-0.1404 -0.1066 -0.6301 0.238 -0.940 -0.244 50 43 29 0 0
-0.1394 -0.1021 -0.6369 -0.333 -0.761 -0.557 42 35 23 0 0
-0.1334 -0.0779 -0.6731 -0.725 -0.685 0.075 26 22 21 0 0
-0.1335 -0.0780 -0.6750 -0.725 -0.685 0.075 22 16 16 0 0
-0.1508 -0.1192 -0.7097 -0.337 -0.634 0.696 137 119 90 0 0
-0.1547 -0.1249 -0.7350 -0.165 -0.886 -0.433 139 118 81 0 0
-0.1507 -0.1073 -0.7656 -0.472 -0.793 -0.386 82 68 41 0 0
-0.1538 -0.1107 -0.7918 -0.438 -0.858 0.268 144 127 94 0 0
-0.1541 -0.1111 -0.7935 -0.438 -0.858 0.268 145 128 95 0 0
-0.1544 -0.1115 -0.7953 -0.485 -0.840 0.242 162 144 109 0 0
-0.1547 -0.1119 -0.7970 -0.438 -0.858 0.268 151 132 95 0 0
-0.1585 -0.1216 -0.8011 -0.332 -0.833 0.443 119 106 74 0 0
-0.1634 -0.1313 -0.8219 -0.663 -0.711 0.235 94 74 43 0 0
-0.1639 -0.1317 -0.8257 -0.385 -0.875 0.293 111 92 59 0 0
-0.1697 -0.1400 -0.8649 -0.050 -0.838 0.544 97 93 83 0 0
-0.1007 -0.0550 -0.3192 -0.254 -0.813 0.524 84 73 56 0 0
-0.1016 -0.0555 -0.3285 0.036 -0.895 0.445 54 46 30 0 0
-0.1047 -0.0612 -0.3441 -0.229 -0.930 0.289 66 58 47 0 0
-0.1233 -0.1042 -0.3881 -0.511 -0.859 -0.044 95 82 65 0 0
-0.1234 -0.1041 -0.3897 -0.447 -0.894 0.001 98 85 66 0 0
-0.1316 -0.1063 -0.4896 -0.225 -0.744 0.630 85 67 44 0 0
-0.1320 -0.1071 -0.4909 -0.078 -0.825 0.560 130 114 89 0 0
-0.1346 -0.1124 -0.5001 -0.231 -0.918 0.324 47 36 22 0 0
-0.1348 -0.1128 -0.5016 -0.229 -0.910 0.345 40 27 16 0 0
-0.1383 -0.1190 -0.5189 -0.233 -0.945 0.229 63 46 26 0 0
-0.1388 -0.1194 -0.5238 -0.343 -0.924 0.172 78 62 40 0 0
-0.1421 -0.1118 -0.6037 -0.463 -0.749 0.475 76 64 42 0 0
-0.1421 -0.1115 -0.6058 -0.152 -0.892 0.426 80 68 43 0 0
-0.1423 -0.1077 -0.6270 -0.053 -0.976 -0.211 63 54 38 0 0
-0.1418 -0.1055 -0.6303 -0.049 -0.902 -0.429 51 44 30 0 0
-0.1348 -0.0767 -0.6735 -0.690 -0.719 0.083 17 13 12 0 0
-0.1349 -0.0767 -0.6754 -0.690 -0.719 0.083 15 10 9 0 0
-0.1351 -0.0768 -0.6773 -0.690 -0.719 0.083 13 8 8 0 0
-0.1406 -0.0862 -0.7063 -0.164 -0.716 0.678 28 23 18 0 0
-0.1516 -0.1034 -0.7724 -0.407 -0.850 -0.336 86 71 44 0 0
-0.1547 -0.1088 -0.7886 -0.379 -0.829 0.412 80 65 38 0 0
-0.1550 -0.1091 -0.7904 -0.500 -0.840 0.210 90 74 46 0 0
-0.1554 -0.1098 -0.7919 -0.365 -0.875 0.319 97 81 51 0 0
-0.1558 -0.1108 -0.7932 -0.134 -0.913 0.385 112 95 63 0 0
-0.1561 -0.1113 -0.7948 -0.238 -0.930 0.281 130 111 79 0 0
-0.1564 -0.1117 -0.7965 -0.238 -0.930 0.281 124 106 72 0 0
-0.1567 -0.1123 -0.7981 -0.307 -0.888 0.343 130 112 78 0 0
-0.1581 -0.1155 -0.8017 -0.394 -0.468 0.791 118 104 65 0 0
-0.1605 -0.1220 -0.8022 -0.389 -0.873 0.295 113 97 63 0 0
-0.1648 -0.1299 -0.8224 -0.322 -0.878 0.354 97 78 47 0 0
-0.1685 -0.1374 -0.8367 -0.450 -0.687 0.571 89 77 50 0 0
-0.1751 -0.1493 -0.8680 -0.911 0.281 0.301 184 184 183 0 0
-0.1021 -0.0546 -0.3190 -0.314 -0.853 0.416 87 76 57 0 0
-0.1052 -0.0592 -0.3381 -0.218 -0.820 0.530 60 46 30 0 0
-0.1062 -0.0607 -0.3440 -0.266 -0.929 0.256 46 39 27 0 0
-0.1064 -0.0610 -0.3454 -0.266 -0.929 0.256 57 47 35 0 0
-0.1066 -0.0614 -0.3469 -0.266 -0.929 0.256 58 49 35 0 0
-0.1066 -0.0575 -0.3645 -0.214 -0.958 -0.190 37 28 19 0 0
-0.1246 -0.1035 -0.3881 -0.336 -0.940 0.055 88 76 58 0 0
-0.1251 -0.1044 -0.3893 -0.405 -0.910 0.093 92 79 60 0 0
-0.1241 -0.0985 -0.4047 -0.401 -0.901 -0.166 95 80 60 0 0
-0.1241 -0.0981 -0.4065 -0.458 -0.885 -0.084 111 96 76 0 0
-0.1244 -0.0955 -0.4224 -0.117 -0.986 0.121 75 60 37 0 0
-0.1274 -0.0972 -0.4549 -0.395 -0.758 0.519 69 51 31 0 0
-0.1346 -0.1092 -0.4946 -0.168 -0.820 0.547 99 84 53 0 0
-0.1350 -0.1099 -0.4959 -0.252 -0.813 0.525 65 50 25 0 0
-0.1360 -0.1119 -0.4999 -0.231 -0.918 0.324 45 39 25 0 0
-0.1363 -0.1124 -0.5014 -0.229 -0.910 0.345 35 28 17 0 0
-0.1366 -0.1128 -0.5029 -0.229 -0.910 0.345 32 22 13 0 0
-0.1425 -0.1109 -0.5910 -0.144 -0.952 0.272 100 88 62 0 0
-0.1438 -0.1071 -0.6269 -0.319 -0.851 -0.416 65 56 41 0 0
-0.1435 -0.1054 -0.6299 -0.240 -0.854 -0.461 51 43 30 0 0
-0.1422 -0.0856 -0.7062 -0.038 -0.916 0.400 30 25 21 0 0
-0.1532 -0.1155 -0.7114 0.309 -0.712 0.630 166 147 111 0 0
-0.1566 -0.1247 -0.7141 -0.640 -0.581 0.502 164 147 109 0 0
-0.1560 -0.1156 -0.7494 -0.359 -0.801 -0.479 83 71 45 0 0
-0.1554 -0.1128 -0.7537 -0.256 -0.887 -0.385 78 66 42 0 0
-0.1552 -0.1115 -0.7568 -0.291 -0.919 -0.267 75 63 38 0 0
-0.1569 -0.1094 -0.7895 0.019 -0.923 0.385 89 74 44 0 0
-0.1572 -0.1101 -0.7909 0.071 -0.920 0.385 94 79 50 0 0
-0.1576 -0.1108 -0.7925 0.071 -0.920 0.385 99 84 53 0 0
-0.1580 -0.1118 -0.7937 0.140 -0.975 0.175 113 94 63 0 0
-0.1586 -0.1120 -0.7998 -0.077 -0.936 0.345 97 81 49 0 0
-0.1638 -0.1241 -0.8123 -0.102 -0.716 0.690 61 44 23 0 0
-0.1643 -0.1248 -0.8159 -0.297 -0.728 0.618 67 48 25 0 0
-0.1651 -0.1265 -0.8186 -0.247 -0.786 0.567 79 55 30 0 0
-0.1655 -0.1275 -0.8198 -0.157 -0.845 0.512 81 56 28 0 0
-0.1659 -0.1283 -0.8212 -0.157 -0.845 0.512 96 74 42 0 0
-0.1667 -0.1298 -0.8240 -0.291 -0.923 0.251 107 86 54 0 0
-0.1695 -0.1352 -0.8359 -0.127 -0.828 0.547 75 63 37 0 0
-0.1699 -0.1362 -0.8371 -0.436 -0.815 0.381 85 72 46 0 0
-0.1703 -0.1369 -0.8386 -0.267 -0.839 0.473 91 75 50 0 0
-0.1706 -0.1376 -0.8401 -0.267 -0.839 0.473 89 72 44 0 0
-0.1707 -0.1368 -0.8451 -0.340 -0.884 0.321 107 90 55 0 0
-0.0816 -0.0087 -0.2396 -0.722 -0.277 0.634 182 168 130 0 0
-0.0821 -0.0100 -0.2408 -0.722 -0.277 0.634 182 171 129 0 0
-0.0825 -0.0107 -0.2422 -0.778 -0.414 0.473 129 118 88 0 0
-0.1081 -0.0583 -0.3590 -0.495 -0.814 0.303 35 26 18 0 0
-0.1261 -0.1027 -0.3897 -0.625 -0.774 -0.098 93 80 62 0 0
-0.1259 -0.0953 -0.4221 -0.117 -0.986 0.121 79 64 41 0 0
-0.1276 -0.0953 -0.4436 -0.558 -0.782 0.277 55 38 25 0 0
-0.1277 -0.0953 -0.4454 -0.377 -0.746 0.548 65 47 30 0 0
-0.1292 -0.0972 -0.4562 -0.330 -0.864 0.381 65 44 24 0 0
-0.1319 -0.0995 -0.4822 -0.220 -0.854 0.471 109 92 66 0 0
-0.1334 -0.1028 -0.4856 -0.287 -0.943 0.167 141 126 90 0 0
-0.1375 -0.1115 -0.4998 -0.074 -0.945 0.318 36 31 20 0 0
-0.1378 -0.1120 -0.5012 -0.074 -0.945 0.318 49 43 31 0 0
-0.1381 -0.1125 -0.5027 -0.089 -0.929 0.360 34 24 14 0 0
-0.1413 -0.1179 -0.5204 -0.185 -0.961 0.204 76 59 39 0 0
-0.1418 -0.1185 -0.5235 -0.187 -0.947 0.262 77 60 38 0 0
-0.1420 -0.1188 -0.5251 -0.185 -0.961 0.204 80 63 40 0 0
-0.1382 -0.0789 -0.6610 -0.249 -0.924 -0.289 12 11 9 0 0
-0.1423 -0.0805 -0.7074 -0.380 -0.923 0.063 37 31 25 0 0
-0.1548 -0.1153 -0.7110 0.157 -0.635 0.756 175 154 115 0 0
-0.1554 -0.1166 -0.7120 0.157 -0.635 0.756 150 128 90 0 0
-0.1605 -0.1289 -0.7220 -0.516 -0.781 0.353 114 94 62 0 0
-0.1543 -0.0998 -0.7761 -0.463 -0.877 -0.125 107 92 64 0 0
-0.1602 -0.1121 -0.7970 -0.328 -0.908 0.260 91 77 45 0 0
-0.1639 -0.1211 -0.8038 -0.160 -0.900 0.406 151 133 103 0 0
-0.1642 -0.1215 -0.8055 -0.252 -0.941 0.226 109 93 66 0 0
-0.1655 -0.1246 -0.8091 -0.127 -0.930 0.346 67 52 31 0 0
-0.1653 -0.1233 -0.8123 -0.084 -0.826 0.557 61 45 26 0 0
-0.1657 -0.1237 -0.8162 -0.153 -0.851 0.502 61 43 23 0 0
-0.1685 -0.1296 -0.8256 -0.461 -0.834 0.303 110 89 58 0 0
-0.1723 -0.1361 -0.8450 -0.340 -0.884 0.321 109 94 57 0 0
-0.1730 -0.1367 -0.8508 -0.334 -0.930 0.152 134 118 81 0 0
-0.1750 -0.1384 -0.8708 -0.302 -0.942 -0.148 164 164 162 0 0
-0.0817 -0.0047 -0.2388 -0.574 -0.170 0.801 148 141 128 0 0
-0.0825 -0.0066 -0.2399 -0.603 -0.242 0.760 142 131 108 0 0
-0.0831 -0.0081 -0.2411 -0.722 -0.277 0.634 174 163 134 0 0
-0.1097 -0.0578 -0.3605 -0.420 -0.907 0.013 29 20 12 0 0
-0.1267 -0.1023 -0.3784 -0.398 -0.797 0.455 49 34 18 0 0
-0.1269 -0.0971 -0.4047 -0.414 -0.908 -0.057 115 101 74 0 0
-0.1419 -0.1166 -0.5120 -0.335 -0.868 0.367 49 34 19 0 0
-0.1474 -0.1097 -0.6167 0.109 -0.990 -0.089 75 62 45 0 0
-0.1471 -0.1069 -0.6260 -0.333 -0.848 -0.413 66 59 44 0 0
-0.1469 -0.1055 -0.6288 -0.433 -0.806 -0.404 49 41 28 0 0
-0.1467 -0.1043 -0.6316 -0.433 -0.806 -0.404 62 54 42 0 0
-0.1393 -0.0768 -0.6619 -0.271 -0.923 -0.272 11 10 8 0 0
-0.1390 -0.0732 -0.6743 -0.575 -0.810 0.112 14 10 9 0 0
-0.1404 -0.0755 -0.6825 -0.895 -0.268 0.357 8 7 5 0 0
-0.1439 -0.0810 -0.7025 -0.295 -0.757 0.583 22 20 15 0 0
-0.1559 -0.1136 -0.7097 -0.143 -0.366 0.919 127 108 76 0 0
-0.1570 -0.1013 -0.7805 -0.550 -0.704 0.450 81 64 43 0 0
-0.1575 -0.1025 -0.7815 -0.718 -0.664 0.209 71 55 34 0 0
-0.1607 -0.1087 -0.7950 0.002 -0.681 0.732 111 93 59 0 0
-0.1611 -0.1098 -0.7962 -0.134 -0.766 0.628 96 81 49 0 0
-0.1652 -0.1197 -0.8043 -0.553 -0.509 0.660 101 87 59 0 0
-0.1658 -0.1211 -0.8052 -0.453 -0.806 0.380 82 71 45 0 0
-0.1669 -0.1227 -0.8122 -0.370 -0.887 0.277 59 43 26 0 0
-0.1700 -0.1285 -0.8260 -0.262 -0.881 0.393 111 91 59 0 0
-0.1700 -0.1281 -0.8284 -0.376 -0.723 0.579 117 99 64 0 0
-0.0826 -0.0035 -0.2342 -0.175 -0.936 0.305 177 177 177 0 0
-0.0842 -0.0064 -0.2412 -0.658 -0.489 0.573 117 111 96 0 0
-0.0846 -0.0074 -0.2426 -0.726 -0.551 0.412 116 107 90 0 0
-0.0858 -0.0099 -0.2466 -0.467 -0.700 0.540 106 98 82 0 0
-0.0985 -0.0375 -0.2859 -0.170 -0.923 0.344 120 105 85 0 0
-0.1014 -0.0443 -0.2933 -0.218 -0.956 0.198 94 79 60 0 0
-0.1106 -0.0605 -0.3384 -0.203 -0.915 0.348 73 63 51 0 0
-0.1106 -0.0598 -0.3418 -0.224 -0.958 0.181 52 44 33 0 0
-0.1358 -0.1012 -0.4822 -0.414 -0.800 0.434 86 74 48 0 0
-0.1422 -0.1137 -0.5081 -0.335 -0.845 0.416 36 27 18 0 0
-0.1433 -0.1161 -0.5119 -0.437 -0.791 0.428 63 48 32 0 0
-0.1438 -0.1167 -0.5151 -0.546 -0.796 0.260 44 29 18 0 0
-0.1466 -0.1103 -0.5808 0.051 -0.998 0.033 81 70 47 0 0
-0.1477 -0.1105 -0.5935 -0.426 -0.874 0.233 122 110 82 0 0
-0.1479 -0.1109 -0.5951 -0.426 -0.874 0.233 106 94 72 0 0
-0.1491 -0.1106 -0.6118 -0.151 -0.982 0.109 82 69 50 0 0
-0.1490 -0.1099 -0.6142 -0.090 -0.977 -0.192 94 81 64 0 0
-0.1492 -0.1094 -0.6182 0.068 -0.992 -0.106 90 78 62 0 0
-0.1432 -0.0753 -0.6961 -0.563 -0.611 0.557 21 17 14 0 0
-0.1629 -0.1231 -0.7354 -0.259 -0.945 -0.198 133 115 79 0 0
-0.1587 -0.1007 -0.7824 -0.606 -0.742 0.288 69 54 33 0 0
-0.1633 -0.1107 -0.7969 -0.069 -0.910 0.408 92 77 47 0 0
-0.1686 -0.1220 -0.8142 -0.418 -0.632 0.653 59 43 26 0 0
-0.1706 -0.1268 -0.8183 -0.404 -0.861 0.309 77 52 30 0 0
-0.1764 -0.1359 -0.8523 -0.276 -0.947 0.162 124 109 75 0 0
-0.1780 -0.1388 -0.8603 -0.228 -0.838 0.496 67 63 52 0 0
-0.1782 -0.1353 -0.8788 -0.603 -0.755 0.258 183 183 181 0 0
-0.0854 -0.0055 -0.2397 -0.029 -0.848 0.529 175 175 173 0 0
-0.0859 -0.0066 -0.2410 0.101 -0.812 0.575 173 172 168 0 0
-0.0863 -0.0075 -0.2423 0.007 -0.850 0.526 174 171 165 0 0
-0.0864 -0.0074 -0.2439 -0.415 -0.687 0.596 179 174 168 0 0
-0.0865 -0.0073 -0.2455 -0.641 -0.656 0.399 176 170 159 0 0
-0.0872 -0.0091 -0.2466 -0.467 -0.700 0.540 139 130 115 0 0
-0.0998 -0.0366 -0.2859 -0.101 -0.844 0.526 191 179 158 0 0
-0.1059 -0.0489 -0.3088 -0.324 -0.880 0.347 84 73 59 0 0
-0.1126 -0.0573 -0.3585 -0.236 -0.961 -0.147 29 20 12 0 0
-0.1288 -0.0991 -0.3791 -0.160 -0.835 0.526 59 43 26 0 0
-0.1301 -0.1011 -0.3879 -0.574 -0.819 -0.018 79 66 47 0 0
-0.1300 -0.0998 -0.3916 -0.413 -0.880 -0.236 96 84 64 0 0
-0.1294 -0.0943 -0.4085 -0.441 -0.892 -0.103 98 85 66 0 0
-0.1294 -0.0939 -0.4103 -0.363 -0.932 -0.007 106 90 73 0 0
-0.1295 -0.0939 -0.4119 -0.363 -0.932 -0.007 95 80 61 0 0
-0.1315 -0.0925 -0.4439 -0.295 -0.874 0.386 61 46 28 0 0
-0.1318 -0.0931 -0.4453 -0.295 -0.874 0.386 68 50 34 0 0
-0.1321 -0.0936 -0.4468 -0.295 -0.874 0.386 68 47 33 0 0
-0.1471 -0.1175 -0.5333 -0.342 -0.931 0.128 107 87 60 0 0
-0.1495 -0.1168 -0.5673 0.043 -0.997 -0.058 75 66 49 0 0
-0.1508 -0.1103 -0.6135 -0.112 -0.974 -0.199 101 88 71 0 0
-0.1508 -0.1099 -0.6156 -0.033 -0.979 -0.202 87 74 58 0 0
-0.1455 -0.0761 -0.6989 -0.589 -0.572 0.571 20 16 13 0 0
-0.1601 -0.1153 -0.7112 -0.481 -0.552 0.681 150 127 85 0 0
-0.1606 -0.1164 -0.7124 -0.481 -0.552 0.681 154 130 92 0 0
-0.1636 -0.1182 -0.7429 -0.291 -0.855 -0.429 112 97 65 0 0
-0.1689 -0.1185 -0.8104 -0.390 -0.852 0.349 62 47 26 0 0
-0.1692 -0.1190 -0.8120 -0.390 -0.852 0.349 58 42 24 0 0
-0.1732 -0.1264 -0.8307 -0.213 -0.790 0.575 87 72 43 0 0
-0.1782 -0.1355 -0.8541 -0.327 -0.925 0.193 117 102 72 0 0
-0.1797 -0.1385 -0.8599 -0.292 -0.734 0.614 67 63 51 0 0
-0.0877 -0.0064 -0.2439 -0.484 -0.689 0.540 178 175 173 0 0
-0.0886 -0.0085 -0.2465 -0.484 -0.635 0.602 160 150 136 0 0
-0.1141 -0.0569 -0.3584 -0.236 -0.961 -0.147 36 27 18 0 0
-0.1311 -0.1004 -0.3830 -0.092 -0.917 0.388 70 54 34 0 0
-0.1308 -0.0961 -0.3977 -0.709 -0.706 -0.016 97 83 58 0 0
-0.1307 -0.0930 -0.4103 -0.351 -0.933 0.079 98 83 64 0 0
-0.1309 -0.0931 -0.4119 -0.404 -0.914 0.038 86 71 50 0 0
-0.1313 -0.0933 -0.4167 -0.200 -0.964 0.174 103 88 69 0 0
-0.1386 -0.0996 -0.4823 -0.341 -0.809 0.479 95 83 54 0 0
-0.1485 -0.1178 -0.5292 -0.322 -0.917 0.235 81 61 35 0 0
-0.1512 -0.1169 -0.5668 0.043 -0.997 -0.058 83 73 54 0 0
-0.1501 -0.1115 -0.5774 0.039 -0.958 -0.284 105 94 76 0 0
-0.1524 -0.1100 -0.6131 -0.171 -0.971 -0.166 86 73 56 0 0
-0.1518 -0.0875 -0.7060 -0.375 -0.032 0.927 31 27 21 0 0
-0.1546 -0.0957 -0.7058 -0.415 -0.200 0.887 43 38 35 0 0
-0.1628 -0.1182 -0.7104 -0.449 -0.740 0.500 142 119 79 0 0
-0.1606 -0.0961 -0.7808 -0.543 -0.782 0.306 76 61 36 0 0
-0.1081 -0.0468 -0.3058 -0.394 -0.767 0.506 67 57 42 0 0
-0.1155 -0.0558 -0.3601 -0.227 -0.915 -0.332 34 26 17 0 0
-0.1154 -0.0542 -0.3656 -0.460 -0.888 -0.014 26 20 13 0 0
-0.1306 -0.0962 -0.3749 -0.381 -0.667 0.640 157 139 101 0 0
-0.1321 -0.0928 -0.4085 -0.314 -0.946 0.081 75 61 44 0 0
-0.1323 -0.0925 -0.4119 -0.351 -0.933 0.079 88 73 51 0 0
-0.1331 -0.0935 -0.4180 -0.620 -0.758 0.200 84 70 50 0 0
-0.1333 -0.0934 -0.4213 -0.637 -0.757 0.146 68 53 32 0 0
-0.1334 -0.0932 -0.4230 -0.677 -0.733 0.060 74 59 39 0 0
-0.1353 -0.0926 -0.4499 -0.499 -0.795 0.344 50 35 21 0 0
-0.1358 -0.0935 -0.4528 -0.499 -0.795 0.344 45 30 17 0 0
-0.1361 -0.0940 -0.4542 -0.481 -0.838 0.256 43 30 16 0 0
-0.1432 -0.1059 -0.4922 -0.408 -0.713 0.570 65 50 26 0 0
-0.1527 -0.1171 -0.5644 -0.039 -0.996 0.085 96 81 59 0 0
-0.1539 -0.1115 -0.6043 -0.083 -0.990 0.118 73 60 43 0 0
-0.1468 -0.0707 -0.6938 -0.051 -0.842 0.536 11 10 8 0 0
-0.1473 -0.0717 -0.6950 -0.381 -0.849 0.365 12 9 8 0 0
-0.1516 -0.0812 -0.7081 -0.173 -0.483 0.859 34 29 23 0 0
-0.1531 -0.0858 -0.7067 0.294 -0.265 0.918 33 28 23 0 0
-0.1554 -0.0928 -0.7054 -0.255 -0.786 0.563 38 34 30 0 0
-0.1644 -0.1171 -0.7127 -0.231 -0.587 0.776 163 141 101 0 0
-0.1646 -0.1175 -0.7143 -0.255 -0.879 0.402 143 120 85 0 0
-0.1650 -0.1184 -0.7156 -0.462 -0.859 0.220 173 147 106 0 0
-0.1676 -0.1221 -0.7325 -0.291 -0.933 -0.214 135 118 78 0 0
-0.1640 -0.1048 -0.7627 -0.504 -0.693 -0.516 73 60 39 0 0
-0.1683 -0.1095 -0.7960 -0.489 -0.735 0.470 107 90 62 0 0
-0.1745 -0.1223 -0.8182 -0.633 -0.666 0.395 73 52 29 0 0
-0.1759 -0.1252 -0.8241 -0.392 -0.726 0.565 74 60 32 0 0
-0.0975 -0.0221 -0.2582 -0.486 -0.782 0.390 61 48 39 0 0
-0.1170 -0.0555 -0.3599 -0.227 -0.915 -0.332 29 22 14 0 0
-0.1168 -0.0534 -0.3656 -0.472 -0.874 0.113 30 23 16 0 0
-0.1306 -0.0923 -0.3714 -0.140 -0.517 0.845 193 177 142 0 0
-0.1342 -0.0990 -0.3878 -0.457 -0.886 0.074 83 71 48 0 0
-0.1341 -0.0984 -0.3897 -0.303 -0.953 0.006 89 75 53 0 0
-0.1335 -0.0919 -0.4102 -0.351 -0.933 0.079 88 72 52 0 0
-0.1337 -0.0922 -0.4117 -0.363 -0.932 -0.007 77 61 41 0 0
-0.1342 -0.0892 -0.4311 -0.300 -0.872 0.388 59 44 27 0 0
-0.1345 -0.0897 -0.4325 -0.300 -0.872 0.388 55 39 26 0 0
-0.1362 -0.0912 -0.4469 -0.546 -0.751 0.371 44 30 19 0 0
-0.1498 -0.1144 -0.5182 -0.464 -0.877 0.123 97 80 57 0 0
-0.1533 -0.1181 -0.5457 -0.323 -0.884 0.337 102 87 59 0 0
-0.1546 -0.1175 -0.5656 -0.367 -0.875 0.314 93 79 56 0 0
-0.1482 -0.0797 -0.6496 -0.786 -0.560 -0.261 21 16 10 0 0
-0.1474 -0.0753 -0.6584 -0.226 -0.923 -0.311 19 15 11 0 0
-0.1579 -0.0946 -0.7075 -0.359 -0.538 0.762 63 56 46 0 0
-0.1583 -0.0954 -0.7089 -0.252 -0.436 0.864 71 65 52 0 0
-0.1691 -0.1218 -0.7302 -0.407 -0.897 -0.173 139 118 77 0 0
-0.1691 -0.1213 -0.7326 -0.419 -0.875 -0.241 134 117 76 0 0
-0.1684 -0.1178 -0.7394 -0.528 -0.825 -0.201 119 104 69 0 0
-0.1667 -0.1091 -0.7545 -0.479 -0.754 -0.451 85 72 46 0 0
-0.1647 -0.0997 -0.7704 -0.368 -0.803 -0.469 69 56 37 0 0
-0.1638 -0.0952 -0.7782 0.033 -0.957 0.288 73 58 37 0 0
-0.1683 -0.1069 -0.7851 -0.151 -0.972 0.181 40 29 14 0 0
-0.1688 -0.1080 -0.7862 -0.328 -0.906 0.269 46 35 22 0 0
-0.1691 -0.1085 -0.7879 -0.318 -0.842 0.435 50 38 23 0 0
-0.1694 -0.1091 -0.7894 -0.318 -0.842 0.435 55 43 25 0 0
-0.1698 -0.1098 -0.7909 -0.187 -0.854 0.486 64 51 30 0 0
-0.1720 -0.1143 -0.7996 -0.148 -0.901 0.408 91 76 53 0 0
-0.1141 -0.0513 -0.3212 -0.208 -0.899 0.386 55 45 28 0 0
-0.1177 -0.0573 -0.3397 -0.322 -0.857 0.403 81 71 62 0 0
-0.1354 -0.0979 -0.3879 -0.565 -0.825 -0.001 95 83 59 0 0
-0.1355 -0.0978 -0.3896 -0.469 -0.875 -0.120 91 79 58 0 0
-0.1349 -0.0945 -0.3958 -0.436 -0.875 -0.212 89 77 57 0 0
-0.1466 -0.1051 -0.4970 -0.374 -0.862 0.340 75 59 40 0 0
-0.1487 -0.1098 -0.5031 -0.386 -0.756 0.529 70 59 47 0 0
-0.1540 -0.1181 -0.5348 -0.056 -0.960 0.273 81 61 37 0 0
-0.1549 -0.1176 -0.5473 -0.179 -0.956 0.230 108 92 66 0 0
-0.1560 -0.1171 -0.5636 -0.283 -0.956 0.076 109 93 68 0 0
-0.1562 -0.1172 -0.5653 -0.283 -0.956 0.076 98 84 58 0 0
-0.1552 -0.1087 -0.5905 -0.304 -0.874 0.380 66 50 24 0 0
-0.1560 -0.1103 -0.5931 -0.371 -0.903 0.215 97 81 57 0 0
-0.1491 -0.0750 -0.6581 -0.226 -0.923 -0.311 17 13 10 0 0
-0.1519 -0.0733 -0.7008 -0.117 -0.840 0.530 15 11 8 0 0
-0.1681 -0.1179 -0.7128 -0.122 -0.840 0.528 109 93 60 0 0
-0.1699 -0.1215 -0.7199 -0.260 -0.796 0.547 90 75 50 0 0
-0.1706 -0.1206 -0.7325 -0.419 -0.875 -0.241 136 117 76 0 0
-0.1699 -0.1169 -0.7394 -0.512 -0.841 -0.171 133 118 80 0 0
-0.1687 -0.1021 -0.7885 -0.657 -0.617 0.433 44 32 17 0 0
-0.1727 -0.1121 -0.7945 -0.489 -0.685 0.540 61 53 32 0 0
-0.1730 -0.1129 -0.7959 -0.489 -0.685 0.540 65 56 36 0 0
-0.1769 -0.1204 -0.8124 -0.466 -0.798 0.381 72 57 38 0 0
-0.1772 -0.1207 -0.8142 -0.408 -0.875 0.260 69 54 37 0 0
-0.1770 -0.1195 -0.8173 -0.421 -0.825 0.377 68 52 32 0 0
-0.0923 0.0001 -0.2478 -0.403 -0.450 0.797 176 175 173 0 0
-0.1146 -0.0493 -0.3153 -0.324 -0.806 0.496 67 58 40 0 0
-0.1194 -0.0524 -0.3621 -0.683 -0.731 -0.017 27 20 13 0 0
-0.1199 -0.0526 -0.3669 -0.492 -0.868 0.069 33 26 19 0 0
-0.1363 -0.0958 -0.3885 -0.402 -0.913 0.065 91 79 58 0 0
-0.1362 -0.0865 -0.4267 -0.265 -0.862 0.433 56 39 27 0 0
-0.1400 -0.0894 -0.4621 -0.589 -0.756 0.288 39 26 17 0 0
-0.1480 -0.1045 -0.4970 -0.374 -0.862 0.340 86 71 50 0 0
-0.1530 -0.1151 -0.5135 -0.178 -0.956 0.232 57 41 24 0 0
-0.1554 -0.1173 -0.5348 -0.161 -0.966 0.200 78 61 36 0 0
-0.1571 -0.1089 -0.5917 -0.093 -0.947 0.309 90 74 49 0 0
-0.1574 -0.1095 -0.5931 -0.182 -0.951 0.251 107 90 65 0 0
-0.1515 -0.0784 -0.6513 0.151 -0.971 -0.186 25 20 14 0 0
-0.1508 -0.0740 -0.6622 -0.405 -0.843 -0.354 13 12 8 0 0
-0.1511 -0.0683 -0.6898 -0.233 -0.952 0.198 12 8 7 0 0
-0.1540 -0.0745 -0.6993 -0.375 -0.897 0.235 14 10 7 0 0
-0.1610 -0.0932 -0.7074 -0.205 -0.474 0.856 57 50 40 0 0
-0.1718 -0.1192 -0.7311 -0.423 -0.890 -0.169 148 127 87 0 0
-0.1721 -0.1198 -0.7326 -0.452 -0.861 -0.234 138 121 80 0 0
-0.1712 -0.1149 -0.7425 -0.232 -0.904 -0.360 113 98 69 0 0
-0.1779 -0.1187 -0.8090 -0.329 -0.872 0.361 61 46 30 0 0
-0.1782 -0.1192 -0.8107 -0.408 -0.875 0.260 65 50 33 0 0
-0.1808 -0.1235 -0.8257 -0.122 -0.755 0.644 88 74 45 0 0
-0.1817 -0.1253 -0.8283 -0.279 -0.834 0.477 90 75 48 0 0
-0.0919 0.0069 -0.2508 -0.567 -0.018 0.824 178 173 171 0 0
-0.0930 0.0040 -0.2516 -0.548 -0.013 0.836 156 148 138 0 0
-0.1168 -0.0501 -0.3195 -0.496 -0.795 0.350 44 34 21 0 0
-0.1201 -0.0557 -0.3366 -0.340 -0.893 0.294 44 34 20 0 0
-0.1209 -0.0569 -0.3409 -0.268 -0.836 0.478 82 74 56 0 0
-0.1208 -0.0517 -0.3621 -0.580 -0.799 -0.159 31 24 18 0 0
-0.1371 -0.0853 -0.4219 -0.625 -0.757 0.191 70 57 41 0 0
-0.1370 -0.0848 -0.4238 -0.275 -0.786 0.554 63 46 33 0 0
-0.1374 -0.0856 -0.4251 -0.265 -0.794 0.548 65 49 37 0 0
-0.1373 -0.0849 -0.4271 -0.154 -0.818 0.555 54 40 28 0 0
-0.1494 -0.1039 -0.4969 -0.491 -0.779 0.391 102 88 68 0 0
-0.1516 -0.1094 -0.5008 -0.325 -0.838 0.438 53 41 25 0 0
-0.1569 -0.1170 -0.5345 -0.161 -0.966 0.200 77 60 37 0 0
-0.1579 -0.1168 -0.5469 -0.119 -0.980 0.161 96 81 51 0 0
-0.1596 -0.1072 -0.6088 -0.349 -0.912 -0.216 73 60 38 0 0
-0.1587 -0.1015 -0.6219 0.036 -0.977 -0.211 83 71 48 0 0
-0.1534 -0.0785 -0.6527 0.325 -0.945 0.045 23 19 14 0 0
-0.1531 -0.0769 -0.6557 0.104 -0.939 -0.328 22 18 15 0 0
-0.1518 -0.0692 -0.6728 -0.521 -0.852 -0.054 17 13 12 0 0
-0.1532 -0.0727 -0.6743 -0.035 -0.879 0.475 14 10 9 0 0
-0.1668 -0.1047 -0.7080 -0.074 -0.484 0.872 94 86 67 0 0
-0.1673 -0.1062 -0.7089 -0.074 -0.484 0.872 113 102 79 0 0
-0.1679 -0.1077 -0.7098 -0.074 -0.484 0.872 131 118 89 0 0
-0.1734 -0.1188 -0.7308 -0.263 -0.946 -0.189 143 122 83 0 0
-0.1728 -0.1144 -0.7423 -0.345 -0.886 -0.309 100 86 58 0 0
-0.1713 -0.0993 -0.7875 -0.497 -0.826 0.264 70 56 31 0 0
-0.1798 -0.1174 -0.8158 -0.400 -0.835 0.378 62 50 31 0 0
-0.1801 -0.1180 -0.8174 -0.421 -0.825 0.377 71 58 37 0 0
-0.1808 -0.1192 -0.8205 -0.370 -0.803 0.467 87 69 40 0 0
-0.1860 -0.1299 -0.8404 -0.290 -0.899 0.329 114 97 64 0 0
-0.1385 -0.0852 -0.4200 -0.550 -0.833 0.065 74 60 43 0 0
-0.1382 -0.0838 -0.4223 -0.011 -0.957 0.289 68 53 37 0 0
-0.1544 -0.1106 -0.5100 -0.500 -0.865 0.038 49 40 24 0 0
-0.1597 -0.1109 -0.5732 -0.218 -0.875 -0.432 84 72 53 0 0
-0.1594 -0.1071 -0.5865 -0.216 -0.919 0.331 68 54 31 0 0
-0.1611 -0.1077 -0.6043 -0.256 -0.939 -0.232 96 81 55 0 0
-0.1611 -0.1067 -0.6087 -0.349 -0.912 -0.216 93 81 59 0 0
-0.1580 -0.0913 -0.6339 -0.451 -0.677 -0.582 53 45 35 0 0
-0.1563 -0.0838 -0.6447 -0.441 -0.710 -0.549 26 21 15 0 0
-0.1553 -0.0796 -0.6495 -0.033 -0.925 -0.377 19 14 10 0 0
-0.1549 -0.0774 -0.6549 -0.056 -0.899 -0.434 20 16 13 0 0
-0.1541 -0.0711 -0.6710 -0.097 -0.993 -0.066 16 12 11 0 0
-0.1689 -0.1057 -0.7087 -0.186 -0.438 0.880 97 85 64 0 0
-0.1700 -0.1086 -0.7104 -0.173 -0.390 0.904 111 99 73 0 0
-0.1707 -0.1104 -0.7110 -0.138 -0.525 0.840 94 80 53 0 0
-0.1719 -0.1137 -0.7124 -0.159 -0.539 0.827 120 103 70 0 0
-0.1723 -0.1147 -0.7136 -0.011 -0.552 0.834 175 161 119 0 0
-0.1744 -0.1139 -0.7421 -0.451 -0.814 -0.366 83 70 46 0 0
-0.1742 -0.1126 -0.7452 -0.451 -0.814 -0.366 85 74 49 0 0
-0.1711 -0.0974 -0.7698 -0.219 -0.861 -0.458 83 69 43 0 0
-0.1726 -0.0981 -0.7858 -0.402 -0.856 0.325 58 46 22 0 0
-0.1817 -0.1173 -0.8173 -0.400 -0.835 0.378 59 45 34 0 0
-0.1820 -0.1179 -0.8188 -0.299 -0.829 0.474 68 52 34 0 0
-0.1845 -0.1237 -0.8263 -0.290 -0.695 0.658 82 69 42 0 0
-0.1849 -0.1243 -0.8279 -0.423 -0.822 0.381 85 71 44 0 0
-0.1852 -0.1250 -0.8293 -0.400 -0.866 0.300 83 69 42 0 0
-0.1856 -0.1256 -0.8309 -0.322 -0.848 0.420 82 68 41 0 0
-0.1199 -0.0498 -0.3190 -0.283 -0.911 0.299 27 21 13 0 0
-0.1252 -0.0526 -0.3725 -0.417 -0.857 0.304 32 24 15 0 0
-0.1422 -0.0840 -0.4501 -0.847 -0.506 0.163 61 51 41 0 0
-0.1434 -0.0843 -0.4635 -0.868 -0.497 0.024 69 61 50 0 0
-0.1588 -0.1150 -0.5262 -0.436 -0.844 0.313 74 53 34 0 0
-0.1594 -0.1159 -0.5291 -0.339 -0.915 0.218 71 49 28 0 0
-0.1575 -0.0827 -0.6431 -0.557 -0.575 -0.600 28 23 18 0 0
-0.1573 -0.0815 -0.6458 -0.089 -0.908 -0.409 22 17 14 0 0
-0.1571 -0.0800 -0.6487 -0.006 -0.941 -0.339 20 16 13 0 0
-0.1567 -0.0782 -0.6519 -0.080 -0.937 -0.340 15 11 9 0 0
-0.1567 -0.0776 -0.6542 0.087 -0.904 -0.418 13 11 9 0 0
-0.1561 -0.0747 -0.6582 -0.225 -0.804 -0.551 14 10 7 0 0
-0.1562 -0.0718 -0.6718 -0.585 -0.640 0.499 15 11 10 0 0
-0.1723 -0.1100 -0.7108 -0.238 -0.395 0.887 91 80 53 0 0
-0.1729 -0.1115 -0.7116 -0.182 -0.454 0.872 135 119 92 0 0
-0.1758 -0.1129 -0.7423 -0.361 -0.847 -0.390 81 71 49 0 0
-0.1726 -0.0967 -0.7697 -0.314 -0.824 -0.472 86 72 44 0 0
-0.1717 -0.0914 -0.7803 -0.457 -0.881 -0.123 95 79 53 0 0
-0.1742 -0.0973 -0.7858 -0.402 -0.856 0.325 58 47 23 0 0
-0.1745 -0.0978 -0.7874 -0.402 -0.856 0.325 75 62 37 0 0
-0.1747 -0.0975 -0.7919 -0.720 -0.509 0.472 82 68 42 0 0
-0.1751 -0.0983 -0.7933 -0.720 -0.509 0.472 77 62 37 0 0
-0.1755 -0.0990 -0.7948 -0.661 -0.427 0.617 78 63 37 0 0
-0.1848 -0.1199 -0.8228 -0.275 -0.876 0.395 74 60 40 0 0
-0.1850 -0.1202 -0.8246 -0.220 -0.861 0.459 84 69 46 0 0
-0.1854 -0.1209 -0.8261 -0.220 -0.861 0.459 84 70 44 0 0
-0.1881 -0.1267 -0.8355 -0.462 -0.806 0.371 104 85 56 0 0
-0.1097 -0.0244 -0.2795 -0.694 -0.566 0.446 77 65 50 0 0
-0.1247 -0.0487 -0.3623 -0.223 -0.946 0.234 40 33 22 0 0
-0.1250 -0.0487 -0.3656 -0.322 -0.847 0.423 26 17 10 0 0
-0.1265 -0.0515 -0.3727 -0.317 -0.860 0.400 37 29 21 0 0
-0.1584 -0.1108 -0.5178 -0.581 -0.716 0.387 69 52 37 0 0
-0.1607 -0.1150 -0.5292 -0.495 -0.784 0.374 77 55 35 0 0
-0.1631 -0.1106 -0.5761 -0.223 -0.932 -0.285 88 75 55 0 0
-0.1631 -0.1099 -0.5784 -0.119 -0.945 -0.303 86 73 54 0 0
-0.1591 -0.0818 -0.6451 -0.232 -0.875 -0.426 18 14 12 0 0
-0.1576 -0.0718 -0.6674 0.276 -0.896 -0.349 14 11 9 0 0
-0.1574 -0.0696 -0.6729 -0.798 -0.473 0.373 15 12 10 0 0
-0.1577 -0.0681 -0.6838 -0.745 -0.644 0.174 16 12 11 0 0
-0.1580 -0.0683 -0.6856 -0.745 -0.644 0.174 14 10 9 0 0
-0.1578 -0.0671 -0.6885 -0.549 -0.816 0.180 9 7 6 0 0
-0.1693 -0.0969 -0.7064 -0.177 -0.639 0.749 70 61 46 0 0
-0.1697 -0.0978 -0.7077 -0.045 -0.195 0.980 95 83 67 0 0
-0.1718 -0.1038 -0.7090 -0.298 -0.392 0.870 111 99 75 0 0
-0.1743 -0.1108 -0.7116 -0.178 -0.518 0.836 125 111 84 0 0
-0.1773 -0.1121 -0.7424 -0.434 -0.809 -0.395 78 71 48 0 0
-0.1743 -0.0962 -0.7695 -0.314 -0.824 -0.472 82 69 38 0 0
-0.1763 -0.0967 -0.7919 -0.192 -0.825 0.532 84 70 45 0 0
-0.1767 -0.0977 -0.7932 -0.061 -0.908 0.414 72 56 34 0 0
-0.1771 -0.0984 -0.7947 -0.024 -0.837 0.547 73 56 34 0 0
-0.1896 -0.1259 -0.8356 -0.489 -0.777 0.397 109 90 60 0 0
-0.1903 -0.1271 -0.8387 -0.434 -0.809 0.396 114 97 67 0 0
-0.1906 -0.1277 -0.8403 -0.434 -0.809 0.396 105 88 57 0 0
-0.1909 -0.1280 -0.8422 -0.390 -0.821 0.417 106 87 54 0 0
-0.1923 -0.1286 -0.8565 -0.566 -0.801 0.197 100 89 61 0 0
-0.1017 0.0000 -0.2607 -0.781 -0.071 0.621 169 159 147 0 0
-0.1025 -0.0023 -0.2617 -0.774 -0.087 0.627 156 140 122 0 0
-0.1093 -0.0204 -0.2710 -0.303 -0.768 0.564 49 36 22 0 0
-0.1110 -0.0233 -0.2795 -0.545 -0.627 0.557 97 87 73 0 0
-0.1411 -0.0887 -0.3787 -0.932 -0.318 0.171 85 72 57 0 0
-0.1600 -0.1105 -0.5192 -0.173 -0.925 0.339 57 41 22 0 0
-0.1663 -0.1079 -0.6046 -0.083 -0.995 -0.055 109 92 66 0 0
-0.1664 -0.1078 -0.6065 -0.083 -0.995 -0.055 101 84 60 0 0
-0.1662 -0.1061 -0.6113 -0.260 -0.941 -0.218 92 79 58 0 0
-0.1664 -0.1062 -0.6131 -0.431 -0.851 -0.298 84 71 52 0 0
-0.1618 -0.0864 -0.6376 -0.218 -0.896 -0.388 28 23 12 0 0
-0.1617 -0.0853 -0.6403 -0.218 -0.896 -0.388 22 17 12 0 0
-0.1604 -0.0756 -0.6643 0.431 -0.902 0.007 11 10 8 0 0
-0.1590 -0.0663 -0.6845 -0.243 -0.918 0.313 15 11 10 0 0
-0.1593 -0.0668 -0.6862 -0.243 -0.918 0.313 14 10 9 0 0
-0.1598 -0.0674 -0.6897 -0.076 -0.873 0.481 7 6 4 0 0
-0.1601 -0.0679 -0.6913 -0.247 -0.918 0.309 7 6 4 0 0
-0.1600 -0.0663 -0.6965 -0.171 -0.876 0.450 8 7 5 0 0
-0.1709 -0.0966 -0.7060 -0.002 -0.669 0.744 75 66 53 0 0
-0.1794 -0.1189 -0.7185 -0.440 -0.780 0.445 81 58 34 0 0
-0.1800 -0.1186 -0.7266 -0.365 -0.923 -0.124 135 116 76 0 0
-0.1786 -0.1098 -0.7456 -0.431 -0.812 -0.395 107 96 69 0 0
-0.1751 -0.0904 -0.7819 -0.285 -0.914 0.288 77 65 40 0 0
-0.1757 -0.0920 -0.7827 -0.102 -0.933 0.344 60 48 29 0 0
-0.1924 -0.1272 -0.8422 -0.390 -0.821 0.417 108 90 57 0 0
-0.1926 -0.1272 -0.8443 -0.312 -0.934 0.177 128 108 71 0 0
-0.1123 -0.0223 -0.2796 -0.545 -0.627 0.557 100 92 74 0 0
-0.1412 -0.0840 -0.3803 -0.961 -0.229 0.155 83 69 57 0 0
-0.1423 -0.0872 -0.3806 -0.971 -0.237 0.021 78 64 50 0 0
-0.1458 -0.0780 -0.4587 -0.875 -0.471 0.112 75 61 48 0 0
-0.1461 -0.0782 -0.4620 -0.876 -0.425 0.228 77 66 57 0 0
-0.1654 -0.1145 -0.5479 -0.174 -0.952 0.252 87 70 41 0 0
-0.1656 -0.1148 -0.5495 -0.174 -0.952 0.252 87 70 42 0 0
-0.1668 -0.1137 -0.5679 -0.492 -0.865 0.098 112 96 70 0 0
-0.1668 -0.1130 -0.5701 -0.290 -0.942 -0.169 101 85 59 0 0
-0.1660 -0.1069 -0.5847 -0.128 -0.899 0.418 57 43 23 0 0
-0.1618 -0.0679 -0.6908 -0.177 -0.971 0.163 7 6 4 0 0
-0.1633 -0.0690 -0.7040 -0.602 -0.457 0.655 16 12 11 0 0
-0.1638 -0.0703 -0.7051 -0.595 -0.373 0.712 19 14 13 0 0
-0.1719 -0.0939 -0.7075 -0.301 -0.251 0.920 70 60 49 0 0
-0.1796 -0.1160 -0.7123 -0.338 -0.715 0.612 141 119 83 0 0
-0.1810 -0.1175 -0.7229 -0.235 -0.939 0.252 122 102 67 0 0
-0.1814 -0.1183 -0.7242 -0.399 -0.909 0.120 138 118 82 0 0
-0.1814 -0.1177 -0.7267 -0.416 -0.907 -0.065 133 114 76 0 0
-0.1798 -0.0963 -0.7931 -0.011 -0.975 0.223 70 54 30 0 0
-0.1838 -0.1063 -0.8013 -0.044 -0.555 0.830 104 88 54 0 0
-0.1941 -0.1264 -0.8444 -0.154 -0.986 0.064 128 107 70 0 0
-0.1028 0.0068 -0.2620 -0.700 -0.051 0.712 172 166 157 0 0
-0.1379 -0.0534 -0.4426 -0.722 0.063 0.689 33 26 20 0 0
-0.1663 -0.1141 -0.5407 -0.404 -0.889 0.215 85 65 40 0 0
-0.1680 -0.1090 -0.5812 -0.287 -0.950 -0.120 74 61 43 0 0
-0.1675 -0.1066 -0.5845 -0.128 -0.899 0.418 59 44 24 0 0
-0.1650 -0.0817 -0.6532 -0.328 -0.914 -0.239 15 12 11 0 0
-0.1650 -0.0808 -0.6557 -0.381 -0.911 -0.158 14 11 10 0 0
-0.1647 -0.0792 -0.6587 -0.174 -0.984 0.024 11 9 7 0 0
-0.1647 -0.0786 -0.6611 -0.387 -0.893 0.231 9 8 6 0 0
-0.1649 -0.0789 -0.6629 -0.387 -0.893 0.231 12 10 8 0 0
-0.1641 -0.0696 -0.6890 -0.191 -0.942 0.274 8 7 5 0 0
-0.1690 -0.0800 -0.7073 0.053 -0.515 0.855 38 31 23 0 0
-0.1828 -0.1154 -0.7320 -0.357 -0.835 -0.420 119 103 69 0 0
-0.1902 -0.1154 -0.8199 -0.513 -0.778 0.362 78 61 41 0 0
-0.1317 -0.0535 -0.3481 -0.420 -0.907 -0.028 43 34 25 0 0
-0.1310 -0.0481 -0.3614 -0.371 -0.927 -0.053 48 38 25 0 0
-0.1308 -0.0448 -0.3724 -0.876 -0.482 0.010 57 47 37 0 0
-0.1674 -0.1128 -0.5393 -0.515 -0.749 0.418 54 37 17 0 0
-0.1702 -0.1087 -0.5881 -0.515 -0.757 0.401 115 97 69 0 0
-0.1709 -0.1081 -0.5994 -0.326 -0.935 0.143 99 82 54 0 0
-0.1704 -0.1043 -0.6074 -0.684 -0.716 -0.141 101 86 60 0 0
-0.1685 -0.0936 -0.6275 -0.149 -0.934 -0.325 45 36 24 0 0
-0.1667 -0.0815 -0.6528 -0.320 -0.910 -0.263 26 20 16 0 0
-0.1665 -0.0802 -0.6557 -0.381 -0.911 -0.158 24 17 14 0 0
-0.1663 -0.0789 -0.6584 -0.204 -0.978 0.049 21 14 10 0 0
-0.1661 -0.0776 -0.6613 -0.408 -0.873 0.267 25 19 15 0 0
-0.1663 -0.0776 -0.6632 -0.615 -0.753 0.235 18 13 10 0 0
-0.1662 -0.0768 -0.6657 -0.215 -0.966 -0.145 19 14 11 0 0
-0.1654 -0.0683 -0.6894 -0.152 -0.979 0.137 8 7 5 0 0
-0.1656 -0.0684 -0.6914 -0.044 -0.804 0.593 8 7 5 0 0
-0.1866 -0.1041 -0.7997 -0.167 -0.807 0.567 152 133 96 0 0
-0.1869 -0.1047 -0.8013 -0.254 -0.899 0.358 142 123 88 0 0
-0.1942 -0.1194 -0.8304 -0.234 -0.881 0.411 78 63 37 0 0
-0.1946 -0.1201 -0.8318 -0.416 -0.874 0.252 69 54 29 0 0
-0.1268 -0.0428 -0.3134 -0.439 -0.735 0.517 47 37 27 0 0
-0.1325 -0.0527 -0.3418 -0.421 -0.858 0.294 30 24 19 0 0
-0.1447 -0.0609 -0.4539 -0.972 0.125 0.198 32 26 19 0 0
-0.1703 -0.0944 -0.6246 -0.601 -0.705 -0.377 47 36 21 0 0
-0.1707 -0.0953 -0.6259 -0.554 -0.815 -0.169 44 34 22 0 0
-0.1679 -0.0765 -0.6654 -0.857 -0.447 0.257 22 17 13 0 0
-0.1671 -0.0680 -0.6891 -0.078 -0.971 0.225 8 7 5 0 0
-0.1683 -0.0686 -0.7006 -0.097 -0.814 0.573 12 8 7 0 0
-0.1845 -0.1140 -0.7161 -0.130 -0.839 0.528 99 80 54 0 0
-0.1847 -0.0955 -0.7897 -0.304 -0.914 0.269 74 59 36 0 0
-0.1853 -0.0963 -0.7932 -0.304 -0.914 0.269 75 60 35 0 0
-0.1888 -0.1045 -0.8029 -0.388 -0.848 0.361 108 92 60 0 0
-0.1891 -0.1051 -0.8045 -0.388 -0.848 0.361 103 88 60 0 0
-0.1925 -0.1127 -0.8146 -0.413 -0.647 0.641 75 60 36 0 0
-0.1955 -0.1182 -0.8286 -0.234 -0.881 0.411 80 64 38 0 0
-0.1965 -0.1202 -0.8332 -0.233 -0.878 0.419 74 60 32 0 0
-0.1984 -0.1232 -0.8432 -0.441 -0.871 0.217 102 86 57 0 0
-0.2021 -0.1279 -0.8686 -0.262 -0.340 0.903 169 169 168 0 0
-0.1294 -0.0438 -0.3207 -0.344 -0.850 0.398 89 78 62 0 0
-0.1329 -0.0501 -0.3376 -0.382 -0.662 0.645 58 47 26 0 0
-0.1341 -0.0472 -0.3627 -0.512 -0.810 -0.286 69 58 43 0 0
-0.1694 -0.1097 -0.5368 -0.395 -0.848 0.354 65 49 25 0 0
-0.1703 -0.1112 -0.5412 -0.244 -0.949 0.198 64 46 27 0 0
-0.1725 -0.1064 -0.5850 -0.099 -0.858 0.503 63 45 26 0 0
-0.1729 -0.1072 -0.5863 -0.421 -0.831 0.364 82 61 38 0 0
-0.1721 -0.0949 -0.6238 -0.397 -0.888 -0.233 67 56 36 0 0
-0.1724 -0.0955 -0.6252 -0.082 -0.991 -0.105 59 48 32 0 0
-0.1699 -0.0681 -0.7004 -0.214 -0.709 0.673 13 9 7 0 0
-0.1751 -0.0820 -0.7082 -0.776 -0.321 0.543 35 28 21 0 0
-0.1792 -0.0942 -0.7090 -0.353 -0.240 0.904 58 51 40 0 0
-0.1828 -0.1049 -0.7107 -0.324 -0.278 0.904 105 93 68 0 0
-0.1869 -0.1146 -0.7209 -0.259 -0.932 0.255 105 86 57 0 0
-0.1860 -0.0943 -0.7880 -0.422 -0.723 0.546 45 34 19 0 0
-0.1863 -0.0949 -0.7896 -0.293 -0.857 0.423 51 39 24 0 0
-0.1993 -0.1215 -0.8397 -0.519 -0.704 0.486 73 58 35 0 0
-0.1040 0.0242 -0.2655 -0.615 0.126 0.778 178 177 179 0 0
-0.1054 0.0201 -0.2661 -0.699 0.124 0.704 177 175 175 0 0
-0.1316 -0.0438 -0.3284 -0.686 -0.706 0.176 30 24 19 0 0
-0.1342 -0.0494 -0.3376 -0.382 -0.662 0.645 46 35 18 0 0
-0.1352 -0.0509 -0.3434 -0.375 -0.874 0.310 44 35 27 0 0
-0.1349 -0.0436 -0.3670 -0.328 -0.722 -0.609 50 40 27 0 0
-0.1364 -0.0354 -0.4151 -0.626 -0.778 -0.042 85 70 48 0 0
-0.1366 -0.0341 -0.4224 -0.502 -0.862 0.077 94 81 59 0 0
-0.1368 -0.0342 -0.4241 -0.502 -0.862 0.077 100 86 63 0 0
-0.1370 -0.0343 -0.4258 -0.519 -0.848 0.106 96 81 58 0 0
-0.1739 -0.1054 -0.5852 -0.426 -0.799 0.425 59 41 24 0 0
-0.1740 -0.0958 -0.6227 0.100 -0.989 -0.106 71 59 35 0 0
-0.1741 -0.0956 -0.6247 0.100 -0.989 -0.106 71 59 38 0 0
-0.1744 -0.0962 -0.6262 0.023 -0.997 -0.068 63 52 33 0 0
-0.1745 -0.0930 -0.6396 -0.083 -0.955 0.285 38 31 18 0 0
-0.1714 -0.0754 -0.6690 -0.442 -0.801 -0.403 26 20 16 0 0
-0.1714 -0.0672 -0.7005 -0.487 -0.592 0.643 14 10 7 0 0
-0.1807 -0.0934 -0.7090 -0.167 -0.321 0.932 56 50 39 0 0
-0.1813 -0.0954 -0.7095 -0.058 -0.518 0.854 62 55 42 0 0
-0.1819 -0.0970 -0.7102 0.049 -0.374 0.926 84 75 59 0 0
-0.1883 -0.1136 -0.7211 -0.490 -0.771 0.408 95 76 48 0 0
-0.1909 -0.1011 -0.7983 -0.330 -0.802 0.498 84 69 45 0 0
-0.1913 -0.1019 -0.7997 -0.330 -0.802 0.498 90 75 50 0 0
-0.2008 -0.1206 -0.8399 -0.520 -0.742 0.424 72 61 36 0 0
-0.2011 -0.1212 -0.8415 -0.517 -0.762 0.391 94 80 51 0 0
-0.2035 -0.1233 -0.8609 -0.714 -0.667 0.212 66 63 46 0 0
-0.1330 -0.0432 -0.3283 -0.761 -0.639 0.111 31 27 23 0 0
-0.1355 -0.0391 -0.3717 -0.313 -0.761 -0.568 45 37 22 0 0
-0.1377 -0.0342 -0.4153 -0.490 -0.871 0.039 85 68 48 0 0
-0.1378 -0.0340 -0.4171 -0.554 -0.816 0.163 75 59 38 0 0
